ply
format ascii 1.0
comment Created by Open3D
element vertex 1953
property double x
property double y
property double z
end_header
-19.2326 91.0126 -0.580056
-17.0785 97.4686 -1.48206
-18.9556 104.899 17.0088
-14.8545 117.424 15.5362
-13.9801 106.533 -2.94909
-12.2361 124.471 13.3698
-10.6867 128.371 11.7362
-17.9522 107.664 16.8957
-12.855 122.694 14.2592
-13.1943 108.772 -2.84511
-1.73484 148.113 -1.42792
-15.2527 115.803 15.9357
-21.8143 92.1516 13.6505
-8.42845 132.537 7.81232
-17.5827 95.5096 -0.558034
-11.9674 124.578 13.3188
-24.1847 83.8794 13.7589
-12.0241 112.649 -2.22116
-6.01548 137.771 4.56293
-8.31075 126.625 0.110448
-1.53676 148.181 -1.32584
-13.6631 106.264 -3.1369
-15.2486 115.162 16.14
-6.80801 131.198 -0.199912
-20.4211 96.2282 14.2924
-4.37844 138.791 -0.573905
-18.4618 104.758 17.1112
-22.705 88.706 14.7009
-12.2444 110.716 -2.62162
-23.3576 86.115 14.3211
-9.51851 121.357 -0.269931
-23.8926 83.7009 13.7474
-12.3772 109.876 -2.70796
-7.53987 128.229 0.268727
-18.1315 105.288 17.1877
-4.94752 140.138 4.80873
-0.531232 150.384 -1.20509
-14.2516 103.448 -2.42088
-11.7429 123.804 13.6948
-20.1238 86.4122 1.29628
-18.4098 103.909 17.111
-4.27589 142.231 5.14623
-6.70941 130.405 0.274955
-4.73923 140.169 4.57789
-4.3669 141.719 5.00124
-20.2461 86.0044 1.53768
-8.80897 122.884 -0.131355
-17.4108 106.761 17.0206
-2.94601 142.027 -0.55646
-12.9802 106.745 -2.87289
-23.5592 84.2995 14.5451
-7.25648 133.848 7.89124
-5.32152 134.482 0.267592
-10.3632 116.96 -0.538115
-18.1278 104.144 17.1735
-20.1122 95.0871 13.9986
-11.0953 113.696 -1.48022
-12.3698 121.554 14.8578
-4.02537 138.398 -0.0142514
-20.1095 85.6062 1.73344
-16.4937 95.9751 -0.540077
-19.3528 87.2591 0.755964
-6.55274 129.982 0.657862
-14.7012 100.832 -1.84103
-23.6217 81.2732 12.1007
-0.813248 147.888 -0.823626
-13.1923 118.475 15.4292
-9.59106 128.126 12.2963
-10.522 115.034 -0.991806
-14.931 112.915 16.0767
-12.5414 106.455 -3.12887
-14.6064 113.687 15.9849
-20.6845 91.6078 14.1654
-0.164045 149.146 -0.713769
-11.24 123.114 14.1188
-6.09418 135.099 7.28611
-4.90271 134.196 0.752485
-4.2548 136.172 0.501244
-10.4107 114.399 -1.06606
-7.12589 132.525 8.56603
-17.096 92.369 -0.431332
-7.87411 123.713 0.303317
-13.7116 115.619 15.7028
-7.06918 132.497 8.62608
-12.2747 106.135 -3.38969
-23.3252 80.9127 12.412
-21.0699 81.3367 2.90904
-19.4494 85.6486 1.60741
-18.0962 88.828 -0.0951314
-21.389 88.8262 15.2551
1.68384 153.325 -1.26797
-21.5494 88.0459 15.4824
-17.2907 90.1969 -0.616125
-12.6986 117.382 15.3648
-17.2386 103.767 17.4953
-4.21424 134.865 0.937083
0.0622779 148.16 -0.40718
-11.5057 107.54 -2.46328
-7.84029 121.864 0.365059
-5.04545 131.466 0.746946
-2.5087 142.073 3.99314
-19.6462 92.3607 14.3304
-9.30539 115.726 -0.732346
-12.3522 103.713 -2.85149
-17.6822 87.999 0.338886
-3.87658 134.693 1.14401
-17.5423 88.2571 0.165637
-6.92999 123.963 0.53657
-20.1446 90.4525 14.9182
-7.121 123.269 0.507174
-10.5449 122.276 14.6385
-21.2863 78.0097 3.44841
-13.0183 114.543 15.4046
-2.32289 139.199 0.531728
-8.0179 119.602 -0.159148
-20.0859 90.4563 14.9362
-0.601192 144.412 -0.0609322
-9.88244 112.392 -1.22947
-15.5576 106.729 16.6831
-11.8981 104.168 -3.20176
-4.49797 131.825 0.716906
-15.0999 107.825 16.265
-15.028 107.951 16.2018
-4.55062 131.389 0.62207
-2.03872 141.663 3.4309
-2.37016 138.48 0.699408
-20.2942 89.3746 15.4909
-22.169 81.305 13.1639
-16.8899 102.347 17.7701
-20.0274 80.6596 2.76749
-16.2068 104.359 17.4706
-13.7141 98.6349 -1.39645
-11.634 104.182 -3.28281
-9.17917 113.983 -1.1428
-8.06797 127.812 12.4608
-12.2217 116.004 15.2636
-6.69454 123.314 0.361902
-3.85292 133.244 1.14058
-19.3103 91.5231 14.684
-6.77921 129.665 9.76622
-16.6129 89.1134 -0.533998
-7.82097 118.36 -0.478252
-12.7975 113.335 15.3549
-9.59167 123.207 14.3234
1.99239 150.71 -0.728658
-1.40107 142.995 4.18511
-22.0834 79.922 12.4341
-22.087 80.4043 13.1043
-10.3584 121.116 15.2339
-17.9568 96.2417 16.0325
-10.4273 120.662 15.2789
-10.0183 121.753 14.9697
-1.25886 142.875 4.01799
-12.2501 114.489 15.3005
-17.1325 99.5644 17.2181
-12.1962 114.623 15.2847
-12.5808 113.363 15.3382
-11.4448 103.533 -2.95336
-21.5296 83.3068 15.3045
-11.8147 115.682 15.1666
-17.6132 97.4561 16.7634
-3.74015 136.301 6.65459
-18.6962 92.2199 14.6631
-6.3195 122.598 0.0187699
-13.0037 99.1553 -1.32283
-8.88253 112.71 -1.57796
-20.0402 79.0076 3.34698
-13.9657 96.3754 -0.522933
-10.7181 118.144 15.1886
-2.45881 138.587 5.65552
-21.2957 82.6463 15.2002
1.94978 148.636 -0.583207
-10.5406 118.592 15.2168
-16.1361 101.674 17.7903
-20.369 85.8946 15.7473
-7.83376 125.761 13.1797
-6.19717 120.714 -0.709365
-9.0827 122.346 14.5102
-13.0575 97.5518 -0.820917
-16.9208 85.6043 0.778086
-17.4012 95.07 15.7404
-5.52109 122.774 -0.268714
-19.3564 88.5989 16.1612
-19.4527 88.2402 16.1761
-2.80557 136.893 6.89467
-11.568 100.92 -1.70181
-0.442749 139.939 0.80528
-10.675 102.976 -2.82929
1.90083 146.635 -0.243061
-19.1713 78.7342 3.30825
-19.9604 76.7883 4.26054
-17.685 92.6059 15.3873
-2.10904 134.433 1.61076
-8.76237 108.924 -2.72859
-16.8618 96.6355 17.2271
-21.0502 79.2119 12.8098
-16.9074 96.0064 16.9411
-21.0179 79.1206 12.7298
-6.51677 116.561 -2.00801
-17.7894 91.7961 15.4016
-10.2016 103.359 -3.16017
-2.20008 133.311 1.47259
-17.1825 93.7167 15.6071
-16.0059 99.384 18.1164
-16.9823 94.2014 15.5568
-19.3234 77.5468 3.71563
-1.8632 134.406 1.66994
-15.0578 88.6085 -0.387788
-2.85825 129.656 -0.0256035
-9.49468 118.89 15.3456
-17.446 92.5395 15.6801
-5.87481 127.605 10.9708
-19.433 85.5435 15.6331
-5.46488 128.266 10.3475
-18.9418 87.5067 16.2975
-17.5001 81.3067 1.72284
-16.1163 84.9471 0.460205
-7.95451 109.495 -3.08025
-18.9313 77.5695 3.73207
-12.0845 109.14 15.4339
-4.63389 130.298 10.4064
-18.9595 86.343 15.7963
-17.8603 89.9975 15.8382
-18.5144 88.1963 16.361
-18.5342 78.322 3.45703
-11.8486 109.488 15.368
-3.67871 124.843 -0.721281
0.458535 139.78 0.764555
0.786596 142.416 3.022
-0.570399 136.493 1.46425
0.505716 142.479 4.79448
3.67509 148.671 -1.02283
-8.81355 119.041 15.3517
-5.79383 126.325 11.649
-12.5784 106.665 15.8227
-5.88644 114.833 -3.14039
-2.96442 126.415 -0.631603
-6.08216 113.805 -3.29855
-19.4895 80.8493 12.7645
-5.735 114.913 -3.1612
-5.23861 116.737 -2.93341
0.96314 140.113 0.676347
5.37648 153.246 -1.22096
-0.790231 137.77 6.02164
-2.11404 128.725 -0.140915
5.44004 153.058 -1.3532
-9.3667 115.723 15.166
-18.0389 87.2769 16.1003
4.47279 149.447 -1.46803
1.17755 142.24 3.7317
-4.13334 129.486 10.5876
-7.60018 120.795 14.5237
-13.6073 102.743 17.3446
5.6529 153.102 -1.40589
-12.7819 104.739 16.538
-3.06001 132.454 10.372
-15.4263 83.9297 0.749179
-12.3184 93.4215 -0.442179
-1.33786 131.4 1.27703
2.19312 142.447 0.261167
-6.81904 109.313 -3.74146
-5.38911 114.366 -3.35447
-9.1434 102.214 -2.77403
1.67567 142.778 3.19259
5.2638 151.044 -1.77564
1.33044 142.23 4.07077
0.925341 141.38 4.75888
-18.6196 81.4323 12.1817
-10.8688 97.6713 -0.819886
-3.10835 123.02 -1.39137
2.55226 142.898 -0.101393
-16.3191 92.0631 16.6196
-9.36312 101.124 -2.43299
-7.4278 106.097 -4.25636
-18.3091 81.7963 12.1576
-15.7299 81.8616 1.32712
-11.8872 93.4094 -0.419077
-15.4878 82.3802 1.12753
-12.9637 89.8619 -0.141121
-1.15936 130.082 0.918248
-3.93312 128.385 11.1693
-7.33066 119.828 15.0016
0.270747 135.175 1.5125
-5.86544 110.858 -3.56541
5.3476 149.492 -1.93694
-10.4799 109.541 15.6199
-10.445 97.422 -0.670132
-2.65367 122.431 -1.97117
-0.509881 132.118 1.47601
-11.247 94.6752 -0.542664
-5.17871 124.399 12.1379
-0.340984 132.612 1.46698
2.54139 141.162 0.00310558
-5.07332 124.559 12.0215
-13.4029 100.979 17.7819
-16.6606 78.958 2.91833
2.53854 140.931 -0.0158767
0.487049 135.167 1.46302
2.97518 142.05 -0.442503
1.61077 138.284 0.75371
-6.48543 121.012 14.0557
-9.00049 100.263 -2.39909
-8.85161 113.918 15.3356
-1.38767 134.272 9.26932
-17.0974 84.4951 13.3706
2.63676 142.944 3.31284
-13.9587 98.3224 17.9658
2.59619 140.27 -0.0616836
-6.95352 119.513 15.0532
5.81706 149.354 -2.20351
4.23315 144.685 -1.29243
-14.124 84.464 0.514985
2.53027 139.81 0.141196
-1.36837 133.8 9.7062
-0.553179 130.067 1.20358
-3.63554 127.526 11.74
-3.03387 118.237 -3.08839
-14.6844 82.4434 1.17406
-5.72636 108.378 -4.11102
-10.7095 94.3474 -0.494648
-4.59902 124.289 12.2856
-0.881597 134.391 9.45362
-11.3461 92.1914 -0.220261
3.32117 143.642 3.08153
-4.08597 125.526 12.0919
-6.71305 104.466 -4.24764
-7.99664 101.067 -2.85686
-1.63488 122.988 -1.86997
-7.85264 114.749 15.29
-2.8111 117.869 -3.12186
2.08808 137.067 0.665066
-5.44421 121.478 13.6277
-12.0033 89.1715 -0.0345906
-9.72119 108.627 15.8666
-13.7623 97.0957 18.558
2.82076 138.757 0.0330156
-5.68397 107.314 -3.98857
-14.5211 93.6088 17.5706
-15.9682 78.1017 3.37213
-15.9383 87.1988 15.6706
-2.64592 128.716 11.8489
-15.2738 89.9027 16.6115
4.4946 142.295 -1.61989
-7.82687 113.752 15.4062
-1.85931 120.026 -2.77955
-15.7408 86.5039 14.6469
-10.9755 103.904 16.7024
-1.81216 130.559 11.4251
-4.24883 111.181 -3.51825
-13.0054 97.8467 18.0039
6.41299 147.337 -2.70361
-8.89158 109.748 15.8467
-0.904237 123.575 -1.40131
-10.9445 103.434 16.9408
-6.38113 117.404 15.4446
3.57226 138.502 -0.877229
-4.68087 121.613 13.6484
-1.39824 130.696 11.3202
5.97791 145.015 -2.56735
-0.196952 126.313 0.10422
-8.12138 111.368 15.693
-9.4158 94.8779 -0.557603
-14.9889 88.2069 15.6982
-4.54544 108.43 -3.87898
2.56977 139.971 6.54727
0.918807 135.886 8.59959
-0.120502 133.619 10.288
7.43919 148.888 -3.0517
-5.26319 119.614 14.7131
6.56934 145.873 -3.12131
1.6613 132.491 1.03877
-5.24889 105.597 -3.99857
-5.94339 103.154 -4.05605
2.65871 139.884 6.65646
-11.0907 88.9316 -0.0202132
-0.565505 123.08 -1.39317
3.38278 136.883 -0.434335
-3.25394 124.55 12.9178
-12.7768 95.8852 17.427
5.58587 142.651 -2.25326
-3.16796 112.154 -3.84266
-3.25482 124.324 13.0124
7.10521 146.949 -3.14934
-0.556698 122.356 -1.71373
-12.3536 84.4052 0.519732
6.60448 145.111 -3.09478
0.0579537 125.643 0.229945
-12.7551 83.2752 0.983251
-12.5587 96.2394 17.6429
-0.493588 122.134 -1.74492
3.47946 136.284 -0.454836
4.4606 138.186 -2.07142
-6.76848 113.49 15.5425
5.52116 146.355 4.47207
-9.94025 91.2496 -0.0451481
-9.12766 105.864 15.9521
-1.15801 129.239 11.7312
-1.49691 128.154 11.9365
5.16779 139.782 -2.39431
-12.146 95.7976 16.4975
4.11291 136.707 -1.56013
-14.4778 77.8226 2.89669
-3.93951 108.054 -3.80108
-14.901 81.9641 10.4473
-0.442153 130.805 11.1778
0.0563443 123.984 -0.200072
-14.798 82.9586 11.4666
-6.04085 115.2 15.4538
2.56261 137.864 7.30693
3.97098 136.02 -1.29639
4.9495 144.352 5.55015
-6.22769 100.584 -2.92217
-8.2489 95.5412 -0.592489
7.68336 146.567 -3.54361
0.426876 125.339 0.549132
-13.7371 89.8505 16.7258
-3.83749 121.026 14.1378
8.86066 154.33 1.85621
-12.9721 92.9855 17.554
-5.02137 103.452 -4.08729
-13.6843 90.185 17.1104
-8.56867 94.1575 -0.543113
-0.433212 120.127 -2.17634
-13.5389 91.2065 17.8956
4.12899 135.772 -1.59352
-7.99421 107.835 15.4022
-12.6385 94.0843 17.874
2.98065 138.396 7.26211
6.79682 143.189 -3.27406
2.58613 132.167 0.842036
2.22574 131.082 1.13627
1.86401 130.083 1.4329
-2.34967 111.912 -4.0294
-11.3987 97.8695 17.777
4.42075 135.891 -2.07399
-4.22201 105.279 -4.22675
-9.14779 104.047 16.2777
4.60914 142.286 5.8679
-6.3772 112.695 15.4917
-7.1743 110.032 15.4988
-9.52767 103.062 16.8553
-11.4788 97.222 17.7938
-10.3307 87.8093 0.00431521
-9.42439 90.6291 -0.239911
4.83947 136.613 -2.39912
3.25611 132.691 -0.49741
5.74238 139.173 -2.91682
3.70964 139.808 7.09291
-9.25178 90.9809 -0.177822
2.51567 130.933 0.640521
1.70912 128.79 1.43648
1.06249 132.76 9.75045
-1.79066 113.093 -3.77537
-6.74407 98.2206 -1.46025
7.85107 145.398 -3.62318
8.7139 148.338 -3.5444
-13.8229 85.668 13.5464
-11.1614 97.2269 17.374
4.85768 141.533 5.01485
-13.2067 89.5952 16.6378
1.43078 133.352 9.69438
-13.2023 89.2288 16.2117
-5.41025 114.501 15.374
2.6482 136.278 8.46507
-10.1898 86.9577 -0.0273733
-6.74822 97.4992 -1.22276
-2.12385 110.818 -4.08322
-12.7174 90.562 16.3706
-11.4946 94.0146 15.5491
4.63121 140.823 6.01301
-13.5368 85.6323 13.5538
-13.1801 87.3501 14.3095
-0.753925 116.738 -2.03929
9.78311 153.97 0.651161
2.028 134.722 9.65656
-9.24039 89.5097 -0.394255
8.66071 150.816 1.57898
6.58294 146.268 4.96469
-12.9278 89.6533 16.8017
-10.6432 97.4961 17.1834
6.5229 139.807 -3.10797
-6.11462 98.567 -1.69205
6.35248 144.167 3.57636
-13.1292 86.7707 14.0675
5.37318 136.352 -2.4512
-3.74811 104.508 -4.2395
4.55563 134.234 -1.56259
0.202822 119.455 -1.83437
-12.6487 90.0405 16.5532
3.11442 136.646 8.36853
-8.45632 91.4738 -0.286208
-7.07726 95.6833 -0.817691
3.19793 136.8 8.26299
-12.3032 79.4234 0.920333
2.0909 133.917 9.52956
-13.4013 82.4514 10.099
-0.617147 116.271 -1.90162
9.40399 152.212 1.39375
-6.07906 98.2105 -1.57977
-10.264 96.7509 15.3317
5.07264 135.038 -2.14782
6.40218 143.671 3.63805
-0.648748 115.701 -2.0007
-4.80654 114.536 15.2505
-8.46072 90.7891 -0.197939
2.98488 129.548 0.565003
10.1155 153.792 1.12844
-11.6984 92.2209 16.4771
2.20868 127.531 1.55128
-11.2226 92.8483 15.3711
2.25286 133.218 9.36144
-2.16207 108.168 -4.18902
-2.12842 121.549 13.7367
-12.3677 89.2736 16.4871
8.06732 142.243 -4.12276
7.01016 139.155 -3.47886
-4.01527 115.923 14.9214
-5.98512 109.495 15.15
2.3787 133.092 9.28792
-6.30947 108.145 14.9216
-9.29413 86.9788 -0.0535996
-11.4623 90.6434 14.684
-7.64059 104.434 16.1331
-13.5101 80.373 10.2713
9.21188 149.885 1.67483
3.39222 134.819 7.62768
8.39966 143.107 -3.71079
-5.90686 109.197 15.0657
-0.797108 112.941 -2.77156
-11.3875 90.1538 14.5107
-2.51417 119.43 14.0661
-3.49939 116.203 14.682
4.50752 137.615 7.48914
-11.0215 91.3407 15.1156
-12.2747 85.6255 13.0977
8.03152 140.541 -4.05094
-11.0456 91.4973 15.8517
-0.91821 110.71 -3.7501
-1.14367 122.348 12.9137
-12.099 77.715 2.28832
-12.315 82.4864 9.68263
-0.0390603 115.017 -1.77615
3.2451 127.716 0.551343
-6.9018 105.056 15.8952
2.82555 126.596 1.19625
7.30785 138.014 -3.58074
4.86806 136.748 5.73486
2.64369 126.163 1.57362
-1.87017 119.918 13.5347
1.06434 127.629 10.751
8.91121 143.201 -3.5664
8.28233 145.659 2.6936
6.2218 134.892 -2.34514
-7.91995 100.939 15.6983
-10.1584 92.908 14.9833
-7.63077 89.7828 -0.487866
10.2637 148.667 -1.74375
-7.76281 100.81 15.0666
-12.5997 80.7671 9.90363
0.710559 116.154 -2.18417
-4.86907 97.9112 -1.61678
-0.81406 109.268 -4.30713
-11.3598 78.2667 1.43688
9.67098 148.817 1.94777
-8.19274 97.861 13.9165
-4.13039 112.068 14.7858
1.95396 121.879 0.623736
-6.88334 103.125 15.3433
-2.78652 102.865 -3.37552
3.96354 127.33 -0.769335
8.13479 138.859 -3.96547
-7.63035 88.6314 -0.445142
-4.95814 108.832 14.815
-2.34885 116.82 13.85
-5.87052 105.962 15.1898
-8.98321 84.3141 0.128429
-8.12984 97.1034 13.4931
3.0828 125.599 1.39437
-8.42266 94.6302 11.5343
10.3134 147.151 -2.04657
8.12068 143.617 3.14213
-3.44936 100.444 -2.77834
-11.3326 83.7379 10.2061
-6.83473 90.3843 -0.969931
-1.43217 105.913 -4.34666
5.07936 129.962 -1.16123
11.155 151.239 0.385136
-4.49824 109.538 14.71
-11.6174 81.8252 9.56108
-2.25312 116.165 13.722
-2.17345 103.562 -3.57573
-7.93507 86.6818 -0.363581
-3.8012 99.0112 -2.23721
3.03196 130.393 9.32578
-7.84051 86.7893 -0.399208
-11.6222 81.496 9.5864
4.10529 126.388 -0.744862
10.6577 147.492 -1.73383
10.3234 145.372 -2.96191
8.10353 142.536 3.45864
4.77863 133.242 5.9263
0.238793 122.231 11.5417
-9.2154 92.4486 14.0324
10.9791 148.572 -1.31209
-5.91981 104.029 14.9912
-6.25882 101.511 13.3456
6.14807 131.699 -1.78281
-10.5037 87.5898 14.0325
-7.9417 85.3668 -0.408612
0.748835 113.441 -1.73821
-0.3414 120.211 12.2717
-2.76906 113.247 13.9222
-10.3874 87.7547 13.9558
-0.0289982 109.264 -3.64129
-6.52259 89.5194 -0.958416
-5.87447 91.4218 -1.25432
-6.36544 89.7714 -1.04847
3.9679 131.246 8.24853
8.04675 135.941 -3.6436
11.198 149.324 0.215261
-6.66211 97.7174 11.1914
-5.69201 102.901 13.8058
-10.5084 84.1918 10.458
3.4225 123.893 1.25184
-4.66767 106.61 14.4669
6.92235 133.074 -1.98155
-0.48747 118.726 12.0605
4.63219 132.177 7.17114
11.3163 148.632 -0.756393
3.64814 124.129 0.858325
-0.502983 118.45 11.9593
7.65967 134.548 -2.98182
-6.48986 88.7196 -0.891696
-0.640246 118.059 12.253
2.25891 125.54 9.41086
-7.44198 85.6279 -0.608881
-0.318531 106.35 -4.46456
10.2202 146.66 2.3789
-7.49301 94.0109 11.2421
4.87843 125.834 -1.58722
-0.256459 117.724 10.6034
-3.75587 96.8065 -1.76346
0.313508 118.965 9.8024
-10.2007 82.8656 8.64368
-3.90955 96.1392 -1.70536
-5.97529 98.6909 11.0526
0.909755 111.911 -2.07594
-8.0341 91.8292 11.1476
0.554182 118.938 9.06731
0.621297 119.2 9.16378
-4.25407 106.698 14.2934
0.693122 119.284 9.04604
11.5441 150.822 2.6981
1.68231 122.585 9.09086
-7.49273 93.4143 11.2356
-10.0208 86.3322 13.0926
-4.52252 105.877 14.6604
2.36777 124.51 8.76834
2.52098 124.85 8.58339
11.8987 151.285 2.06917
-0.765367 115.676 11.1952
3.2541 126.96 8.32043
-10.1054 82.5282 8.68074
-2.79883 110.794 13.8308
-10.5884 76.5068 2.76285
7.96116 134.076 -3.10141
1.75041 121.313 7.72336
5.58241 126.983 -1.85371
-1.02725 115.355 12.2449
6.5577 129.828 -2.24216
-4.51083 103.401 12.1344
8.49556 135.036 -3.78124
-3.51216 108.262 14.2312
-4.90386 101.007 10.8228
8.98443 136.038 -4.41489
-10.0669 77.0764 2.04632
-6.65519 86.243 -0.915613
-9.70255 85.2395 11.6477
-1.71328 112.617 12.6824
-9.57175 77.7996 1.36778
8.78481 135.154 -4.04061
2.52963 122.552 7.28107
5.57646 131.256 5.3096
-9.43975 86.4491 12.6215
-4.45539 101.716 10.8661
3.87691 126.895 7.25555
-7.99254 81.4618 -0.192515
-8.05163 91.557 13.7008
-1.35709 112.115 11.2455
-5.33542 89.4698 -1.27949
-6.23074 86.6191 -1.07944
9.49047 142.354 3.17543
-10.5741 75.5261 3.6055
4.10099 127.074 7.01002
4.07528 121.702 -0.0576521
3.08811 123.463 6.80654
-6.72364 84.9733 -0.791143
-2.99158 107.921 13.4933
5.99488 126.29 -2.12661
9.97821 138.218 -3.99353
1.53876 118.749 7.78047
12.6099 150.741 1.04347
-2.6233 108.603 13.0303
6.63021 128.343 -2.02556
6.14166 126.628 -2.08328
9.95524 143.015 3.03326
-6.41254 95.0492 12.187
-2.61951 96.9124 -2.3303
2.78014 115.047 -2.15655
7.74079 131.348 -2.46218
2.97475 122.238 6.72717
2.46953 120.954 7.31708
-7.36144 89.834 9.68736
10.0009 137.752 -3.81569
10.6962 140.665 -2.9868
-0.309945 103.308 -3.65122
-2.38551 108.411 12.6552
8.2752 132.488 -2.88141
-4.80922 89.7937 -1.4467
10.5774 145.187 3.89303
7.12665 134.216 4.80387
-1.29635 109.635 9.71074
12.0697 149.539 3.37364
3.79635 119.828 0.674681
3.82862 120.158 1.01675
-5.71732 95.3634 10.7922
-6.85975 90.8599 9.90773
2.45286 113.359 -1.71311
-3.06607 104.238 10.8814
-6.51326 95.4425 14.6088
-7.43597 88.8519 9.94651
10.3936 143.201 2.93606
-7.39541 88.8884 9.91221
-6.71961 83.3475 -0.565814
3.89045 118.891 -0.468601
-9.2701 76.5979 1.86182
-8.58556 86.2834 11.972
1.72624 117.584 7.78479
4.98638 126.987 5.79549
-6.86577 92.7188 13.0338
-8.33717 87.03 12.0518
-8.38387 84.7908 9.30056
5.23693 127.514 5.77024
11.442 141.876 -2.68338
11.4826 147.058 4.22184
-6.87486 90.1581 10.3507
13.3062 151.085 1.57858
-2.12035 106.97 11.7445
-8.18013 83.8917 8.02554
-8.17421 83.8396 8.03163
-2.05845 106.713 11.2998
-8.38187 85.1952 10.8525
0.994847 114.771 8.48954
4.07866 123.488 6.35536
-7.35843 80.124 -0.437617
-5.88385 93.5689 11.0269
8.11057 129.927 -2.97877
-5.91754 94.3686 12.3763
11.0736 145.791 5.1381
-6.29468 92.5978 11.7304
10.2715 142.427 4.32148
-3.08913 102.954 11.358
10.2859 142.79 4.90806
10.2826 142.63 4.71448
-6.33249 95.6029 16.2428
-7.54441 79.4636 0.0161462
-0.373662 110.209 9.26809
-5.78982 95.3413 13.6457
7.62773 133.134 4.16482
-4.36847 88.5964 -1.76942
-6.25994 96.2315 17.0319
-5.94829 92.9343 11.2801
2.05251 109.507 -2.33212
-2.2602 105.056 11.0728
6.09039 128.381 4.88926
-6.35253 92.8396 13.1047
-5.79621 95.4434 14.1967
-3.71007 99.8669 10.7721
-8.70236 81.4956 8.53481
7.49077 127.428 -2.38315
8.83564 136.814 4.20024
-6.38447 93.263 14.1063
4.7966 120.661 0.745138
6.94567 133.948 8.95338
10.1728 142.7 6.42054
-2.11755 94.7587 -2.64745
6.07965 127.847 5.07124
6.58786 123.874 -2.54084
5.08479 129.166 11.3491
-3.03345 102.102 11.5367
-4.63587 86.954 -1.60271
5.66177 121.678 -1.03869
8.39611 136.847 7.13059
-4.38552 87.4989 -1.73869
8.35752 137.074 7.63265
2.63097 110.311 -2.51711
5.04103 128.856 11.641
7.88424 132.93 4.36645
8.08693 133.576 4.3553
-2.27021 93.6939 -2.5753
-3.49541 99.5455 10.7999
3.79662 120.952 6.82257
12.6014 148.57 4.36675
-3.80027 98.5307 10.8533
2.03778 108.12 -2.4046
-3.20181 100.547 10.998
7.7141 127.002 -2.4376
8.4292 137.648 8.65856
4.95962 124.21 6.20261
6.92224 133.43 9.78435
10.2526 140.695 4.68502
-6.25816 81.4596 -0.644922
6.12684 130.934 10.182
6.51098 122.808 -2.36469
7.72737 135.458 9.19103
-7.19485 85.7556 9.5195
-2.87182 101.587 11.4512
10.3222 140.949 5.07143
8.65829 134.813 4.36216
6.05396 126.783 5.57707
1.77858 105.543 -3.74439
6.94196 132.382 9.12017
-3.96969 97.3958 11.1633
-0.840033 106.722 9.69
4.1902 121.451 6.88871
13.1759 147.82 1.96446
4.38447 122.068 6.87978
8.22748 127.574 -2.99534
5.3755 120.036 -0.287214
11.4804 138.56 -2.8136
-3.59909 98.3497 10.961
-6.12134 81.2345 -0.699514
12.0774 141.691 -1.2027
7.00772 132.373 9.09373
9.3822 131.075 -3.28061
10.0415 132.773 -3.9402
-7.62438 77.505 1.21223
11.8722 141.257 -0.704564
12.5025 142.922 -1.28143
9.60826 139.494 7.14295
11.7499 139.436 -2.53643
0.222275 109.42 9.07822
-2.41479 102.437 11.5578
10.3774 141.122 6.06311
9.8486 139.446 6.19589
13.3249 147.967 2.05747
5.77283 129.864 11.6815
-5.63949 89.9832 9.44633
9.85821 139.763 6.7215
13.6448 148.773 1.83363
-5.39309 93.3576 12.9508
10.0493 138.677 4.48537
1.29998 112.28 8.47959
6.48979 130.567 9.72916
8.59397 134.087 5.00951
9.90131 140.017 7.12753
11.8048 140.941 -0.179582
-4.42799 99.6199 17.3791
13.4662 148.022 1.99858
1.91059 105.087 -3.72805
13.1414 145.981 0.794721
9.10698 135.245 4.56157
11.9459 141.202 -0.119604
5.52232 128.663 11.9041
3.87732 112.323 -2.61977
9.62062 137.614 5.64539
1.17113 102.262 -3.83473
-5.3092 92.419 12.1283
10.4923 141.817 7.49183
5.51422 128.235 11.6511
-2.5158 101.172 11.4403
8.53615 133.704 5.50074
8.67815 134.058 5.35022
4.79886 126.908 13.2369
-6.18053 79.8467 -0.640546
-2.35442 101.716 11.585
-4.26932 99.9049 17.8416
-2.65543 90.2169 -2.29222
-4.00687 100.599 17.7458
-4.82722 83.814 -1.0728
-6.63378 78.6106 0.190891
-3.37078 97.6477 11.2379
9.3162 138.259 8.91159
-7.61911 76.2425 1.71511
4.99825 115.633 -2.05868
13.0965 144.52 0.433477
-3.16091 88.2151 -2.14969
-5.32361 89.6628 9.52619
8.77251 134.874 6.92916
9.74537 130.256 -3.59964
12.6106 142.541 0.0464965
-3.39381 87.4735 -2.00577
5.11158 115.906 -1.73594
-6.28851 85.2375 8.29437
5.29123 117.23 -0.757767
-4.32328 84.6234 -1.34147
-8.07272 74.7413 2.25995
-4.81498 97.3974 18.1325
6.38399 120.81 -0.673783
8.54695 134.093 7.46819
8.94322 134.227 5.89118
0.424312 98.8668 -3.2667
-6.52208 78.3021 0.322296
-4.46872 94.3539 12.6909
-2.34705 90.1867 -2.43328
4.82458 114.179 -2.34529
6.24522 120.882 0.314757
6.88909 121.172 -2.09987
9.16626 130.253 -0.0643471
9.0213 130.707 1.21295
-4.31135 98.9568 18.4931
8.9661 130.048 0.598139
-6.26269 84.9236 8.47245
-5.566 87.0979 8.26453
8.21452 127.653 0.855469
10.046 139.445 8.53257
12.1575 140.883 0.976488
-3.3604 96.8093 11.5015
-0.350288 105.681 10.0007
6.82584 129.635 9.94324
-6.84238 82.7247 8.41666
11.9732 139.368 -0.000624592
3.39396 108.604 -2.76687
13.7934 148.706 4.39325
4.90261 121.033 7.17207
5.38209 116.761 -0.707277
9.29432 131.554 1.60533
9.26827 137.161 9.26576
-0.024757 96.7241 -3.28658
13.0272 143.249 0.579959
-4.29343 94.1464 12.4728
3.77466 117.575 7.71123
9.68841 138.16 8.80786
-3.04434 87.4286 -2.09797
5.81187 123.491 6.69963
10.196 139.461 8.49167
5.90833 127.332 11.479
5.88292 127.798 12.2997
8.03789 127.32 2.05041
8.51594 133.264 7.89101
5.63944 126.369 11.6447
12.0923 139.03 -0.284596
-5.24969 91.2513 13.4644
7.80403 127.818 4.03565
-3.95775 95.0009 12.8101
14.7364 149.261 1.73164
-5.08406 91.5877 13.3267
14.8135 149.548 1.79239
-5.39763 90.573 13.4236
7.71372 129.049 6.21379
4.81239 125.403 14.4602
10.2958 130.585 -3.0472
12.1891 137.844 -1.79568
-4.40368 97.7847 18.9617
2.26221 102.902 -4.09497
10.0481 132.27 0.386624
3.61816 121.347 14.6113
5.68438 126.023 11.6215
9.24835 126.702 -3.43922
-0.196244 95.2104 -3.23381
7.31604 129.973 9.74621
-5.10745 90.8641 13.0533
9.86092 132.093 1.30251
8.47368 131.367 6.59854
9.72738 128.438 -2.93581
10.1954 132.41 0.312243
-2.59605 103.084 18.5092
3.60082 116.063 8.1468
-3.35686 95.5351 11.8635
8.23744 128.612 4.22747
-3.0518 99.5303 16.0357
13.065 142.438 1.29123
-4.91676 90.5492 12.4371
9.19176 130.622 2.87891
12.3259 138.336 -0.763517
-2.5984 97.5379 11.5749
5.47008 114.218 -2.27166
3.28904 114.855 8.43339
1.89556 100.994 -3.76647
8.73281 133.738 9.56457
7.28681 130.444 11.6464
5.68116 125.024 11.6134
8.36084 130.984 7.60729
-3.33913 97.4924 15.1936
-1.35229 101.189 11.2993
12.6907 140.435 1.00241
-5.23648 79.2832 -0.535756
3.8741 121.865 15.7625
-4.18075 89.7361 8.81107
-4.3914 89.1848 9.07301
7.56772 120.942 -1.97687
-3.49544 99.8364 19.3918
3.38706 106.357 -2.77787
-3.2247 96.3181 13.4926
-2.25291 103.455 18.7943
10.9916 140.147 8.58189
-3.15093 97.7835 15.2899
7.5208 127.267 6.96084
11.8884 134.366 -3.12875
-2.9977 96.5456 13.2202
3.88995 107.611 -2.86605
9.94352 136.891 9.31773
9.57765 136 9.83709
8.72672 128.397 3.4931
7.16259 119.603 -1.25957
-1.54424 89.3807 -2.68518
10.8226 132.836 0.153273
-4.77851 93.2474 17.1693
8.25612 129.947 7.90272
-1.64281 103.594 17.0302
9.74005 128.811 -0.234456
-1.43198 89.5831 -2.73635
8.0801 129.612 8.37385
12.578 137.54 -1.14214
3.16367 118.879 16.2447
6.3581 117.493 0.0864392
9.19578 127.438 0.704876
12.5944 137.183 -1.2847
10.874 132.618 0.363449
-4.90441 90.9063 15.2532
10.8018 132.408 0.448626
-0.26221 103.561 11.4922
-3.19296 99.802 19.7632
9.9298 126.888 -2.79364
6.48754 125.608 10.9686
-2.86915 97.1369 14.7866
-3.62518 97.727 19.0909
-3.02923 84.3409 -1.53847
12.1307 141.815 7.57025
15.2907 148.344 2.14974
-3.84144 89.5224 9.10489
13.2349 141.04 1.61087
3.43338 104.693 -3.13057
12.2325 137.034 0.859847
6.09333 115.322 -0.674391
3.63601 114.078 8.7675
7.78176 128.001 8.88033
11.7093 134.79 0.350431
-3.89794 88.6285 8.52993
12.3327 134.645 -2.44509
-4.88811 78.6368 -0.301541
8.91741 132.546 10.1065
8.06512 125.549 4.6416
11.4069 133.448 0.253431
14.104 146.779 6.0614
7.22668 119.156 -0.132843
-4.30828 86.4729 7.81544
3.36836 112.949 8.90669
12.7808 136.928 -1.145
8.84127 126.072 2.2232
5.9809 113.173 -2.24867
14.237 144.076 2.18958
11.5219 133.449 0.222991
8.28229 121.338 -1.44015
-0.764507 105.977 18.6008
9.42228 126.405 0.550414
-4.26288 89.5181 12.5524
15.0981 146.309 1.99278
1.20206 105.999 10.3355
8.95872 128.116 5.26683
0.948639 105.228 10.5267
-2.43798 84.7147 -1.7978
12.592 135.131 -1.57918
-2.65846 84.1259 -1.56693
3.30371 112.154 9.31438
1.68731 97.1845 -3.53413
7.53541 127.953 11.5511
8.21593 120.804 -1.11826
10.3554 127.26 -1.99623
7.62903 126.017 8.60189
8.83483 123.79 0.221348
-1.57102 103.601 19.8801
3.00266 117.29 17.8571
1.94533 107.868 9.95483
-0.590193 104.756 17.2467
4.06885 114.271 9.11673
2.58587 116.212 18.3958
5.0757 109.527 -1.59863
4.4957 121.333 16.934
11.2071 132.016 1.13856
3.36439 112.004 9.57824
11.1313 131.757 1.22764
-4.07017 89.8995 13.3391
9.67433 133.205 9.82051
9.24729 124.523 0.0736129
13.1474 142.926 7.28519
13.1114 138.057 0.943412
8.84349 121.82 -1.57746
15.8303 147.692 1.86084
8.97299 123.342 -0.0270275
14.4851 142.86 1.50071
-1.41375 99.0945 14.1705
4.57192 106.546 -2.71758
3.33777 117.748 17.8907
12.7858 135.905 -0.159639
12.3985 140.754 8.19042
6.40632 113.469 -1.49072
6.61901 123.003 10.4841
8.85123 121.638 -1.34952
-0.396058 103.989 16.5307
-0.335105 89.6328 -3.00706
15.1638 147.497 5.15841
2.54159 114.905 18.1314
-3.68579 89.2673 11.7675
-4.714 77.2983 0.312824
-0.410642 100.465 12.1315
11.5933 132.151 0.845196
9.86708 126.577 1.19452
10.5255 127.443 -0.579376
-4.89515 76.7483 0.801219
-5.78408 74.478 1.75435
9.6171 123.019 -2.14254
10.4236 127.675 0.491364
12.3868 132.412 -1.96063
10.6512 127.86 -0.211529
4.60795 120.786 17.465
0.442184 91.5807 -3.02399
6.60864 125.553 14.9343
-3.1279 88.7547 9.28363
-5.07218 76.0953 1.07304
2.92973 109.857 10.4976
5.408 122.675 16.6027
10.2833 127.618 1.40652
0.562071 108.299 19.1876
3.22823 110.677 10.4889
14.7034 141.909 1.0259
6.82338 115.29 0.770222
10.2787 127.233 1.37056
5.86886 118.722 9.77695
5.1893 118.745 12.8909
6.57826 121.094 9.81853
2.45311 108.058 10.8488
2.22205 113.449 19.1382
6.35276 120.395 9.96367
-5.01219 75.7668 1.14582
12.6336 134.607 0.95394
8.49366 121.213 1.71472
11.8594 130.526 -0.809035
3.46435 115.595 16.8863
3.27415 110.424 10.8378
4.18106 118.933 18.1982
9.23323 123.564 1.7208
-0.178622 102.101 15.2153
5.05838 107.22 -1.42819
2.36602 112.516 17.9438
12.8387 135.045 1.15444
-4.3496 76.9669 0.43697
7.12022 115.647 0.915465
3.14302 99.0612 -3.48877
-0.0995112 101.806 14.821
5.57143 118.974 12.4101
6.9329 114.781 0.694423
13.9956 138.181 0.412556
-3.27558 89.36 12.4402
2.79191 97.8681 -3.38911
5.12358 120.999 17.3651
16.3298 147.335 2.39264
15.8172 147.318 4.67988
2.90203 108.968 11.211
-1.23562 101.908 20.3631
-3.63443 89.9244 15.0433
-5.11996 74.7968 1.46107
4.78627 117.077 13.842
0.142554 101.065 13.3079
10.1834 129.306 6.15031
8.47216 118.645 -0.383397
-0.107963 105.11 20.0198
5.36438 116.543 10.9265
9.1304 124.221 4.33987
0.636745 104.975 16.6664
14.0256 137.363 0.0411257
10.6847 127.572 1.91387
13.2885 135.031 0.330413
13.0674 140.386 8.53226
-3.10051 86.0075 8.16249
3.81064 111.526 11.4398
3.21502 109.523 11.5091
0.812457 105.564 17.048
5.73447 121.957 16.9881
3.18017 113.21 16.7486
11.9211 129.954 -0.0366123
11.8749 131.099 1.72937
5.41388 116.925 11.7818
13.0872 134.213 0.538449
5.81385 108.808 -0.891548
14.2052 142.982 7.49557
9.56152 122.97 1.59346
13.409 134.673 0.0518609
11.1771 128.331 1.5894
11.5101 128.95 0.975211
12.9237 139.437 8.7445
10.8784 126.753 0.920553
-2.62558 88.2454 9.95813
8.89144 120.927 2.14419
9.93589 121.992 -1.10999
3.80087 111.198 12.063
12.0869 130.979 1.44088
8.00325 116.472 0.312286
4.04443 114.724 15.778
-0.83178 102.376 21.1044
1.00973 103.248 14.1279
10.5958 129.748 6.70944
9.7548 128.008 8.18248
4.83985 115.926 14.1394
9.77816 122.163 0.352934
12.8635 132.103 -0.141397
1.37593 103.659 13.2704
9.50854 121.086 0.164702
1.14339 103.667 14.4488
9.87577 122.888 1.05109
1.08927 104.25 15.5086
10.3072 128.607 6.8428
3.28532 114.789 19.8389
10.4902 125.632 2.06917
10.8383 132.764 10.1268
9.26316 118.929 -1.36296
12.61 131.525 0.559531
4.23018 114.485 15.3334
15.9323 146.209 5.39233
9.73094 121.252 -0.269167
4.41964 113.053 12.5924
-3.23905 84.3364 8.48947
1.64167 109.291 20.1001
9.38196 124.068 5.23617
4.1386 112.081 12.6977
14.4579 136.958 -0.183541
16.6805 147.344 3.91752
12.5874 131.206 0.639008
11.9956 129.324 0.787287
2.63863 106.854 12.6533
4.12486 111.97 12.8608
12.9026 138.389 9.02833
-0.147646 86.0222 -2.6861
9.4929 123.89 4.96449
10.9681 132.667 10.1684
4.33611 113.882 14.9287
3.70581 112.465 15.9385
9.94218 123.166 2.29612
9.86029 122.876 2.31767
10.0802 128.086 8.47923
-1.58388 98.0665 20.5756
10.0209 127.486 8.00987
0.0473431 86.1334 -2.72562
9.70084 119.657 -1.05714
-2.5065 92.5053 17.3541
5.39594 105.175 -1.05048
2.05514 105.349 14.2131
12.131 130.376 2.68451
4.41969 113.299 14.4107
9.72026 120.452 0.353512
16.3054 143.506 1.77497
15.6718 144.933 6.57936
8.90684 126.593 12.3601
10.7717 127.258 4.89126
9.90761 120.63 -0.101335
-3.12345 88.0486 14.7406
2.12265 106.654 16.1769
14.7673 136.605 -0.398286
9.95475 122.969 2.98612
2.2842 106.097 14.8132
13.3222 131.125 -1.13367
9.48284 118.295 -1.11577
9.66541 123.774 5.51427
4.55879 116.773 19.1001
2.40222 93.1192 -2.95897
13.7553 132.669 -0.795147
-0.674016 83.4616 -2.05431
-2.45919 78.5367 -0.628563
11.2761 129.062 5.63881
5.47399 104.734 -0.911463
-2.29504 78.8185 -0.753709
1.22828 89.0004 -2.89353
8.89519 126.285 12.906
10.7697 124.921 2.69895
12.9066 136.969 9.3392
12.794 130.213 0.873281
10.5562 128.159 8.17376
-0.29563 84.1265 -2.22307
8.19011 114.693 0.928796
3.56819 109.49 14.808
3.57539 109.524 14.8641
11.5125 129.102 5.53087
9.53615 118.744 0.534003
7.13334 109.742 -0.673506
14.3094 140.482 8.44947
7.45911 123.427 16.3585
3.72639 96.7777 -2.66291
10.4425 127.542 8.53137
-0.436845 100.548 21.2739
10.0124 123.243 4.81976
9.00965 126.12 13.2089
11.6411 123.803 -1.48375
-2.41641 90.4065 16.8513
13.9054 131.616 -0.998593
9.83991 125.831 9.68263
11.9235 133.118 10.1369
15.3565 136.553 -0.57823
9.1217 118.757 3.57172
-1.6379 93.3755 17.8647
8.85635 115.395 0.344446
-2.21891 90.6311 16.9018
8.11475 111.916 -0.941794
11.0854 120.57 -2.58419
17.2791 144.624 2.08117
9.20527 118.603 3.41194
3.96804 96.6618 -2.46108
17.38 146.449 4.19235
10.4734 120.806 0.808705
14.6151 133.013 -1.397
8.86964 115.314 0.660228
9.78451 126.755 11.9668
17.2546 146.219 4.54929
-1.23554 94.6424 18.4266
12.0398 128.906 4.94016
10.7249 119.457 -1.84707
11.7055 131.73 10.3098
11.0515 127.835 8.043
11.1902 126.768 6.1655
-2.62071 76.2298 0.466637
-1.84174 91.1752 17.0782
10.5081 122.635 3.86371
10.7605 128.992 11.3176
-1.61637 92.1077 17.409
0.487805 102.809 22.4274
10.6496 128.41 11.1765
8.48907 112.661 -0.269404
13.2769 129.276 0.555912
4.16324 113.558 20.4721
2.30919 90.5296 -2.14106
0.494753 102.647 22.3628
11.3944 125.82 4.58869
-1.87877 87.7435 13.1407
3.02666 110.163 21.2369
15.292 141.359 8.05419
-1.29984 93.4062 18.2649
-1.43394 92.3995 17.5458
4.62346 114.263 19.876
4.71954 98.2197 -2.06289
8.6574 112.723 -0.236955
11.4693 125.033 3.75914
11.7884 121.121 -2.92689
2.69926 91.3422 -2.03575
10.4478 126.887 10.9488
2.15644 107.417 22.0723
3.45384 110.986 21.1843
14.0223 137.061 8.92413
13.1515 134.61 9.57822
13.3553 135.148 9.43382
7.57099 108.752 0.0348146
11.973 121.206 -2.93409
5.00686 98.6501 -1.91924
10.4034 124.324 8.44955
3.0455 109.451 21.5366
2.68176 90.8565 -1.76366
9.16176 116.405 3.46361
-0.610636 98.2785 23.148
-1.87927 84.7603 10.7832
14.5073 131.356 -0.212941
-1.30688 91.4221 17.4018
0.154767 81.7933 -2.09197
17.56 142.302 1.21479
11.0952 128.003 11.061
10.0009 115.71 -0.425185
3.02652 108.93 21.9268
16.9447 144.059 6.61724
2.16649 106.126 22.1024
-1.88879 88.0724 16.1124
8.32703 122.366 16.2907
17.4784 145.004 5.59304
-1.52808 91.3049 18.877
10.4094 120.819 4.93464
13.4029 134.258 9.60661
1.40165 103.987 22.872
12.7526 132.208 9.79382
11.5004 125.405 6.32265
0.330865 82.0028 -1.79769
1.93149 105.306 22.3915
9.5229 118.095 5.50448
2.55838 107.368 22.4034
1.8628 105.079 22.4745
4.7104 96.7036 -1.42113
17.8796 142.823 1.5094
11.3371 123.323 5.00773
15.2107 132.241 -0.3494
3.20762 108.772 22.0893
17.9089 142.389 1.27191
9.57546 113.941 0.525345
-1.28298 86.7404 12.8388
3.27787 91.5221 -1.19888
3.20984 108.607 22.2149
-1.44749 91.3759 20.0141
9.00445 111.268 -0.229148
6.35881 101.871 -0.954875
11.2106 121.526 3.70722
14.736 130.853 0.396186
15.9252 140.393 7.95724
2.82251 107.346 22.6226
3.55009 92.0984 -1.11901
7.86506 120.136 17.2484
13.4256 125.659 -0.27283
4.42812 94.8264 -1.19521
14.3036 135.427 9.12715
-0.153118 96.4866 21.8348
3.43446 91.5097 -0.967603
1.21642 101.549 22.5218
-1.70961 75.434 0.577341
6.67823 103.127 0.130028
7.64658 119.239 17.5288
10.7661 121.266 6.25675
17.3632 139.537 1.18625
6.41248 115.876 18.6987
7.71476 107.089 1.16011
4.46151 111.016 21.1311
1.12252 83.6965 -0.501683
8.86328 121.719 15.8528
5.72242 98.6948 -0.936392
12.1027 126.885 8.29759
0.847767 99.9875 22.901
11.587 123.23 5.94788
1.50358 84.9158 -0.162262
12.0726 124.255 5.3866
9.99675 113.783 0.67233
3.0488 89.6393 -0.527887
13.2918 131.643 9.93912
12.1854 126.626 8.36961
11.4293 120.555 3.69812
11.3269 124.296 9.19605
9.23879 114.978 6.09129
-1.58703 89.4845 20.5311
5.91919 113.77 19.57
-0.937212 92.0239 21.1983
9.35258 115.944 7.11552
7.50751 117.689 17.7663
15.6064 131.732 0.283402
10.3282 123.686 13.2251
3.5175 90.7035 -0.456919
8.19228 107.74 1.43072
7.75161 118.288 17.6204
1.9585 103.464 23.7899
-0.706586 92.6548 21.2576
13.9957 127.28 1.82497
9.59776 116.21 6.71938
0.0344968 94.9573 21.1806
11.7994 126.51 10.7315
18.9636 144.377 2.57914
3.61633 107.972 22.7635
11.1977 123.544 9.62946
4.89437 94.945 -0.389195
0.093048 94.9193 21.2828
9.93048 115.391 4.61846
4.41559 109.552 21.6195
11.7348 126.18 11.2462
9.35398 116.344 8.75539
13.492 130.814 9.64867
7.8142 117.803 17.7082
9.44652 114.927 6.5321
-1.27037 85.2209 14.9423
10.5197 114.155 0.891536
11.5406 120.384 4.68322
16.1404 132.435 0.241958
10.9153 115.294 0.831388
10.4019 122.665 13.0984
3.57868 90.0432 -0.0567695
11.2523 121.442 7.67796
-1.64803 87.7632 20.613
3.45006 89.4941 0.0423355
0.553927 78.8984 -1.1046
9.74166 110.891 0.604373
-0.198463 76.9845 -0.264878
-1.33879 89.6276 21.8682
5.61847 96.641 0.0544685
17.4446 136.464 0.468363
12.328 125.619 8.92006
11.6603 120.765 5.50139
17.1726 135.166 0.0913648
9.7005 114.675 6.20111
6.63248 99.7356 -0.071676
11.3931 122.799 9.63613
11.7308 123.795 9.56895
-0.850254 90.8369 21.9843
11.8763 120.028 4.02687
9.47529 115.755 9.33089
-1.66026 86.7079 20.3526
15.2785 134.844 9.06459
15.6134 135.748 8.7791
11.7434 117.419 1.58966
14.237 124.003 -0.72883
13.1277 128.064 9.87915
17.3417 134.838 0.0635641
-1.17304 89.6434 22.5826
9.43002 116.055 10.4555
16.2625 137.269 8.2731
7.68339 102.939 0.932718
18.2114 138.263 1.14304
10.3887 119.99 11.7536
10.0995 119.528 12.4887
8.37671 105.395 1.27166
14.6474 126.139 1.24065
11.5585 120.253 7.42986
10.6307 112.852 1.77579
10.0649 119.838 13.7267
-1.52998 83.1393 16.6644
2.39636 101.422 23.7599
2.36584 84.6609 1.41519
9.35091 108.524 2.23607
17.4235 139.559 7.66798
-0.254359 74.3965 -0.402629
10.918 114.654 3.54413
2.47191 84.8522 1.58626
11.5153 118.877 6.74319
9.70659 119.705 16.091
-0.298283 84.6035 14.0154
13.385 126.315 8.64866
1.40224 78.988 -1.00941
17.9859 135.494 0.420018
12.0477 122.29 9.45089
11.0229 117.221 7.47911
10.4747 119.142 12.6257
4.76822 107.615 22.8202
0.522308 76.115 -0.346322
11.9604 121.148 8.90266
-2.64956 83.623 24.192
18.7844 141.951 6.28619
5.2748 92.9785 1.23728
6.57843 97.1656 1.01811
8.26563 115.547 18.1709
14.75 122.741 -1.28957
9.45288 107.655 2.25436
12.8186 124.686 10.027
-2.32674 84.4978 24.1237
4.90761 107.686 22.7707
-0.290642 90.6356 23.2367
0.300238 92.9873 23.7935
6.77887 97.7101 1.12588
-2.58137 83.0787 23.5928
12.0801 121.705 9.68384
-1.20195 83.6564 18.259
-2.53677 83.0816 23.4887
19.852 143.46 4.03091
7.89546 101.34 1.19867
-2.09157 85.9922 25.5621
14.4104 129.05 9.25925
10.6249 110.674 1.58631
9.13905 105.891 1.86446
3.05819 85.6415 1.99535
13.3123 125.594 9.62651
4.16253 89.0022 1.62293
9.44786 118.218 17.1361
14.0241 126.923 8.30236
13.158 125.484 10.3085
12.1038 123.398 12.2547
11.697 114.669 2.36513
-0.335877 90.2329 23.6949
8.40195 115.321 18.1947
0.0643651 92.0697 24.4779
12.0083 120.479 9.0224
7.64117 100.444 1.73733
1.0509 94.8497 23.861
13.2435 124.898 9.47357
13.272 125.633 10.3896
13.8496 127.135 9.83384
14.632 129.696 9.77434
11.3872 117.523 8.11585
13.6733 125.968 9.20309
17.313 137.279 8.04588
12.6024 118.18 3.68378
20.0162 142.761 3.43951
-2.98044 83.0204 26.5819
8.68241 103.297 1.58574
-0.00369364 92.5916 26.2752
10.1562 108.928 2.58579
1.27754 76.727 -0.710609
14.946 122.061 -1.18185
5.46621 107.979 22.5697
13.4743 125.836 10.5928
9.90905 118.241 16.5096
11.0942 111.589 2.25863
20.0978 142.984 4.09768
1.76224 78.3141 -0.390604
12.2335 122.228 11.6761
7.72172 100.161 2.3075
11.5007 114.363 4.51258
15.0176 130.43 10.4551
14.0905 126.394 9.23073
11.2728 111.896 2.5567
10.7803 116.438 10.9008
20.036 141.624 3.15028
10.3346 114.658 10.5223
8.10512 101 2.20526
1.42671 95.7039 25.2183
7.25072 111.486 20.4112
-0.931502 83.7337 19.914
12.6409 120.7 8.77308
10.3102 108.518 2.87664
8.12537 113.388 19.3521
5.49947 107.155 22.816
11.1404 117.106 11.1129
10.6995 117.915 14.2047
-0.323647 90.1681 26.5061
4.70947 89.2326 2.68287
19.5301 138.366 2.13629
6.81296 95.9308 2.29777
19.3097 137.288 1.71078
-0.501135 87.4016 23.7922
13.0743 118.64 4.77239
10.1485 117.651 16.6024
9.73151 105.71 2.42896
10.7186 117.001 13.1781
20.2444 142.283 4.38417
10.8434 117.485 13.4994
14.834 120.148 -0.824778
-2.24303 83.9686 27.3795
12.3866 121.033 11.4719
13.0043 121.794 9.74282
4.14314 102.699 23.996
15.3814 130.578 11.0047
8.95096 114.604 18.4543
7.99221 112.099 19.4129
4.57627 88.5818 3.1999
15.9365 131.766 10.1818
19.7299 138.582 2.40013
5.35253 90.9689 3.03452
11.2171 116.783 11.3802
15.4353 122.268 -0.165293
13.0146 119.357 7.10524
11.8193 113.004 3.9497
10.2848 115.28 13.9801
11.6648 112.006 3.42372
6.32897 107.983 22.0797
11.7889 113.821 5.39913
11.5988 111.858 3.66675
6.88097 109.076 21.1948
2.99454 99.1693 25.3665
12.9756 119.394 7.71801
12.5929 119.911 10.2122
13.4632 123.375 10.9744
3.58727 84.5123 3.16874
1.60518 75.3405 -0.127927
20.1751 139.761 3.04141
15.7666 130.89 10.994
19.6605 137.29 2.17391
11.2719 110.563 3.97235
17.9402 136.091 8.40737
2.54304 78.9729 0.904348
15.7615 123.223 0.977579
13.0933 121.925 11.3588
3.51866 100.439 25.523
15.5389 129.801 11.0315
13.4241 121.9 9.99392
10.5993 117.076 16.4083
11.6753 112.364 5.27321
8.42737 100.126 3.51603
18.014 135.875 8.48205
15.5184 129.078 10.746
1.90906 76.2641 1.15826
3.33224 81.4916 1.86908
15.7624 121.667 0.0102275
13.3267 120.07 8.86218
3.64142 82.897 2.62695
3.36782 99.1419 25.836
11.1875 113.779 10.3902
17.5317 128.564 1.82257
10.2756 105.249 3.24173
19.7619 139.422 6.58749
3.14566 80.1847 1.71312
3.57841 81.9399 2.18375
17.6853 134.195 9.14166
10.3604 108.274 7.31497
7.64528 96.4556 3.7585
3.47729 81.3297 2.25074
19.7528 135.661 2.17597
10.7687 116.283 16.6048
5.39113 103.328 23.4402
8.05216 97.9546 4.28027
11.599 113.51 9.25686
11.8722 113.375 7.85866
4.00335 83.5739 3.36805
15.9231 120.946 0.0819331
9.34069 101.528 3.57221
2.28169 76.9208 2.27509
0.627341 89.6275 26.7972
14.042 118.456 5.26675
-0.997275 85.0364 28.0752
1.96001 74.4642 0.593915
19.758 135.106 2.25869
20.2646 137.502 3.2218
11.2913 116.775 15.7087
18.834 131.89 2.18792
10.4124 104.73 3.59279
15.1777 126.6 11.5754
11.6312 111.035 6.6834
14.0248 121.756 10.3862
6.53294 92.1193 4.34623
14.6487 124.011 11.0709
17.8026 127.922 2.20759
19.4404 137.334 7.50257
4.73586 86.302 5.09651
16.2344 120.692 -0.273908
18.9582 131.819 2.59606
20.9736 140.163 4.81753
10.0338 108.485 11.5523
10.1293 106.954 9.07328
20.1408 136.455 3.72311
-0.651421 85.1514 28.302
10.3273 114.125 17.9006
9.94435 107.276 10.4601
16.8945 123.146 0.578489
9.90513 106.395 9.57152
2.33367 75.79 2.47299
14.3743 122.101 10.61
11.4773 114.133 12.9294
2.2816 75.1678 2.01462
7.30407 93.7368 4.41232
11.405 115.732 15.592
3.29404 79.5482 3.49428
9.8242 112.419 18.4742
10.0089 106.1 9.17275
10.1973 106.079 8.4788
9.71778 105.89 10.4554
10.841 105.893 5.42091
4.33301 99.1076 25.5801
10.3128 105.832 7.81929
18.7104 130.155 2.87315
10.3768 103.835 5.01726
14.2203 119.885 9.35273
2.53212 93.7541 26.8445
19.4397 136.115 7.8153
10.4839 105.451 6.88494
14.2929 119.698 8.91866
1.87616 91.5719 27.057
9.12269 110.065 19.4328
9.67696 100.908 4.63408
10.1646 102.801 4.9866
10.1274 104.095 6.93613
10.0232 108.595 13.4685
10.4248 104.771 6.54595
10.0197 108.197 13.0766
3.08708 95.0691 26.6202
2.60082 76.9327 4.478
5.88742 102.326 23.9902
4.8684 84.7603 4.96223
2.42025 74.257 1.85606
10.4122 104.187 6.17819
10.1636 103.513 6.45379
16.8785 129.434 11.1238
17.6476 125.088 1.85554
8.54782 108.2 20.076
11.3587 110.163 10.1675
15.7361 125.825 11.6147
11.5889 115.049 15.8002
19.3316 131.617 3.42884
10.0187 107.956 13.5063
17.9364 126.41 2.72741
7.08468 92.002 5.37292
5.3313 86.533 5.94808
19.4544 135.218 7.99805
2.59074 74.6919 2.46173
10.1151 108.725 14.4362
10.2139 108.901 14.2445
9.67044 104.609 10.9392
3.80654 96.2972 26.1922
10.1763 111.56 18.3828
0.117493 85.0921 28.1673
10.4208 111.875 17.9888
11.7677 113.621 14.3323
11.3991 110.516 11.9609
6.14693 101.457 23.405
9.36436 102.456 10.2964
15.137 121.694 10.5095
5.98662 88.4404 6.99186
18.8196 132.961 9.19018
7.30162 91.8702 5.83296
20.642 135.415 4.45062
8.61804 96.2337 5.86307
17.8703 122.932 0.198447
20.6615 136.812 6.44437
5.47919 99.7045 24.8198
10.6737 111.242 17.0646
11.9957 112.073 12.2699
19.1256 129.132 3.2536
8.48252 95.6644 6.1357
10.2782 110.425 18.0005
11.3912 112.735 16.2059
2.88606 74.4569 3.0019
20.4061 133.318 3.37486
11.1461 112.322 16.8086
5.61312 86.1186 6.53815
11.8235 112.178 13.7459
7.79051 92.9002 6.06043
8.0929 94.2494 6.52208
10.1973 106.329 13.3347
9.39512 101.866 10.9983
10.1313 105.704 12.892
1.05532 86.4718 27.9018
9.03527 97.0734 6.27924
18.3295 123.934 0.686701
8.38114 95.048 6.62239
5.97186 87.7054 7.5947
6.3031 100.458 23.2622
4.77766 82.5013 6.06562
21.3362 137.66 5.8117
5.86387 99.5868 24.3193
20.5942 133.337 3.53679
0.357655 84.0476 28.2765
9.42171 98.133 6.46535
20.7228 133.676 3.51753
17.283 128.167 11.6427
8.02745 104.539 21.5036
3.67471 78.8941 6.87188
2.99772 75.5116 5.43229
17.574 128.661 11.3523
8.01269 103.526 20.6412
8.92939 105.13 18.8406
7.9087 92.3768 6.44044
9.39346 101.89 12.6834
4.46652 80.6968 6.38998
8.54475 105.138 20.9216
7.39638 102.118 22.18
9.83801 106.85 17.5947
3.48526 91.8949 26.1243
20.416 134.417 7.21572
5.16452 83.1097 6.8756
8.16122 93.2606 7.10171
0.985243 84.8568 28.0749
3.05416 76.7363 7.98816
8.0475 92.475 6.84724
3.10741 76.1687 7.25411
9.17231 104.649 18.3348
3.94518 79.5921 8.1737
8.1686 92.9658 7.21922
1.44385 85.7748 27.8792
9.8055 99.2935 8.47633
6.93119 100.148 22.5597
7.50493 92.5232 9.75693
3.19127 89.5165 25.1359
6.4024 90.4932 12.0621
16.9283 124.803 10.9138
3.54331 82.9492 14.8559
9.80961 99.377 8.77287
7.73401 92.6638 9.13252
5.5274 96.8066 24.6916
17.6577 127.6 11.6102
9.01979 103.9 18.6704
7.26764 100.536 22.1389
9.67139 98.3034 8.40575
19.0276 130.456 9.62702
6.21412 86.8608 8.70552
6.09284 86.213 8.41308
3.19493 75.0562 6.45925
10.3475 105.753 15.5673
10.2487 104.945 15.0869
7.98651 101.872 21.1812
21.0951 133.012 4.11752
3.07629 79.9941 13.9048
7.5559 91.1585 8.80383
8.94415 95.2996 8.15405
9.46941 101.59 14.2973
4.83875 81.1124 7.67976
4.82967 85.3522 13.4201
3.07654 78.8927 12.6872
8.58044 95.4165 10.1703
3.6244 81.9919 14.406
20.0854 132.111 7.83246
5.22334 86.3272 13.1368
10.2545 104.933 15.6694
16.046 120.249 10.2692
5.47715 88.4083 15.0276
6.24797 97.5594 23.9009
5.00639 83.5287 10.8298
7.02096 99.1719 22.8237
18.4602 128.583 10.9986
4.97339 81.6455 8.54094
3.53636 77.3744 9.39139
9.4699 97.2746 9.48068
4.16214 85.3246 17.4046
8.19784 101.402 20.8747
3.99876 84.0441 16.4759
9.99128 103.81 16.1184
5.49306 84.2841 10.0979
3.31675 78.1301 11.6122
9.48852 100.777 14.3383
4.03271 84.2197 16.6115
5.64077 84.1753 9.39952
5.69187 84.1873 9.2345
6.42456 86.6908 9.33756
7.37723 89.0129 8.24732
21.6875 135.402 6.2826
4.25425 82.4352 13.4775
17.1447 123.099 10.2224
4.90223 82.8826 11.2358
4.86068 82.1232 10.4675
17.9995 126.914 11.6362
3.20545 81.1378 16.6619
3.92071 79.8665 11.7439
6.33857 87.7077 11.5374
19.6131 124.389 1.17157
9.55744 97.891 10.8347
9.5303 100.896 15.0023
5.0759 93.3742 24.9768
3.20248 76.4349 10.6542
3.03208 78.6388 14.395
6.49919 87.9194 11.3192
6.41708 86.2575 9.48603
20.2856 130.985 7.34873
3.67991 88.496 24.9275
5.05805 86.8901 16.5838
9.37653 102.491 18.1488
9.83691 99.5201 12.1293
3.23388 81.0476 17.0001
4.70178 82.1735 11.9585
5.05085 93.0675 25.0672
5.9458 94.9518 23.5942
4.28639 79.9643 10.9709
6.55117 96.6489 23.2196
20.1312 125.92 1.68758
5.37953 87.4292 16.2761
7.35705 98.4804 22.3423
19.868 130.124 8.78151
9.65178 101.39 16.1299
3.62987 83.7173 19.5
3.06023 78.0682 14.5184
3.05879 77.3516 13.5913
5.07813 92.521 24.9905
16.7522 120.35 9.91947
6.1962 94.7789 23.0734
6.81621 90.9827 15.361
9.19126 101.317 18.5825
4.85496 86.5841 18.2906
9.52705 98.5328 13.3595
20.6974 130.778 6.69576
3.64182 83.4934 19.847
21.9302 134.186 5.89825
7.50127 92.568 14.9988
3.28066 82.5354 20.5535
6.66567 95.0918 22.492
8.88407 97.1476 15.3642
19.7296 128.997 9.438
5.76072 88.003 17.1975
9.63531 99.4015 15.2309
8.77165 99.7602 19.6343
9.61125 98.9604 15.0593
19.7088 128.259 9.24402
3.28304 81.1787 19.9259
19.5566 120.896 0.20203
4.93743 90.0736 24.4998
8.08355 97.8445 20.8162
9.14413 99.4525 18.2108
7.60823 94.1459 18.2891
5.25897 86.8108 19.0202
9.09642 98.035 16.9075
2.55214 83.4561 26.7485
7.89161 93.4418 16.2163
7.67535 93.6515 17.4997
