ply
format ascii 1.0
comment Created by Open3D
element vertex 1924
property double x
property double y
property double z
end_header
-42.6494 94.5959 13.3587
-35.4357 101.739 0.0898802
-12.5885 143.6 -4.39902
-42.4587 94.19 11.9389
-18.1527 133.986 -2.03577
-14.4574 144.792 5.09929
-29.1579 123.123 18.3439
-10.7988 146.571 -5.13666
-16.8769 141.407 7.82422
-42.9575 95.9923 17.6433
-41.1512 94.34 7.65796
-37.2548 106.215 16.1947
-42.8816 96.2026 17.941
-18.2714 133.75 -1.59229
-19.1622 132.544 -0.415973
-17.4421 141.392 10.572
-15.591 143.123 7.07192
-39.5714 95.2886 4.38282
-42.2237 92.8103 9.66119
-20.9785 128.69 -0.437252
-34.8962 110.79 17.1535
-23.9888 121.285 -3.39997
-34.7737 111.055 17.4304
-35.7213 100.816 1.04925
-34.7334 101.814 -0.714527
-42.3655 92.428 10.0283
-36.6021 106.651 16.0794
-42.4283 92.1009 9.76254
-22.9277 123.911 -1.75727
-16.4648 141.724 8.59688
-28.8342 111.398 -3.79079
-14.1408 144.554 5.54452
-21.3313 127.393 -0.758816
-23.5751 131.425 15.5665
-21.9848 125.996 -0.983601
-32.2138 105.499 -2.28929
-31.9361 106.018 -2.21703
-15.9783 141.982 7.95547
-27.232 125.176 17.7885
-9.34873 147.71 -5.57832
-39.6524 94.1755 4.39502
-28.1972 123.475 18.3995
-29.3698 109.744 -3.91563
-39.1904 101.635 17.3485
-12.1594 147.11 4.1843
-18.0198 133.435 -0.320879
-43.0262 92.7915 14.7751
-40.0595 93.6245 5.29788
-23.9547 130.216 16.1081
-6.82818 154.39 -1.29917
-15.6323 136.564 -2.83802
-20.0979 129.359 -0.0435552
-38.7322 102.025 16.9404
-6.83942 154.415 -1.16977
-23.3132 121.564 -3.0844
-41.4616 91.54 6.97623
-28.7926 110.406 -4.00697
-42.6346 90.9844 10.3546
-33.2492 113.611 19.2024
-20.6992 127.813 -0.347804
-6.36248 153.441 -4.42287
-13.2698 140.071 -4.16731
-32.1072 115.833 19.6233
-36.6289 98.0397 2.0441
-10.2943 145.398 -4.87869
-40.4013 92.2203 5.03462
-42.4018 95.5984 19.2665
-35.6388 107.027 16.0853
-28.0132 123.068 18.6161
-25.9428 126.529 17.5818
-14.7149 142.874 7.22157
-42.3413 96.1337 20.2818
-36.098 106.146 16.2672
-43.2639 93.392 18.4674
-24.4774 128.709 16.6002
-27.8611 123.177 18.6156
-19.4531 129.999 0.241417
-34.2501 110.535 18.1493
-33.582 101.591 -1.73726
-30.7363 106.34 -3.04266
-15.5457 142.183 9.57384
-43.4866 92.2751 17.67
-43.4558 92.4848 17.9969
-20.6227 127.21 -0.299403
-16.1574 141.31 10.3982
-26.5792 125.063 18.0394
-27.0319 112.685 -4.30468
-23.2314 130.359 15.908
-6.46566 154.544 -0.162402
-43.0909 91.3878 14.905
-11.453 142.67 -4.29697
-39.1995 100.73 18.7022
-37.5301 102.978 16.8183
-7.77064 148.976 -5.58061
-31.0984 104.914 -3.37785
-41.4987 97.496 21.558
-20.1505 135.202 14.5729
-42.0921 89.5317 8.28547
-27.7297 122.654 18.7452
-35.094 99.1858 0.771508
-5.81601 153.263 -3.99235
-39.203 92.6118 3.81938
-19.5556 135.718 13.7865
-6.13999 154.096 -0.885822
-33.8755 110.61 18.9945
-22.4342 121.447 -2.94871
-43.3874 91.9227 18.5456
-43.0103 90.6556 14.683
-32.6287 113.311 19.8715
-33.787 110.687 19.1577
-33.8135 110.529 19.1137
-29.777 118.564 19.6487
-42.7519 93.53 19.8393
-15.7736 140.982 10.622
-40.6762 90.1013 5.3543
-42.7831 89.8974 12.9373
-18.8085 136.484 13.4463
-28.6784 108.138 -4.54257
-32.8759 101.107 -2.30517
-30.0677 105.836 -3.6667
-17.8088 131.548 0.316246
-34.5239 99.0243 0.203311
-38.7069 100.748 19.3984
-11.6682 145.641 5.05225
-37.6228 93.9184 2.13928
-5.47809 154.633 -0.713433
-31.646 102.728 -3.15191
-31.236 115.506 20.2577
-31.7228 102.515 -3.09331
-34.8616 106.727 16.9612
-20.2847 125.739 -0.777777
-35.4596 97.1579 0.739498
-21.4008 122.656 -2.51296
-33.9812 109.077 18.6038
-19.9584 126.351 -0.52509
-32.6867 112.175 19.8679
-19.3811 127.516 -0.25288
-10.2629 147.013 3.37645
-41.8365 87.9125 7.25924
-15.5889 134.789 -0.285344
-41.5208 96.5086 22.8734
-24.1072 127.212 17.0661
-42.1259 94.7659 21.7867
-43.1198 90.6876 17.6402
-16.5448 133.121 0.21051
-34.2528 107.878 17.8237
-20.4884 124.555 -1.53365
-41.971 87.6016 7.43755
-34.8924 106.146 17.1983
-37.2895 101.941 18.1314
-16.1426 133.66 0.229183
-8.22851 146.367 -4.74197
-18.212 136.541 13.7571
-19.5401 134.431 14.7883
-26.9215 122.107 18.6932
-41.9653 87.9902 9.11112
-30.9362 102.779 -3.35583
-26.0216 123.401 18.4609
-21.3932 121.084 -3.38686
-42.6524 89.2221 14.6879
-19.1505 126.854 -0.518488
-38.7111 100.078 21.0833
-20.7992 122.53 -2.68056
-37.338 101.519 18.7636
-31.0276 114.638 20.6085
-36.4995 93.9942 1.19224
-27.0648 121.266 18.8686
-22.4508 117.996 -4.88462
-28.8385 105.797 -4.52371
-26.0448 122.959 18.5353
-41.9575 88.5182 11.628
-9.32449 143.475 -4.14828
-4.69729 152.807 -3.35801
-42.532 93.5253 23.7681
-36.1191 94.1584 0.824746
-39.732 88.7242 3.86117
-31.096 114.07 20.8249
-36.7489 93.2161 1.6104
-42.2518 92.9346 21.8174
-18.3564 135.298 14.3538
-8.60246 144.572 -4.24304
-41.9164 88.4271 12.1342
-22.5729 128.149 16.6379
-31.2856 113.51 20.9629
-12.8064 142.853 8.54301
-30.5922 102.29 -3.41881
-11.9899 138.617 -2.74394
-35.7376 94.316 0.543216
-41.9444 87.9237 11.5736
-30.628 102.095 -3.43114
-39.2752 88.8493 3.41778
-38.4895 89.6848 2.27342
-42.2585 93.748 24.5086
-19.8447 123.386 -2.21086
-40.6448 86.4434 4.20686
-31.056 113.601 21.0371
-32.6828 98.5034 -2.13611
-21.0769 119.936 -4.08656
-35.1729 94.8256 0.149399
-23.3319 126.355 17.2667
-28.6954 117.253 19.874
-19.2735 132.853 14.7832
-32.5203 98.3488 -2.25969
-21.5948 128.997 16.3738
-9.74307 145.71 4.27112
-13.8808 140.872 10.5875
-15.2903 132.848 0.370764
-42.4467 90.911 21.1742
-24.7392 111.289 -5.70461
-33.6889 106.396 18.5291
-3.79016 153.061 -3.10097
-20.7595 129.851 15.6958
-13.2334 136.237 -0.232241
-8.81242 143.113 -3.48666
-28.8399 104.042 -3.96419
-19.067 124.171 -1.54116
-20.3612 130.294 15.3355
-29.5562 115.099 20.4082
-23.8715 124.814 17.964
-20.9514 129.429 16.0028
-6.07329 147.616 -4.52507
-34.0892 95.3311 -0.73051
-11.1131 143.364 6.31294
-26.002 120.945 18.8138
-42.1056 91.3991 22.1283
-32.6592 108.686 20.2415
-6.45893 146.784 -4.25074
-41.883 90.0077 18.6518
-30.0998 113.848 20.9533
-13.053 135.862 0.0157295
-37.8929 88.6019 1.60994
-15.6667 130.817 0.129992
-37.3155 100.193 22.0702
-3.21841 153.202 -3.12526
-21.1948 117.67 -4.55894
-12.6021 136.515 -0.173307
-18.7579 132.178 14.8378
-27.3542 117.925 19.512
-7.5132 147.076 1.77895
-29.4387 101.9 -3.52504
-14.0852 139.291 11.4925
-10.308 143.732 5.91587
-17.1239 127.18 -0.575518
-18.3272 132.641 14.8682
-34.0971 104.365 19.3418
-12.9978 140.636 10.5761
-35.0206 102.651 19.624
-35.411 91.7815 -0.0709551
-15.0418 137.506 12.2715
-10.4992 143.59 7.03121
-23.9888 123.259 18.287
-6.73152 145.308 -3.69957
-32.6954 107.612 20.7436
-36.009 90.9462 0.776885
-37.1262 99.9567 22.5676
-19.0075 131 14.8164
-3.02013 152.035 -4.41374
-30.7121 111.744 21.485
-12.534 141.185 10.3639
-25.1381 108.824 -4.92926
-25.7311 120.002 19.1709
-31.2071 97.7393 -3.49259
-33.7441 93.9605 -1.06706
-18.9452 121.399 -3.29946
-6.31354 145.647 -3.6472
-31.212 97.5239 -3.44681
-19.0333 121.134 -3.34367
-36.0553 90.3593 0.858556
-32.8875 106.562 20.5785
-16.6412 126.837 -0.955424
-22.4579 113.211 -5.38644
-36.3718 100.472 22.2811
-33.0969 105.376 19.5903
-38.1913 85.9819 0.997871
-2.28773 153.149 -3.42054
-36.4991 89.2329 1.05648
-33.4028 104.755 19.6566
-25.3864 119.995 19.1482
-19.5667 119.521 -3.68819
-18.062 123.043 -2.28775
-16.3053 134.733 13.9198
-39.0098 95.7316 23.629
-7.77232 145.79 3.48572
-31.2855 96.8212 -3.25092
-27.1357 104.167 -4.40096
-17.1469 124.874 -1.5496
-2.64081 151.4 -4.53207
-9.38106 144.101 6.88537
-19.6605 128.822 15.9871
-4.49305 147.84 -4.04626
-27.1337 103.905 -4.30594
-13.1536 139.01 11.5411
-37.1004 86.9986 0.463689
-30.5555 97.4837 -3.75138
-9.08948 144.232 6.79568
-32.8663 105.144 20.2627
-9.94109 143.432 8.73664
-38.0273 96.5259 23.2057
-10.0254 138.195 -1.00236
-30.3748 97.3566 -3.83152
-27.0898 103.482 -4.22278
-34.2817 102.343 20.7956
-22.2179 111.513 -6.7957
-17.889 130.885 14.7851
-29.238 99.3297 -3.89855
-20.8153 115.043 -4.97215
-7.49596 145.43 4.043
-14.047 130.636 -0.0674846
-19.8231 117.237 -4.39281
-4.11792 147.825 -3.88268
-14.6488 128.935 -0.818092
-39.6677 93.2879 24.0629
-12.3297 133.963 0.480545
-9.25809 143.935 8.35361
-30.8724 109.276 22.3309
-18.1107 130.103 14.8409
-34.5466 101.575 21.3912
-9.10245 144.028 8.34102
-23.3627 121.602 18.5895
-7.91733 140.883 -1.96504
-11.5805 140.182 10.5032
-18.1744 120.158 -3.51347
-1.19188 153.164 -3.19871
-16.0564 124.912 -2.22263
-14.7222 127.867 -1.39679
-27.8758 113.587 20.3703
-16.9379 123.127 -2.26379
-27.0156 114.904 19.7925
-35.775 99.766 23.3561
-15.9687 133.219 13.8949
-33.0542 103.667 20.8015
-15.3209 126.293 -1.91357
-15.7331 125.269 -2.27384
-23.8432 120.461 18.9598
-23.3173 121.325 18.6878
-32.7772 92.6034 -1.51156
-5.30919 144.99 -2.91552
-15.838 124.894 -2.36459
-9.90754 142.492 9.58222
-27.3681 101.765 -3.94715
-8.87293 139.06 -0.986491
-1.94649 150.55 -4.66526
-18.8901 128.339 15.9801
-31.5046 94.3992 -2.496
-3.59871 147.778 -3.64352
-39.8616 91.9732 24.3777
-15.6763 133.275 13.7584
-19.6246 127.088 16.7693
-17.9403 119.823 -3.68225
-39.5936 92.2428 24.3383
-19.7459 115.645 -4.83856
-37.641 95.619 23.6257
-24.3804 119.055 19.3301
-5.58226 144.174 -2.53085
-37.1259 84.3701 -0.122454
-36.4974 97.7252 23.7815
-11.2252 139.672 10.4911
-13.2444 129.708 -1.18476
-22.2927 109.36 -6.64224
-31.5794 93.4272 -2.4155
-17.4269 120.036 -3.63551
-5.48356 143.839 -2.26442
-26.7004 101.787 -4.18479
-31.048 107.143 22.8753
-0.830334 151.712 -4.14985
-11.9974 131.879 -0.689224
-10.6439 134.738 0.0360641
-17.5451 129.065 15.1584
-15.6395 123.516 -2.81462
-30.6792 94.266 -3.09003
-5.77399 146.03 3.97296
-11.6072 132.362 -0.674727
-32.2385 103.843 21.5364
-7.85159 139.565 -0.695149
-7.93616 139.441 -0.614586
-24.4902 117.577 19.2621
-12.5944 129.803 -1.61601
-13.2253 128.332 -2.03676
-28.3763 97.8858 -4.24493
-18.4921 127.511 16.3805
-29.493 109.205 22.1879
-10.7731 139.395 10.5969
-3.11462 147.074 -3.09645
-5.73557 142.633 -1.63753
-9.09844 141.803 9.5485
-8.8873 142.134 9.47282
-13.7539 134.442 12.83
-31.4105 92.1651 -2.9258
-22.5774 120.415 18.8682
-17.9568 127.898 16.0609
-12.6323 136.203 12.273
-26.7521 100.41 -4.18322
-20.7148 110.19 -7.44769
-25.5871 114.702 19.7356
-25.3105 115.069 19.5636
-24.5599 116.384 19.2971
-25.4033 114.916 19.6278
-6.11336 141.596 -1.05544
-5.58978 142.43 -1.39709
-11.0114 131.924 -1.42931
-5.48413 145.678 4.54053
-13.7468 134.006 13.0011
-31.0988 92.0433 -3.27037
-31.7998 90.8773 -2.85552
-9.69373 140.142 9.88739
-23.0013 119.176 19.2077
-5.63138 145.614 5.45684
-14.6903 132.289 13.6526
-36.6812 94.9809 23.8672
-29.3403 94.5654 -4.49822
-32.9612 101.896 23.448
-13.1375 126.685 -2.94537
-19.099 113.317 -6.36118
-18.022 127.118 16.5246
-14.1148 124.33 -3.33882
-37.6664 92.9464 24.342
-34.156 99.498 23.9092
-38.5801 91.8117 25.6516
-35.9125 83.2156 -1.09593
-22.5757 106.407 -6.17498
-8.04095 142.426 9.2452
-14.34 123.763 -3.3811
-3.45705 145.351 -2.25984
-25.3805 101.582 -4.77803
-33.5418 100.46 23.8168
-38.5222 91.1656 24.509
-28.8478 108.619 22.2327
-2.09314 147.356 -2.7926
-29.2345 93.801 -4.60533
0.693946 152.158 -3.67663
1.15241 153.807 -2.16868
-8.8204 140.542 9.60375
-32.8142 87.9782 -2.37321
-34.8353 84.5664 -1.35377
-25.0339 114.272 19.6503
-21.7992 107.063 -6.52224
-30.335 105.827 23.4766
-26.6312 98.6186 -4.45155
-22.0936 119.419 19.0307
-18.2126 125.769 16.8654
-20.5063 121.814 17.9921
-3.14536 145.082 -2.02442
-10.1188 138.303 11.2232
-31.1518 103.752 23.3092
-11.7271 127.317 -3.86256
-20.5144 108.518 -7.34448
-16.8281 127.634 16.0539
-6.18678 139.931 -0.0577489
0.566814 151.052 -3.67565
-27.1342 96.9953 -4.59188
-21.2998 120.205 18.7517
-31.3504 102.987 23.0994
-16.2054 117.781 -5.16368
-27.5993 109.662 22.004
-34.5086 97.4673 24.3133
-27.8933 95.3889 -4.6209
-19.0867 110.678 -7.99395
-15.3017 129.559 14.5923
-15.8188 118.508 -4.97991
-16.5435 127.795 15.8875
-2.18775 146.223 -2.29148
-27.5677 109.559 22.0244
-15.3994 129.271 14.6502
-24.0477 102.125 -5.65283
-24.9445 100.574 -5.09149
-20.7877 120.697 18.4575
-15.7362 118.13 -5.4993
-18.6713 111.163 -8.0021
-6.1497 139.383 -0.0467537
-35.2021 95.4985 23.9717
-30.7961 103.779 23.689
-32.623 100.423 24.1884
-0.463286 148.793 -2.74215
-15.8167 128.35 15.3668
-15.7429 117.399 -6.2553
-27.0865 96.1567 -4.79094
-15.1666 118.515 -5.98441
-16.2003 116.109 -6.75276
-31.7497 101.8 24.1186
-30.9838 103.014 23.7505
-36.9425 91.8627 24.5947
-7.93602 134.798 -1.00799
-33.3645 98.5023 24.1283
-8.61748 132.821 -2.18575
-24.8811 99.8525 -5.12199
-11.0393 135.543 12.4088
2.48609 154.43 -1.7269
-8.06622 134.095 -1.49447
-14.5831 118.903 -6.51634
-18.15 110.932 -8.09732
-33.3893 84.4684 -1.86359
-31.0472 102.4 24.3917
-12.7405 132.257 13.6135
-20.4896 106.583 -7.18687
-20.762 106.044 -7.11423
-11.0497 126.166 -4.43596
-2.58474 144.138 -1.31376
-17.0315 125.37 16.7133
-32.5784 85.5137 -2.17672
-29.89 104.304 24.3577
-17.1251 125.074 16.793
-27.0672 94.724 -4.86307
-9.52443 129.424 -3.17576
-9.00607 137.806 11.2161
-7.50992 139.842 9.55597
-20.9131 118.561 18.8641
-27.8354 107.095 22.7201
-30.096 89.1244 -3.73913
-15.5922 127.251 15.9622
-33.7568 82.9571 -1.81695
-5.36863 138.653 -0.151857
3.31871 154.616 -1.73378
-10.1147 135.802 12.3276
-8.54047 138.08 10.8947
-0.728475 146.544 -2.03036
-25.0384 97.8657 -5.12203
-13.3331 130.317 14.3235
-0.0943883 147.458 -2.1662
-24.6621 98.3124 -5.14017
0.725394 148.737 -2.51583
-18.7886 108.151 -8.02544
-17.16 111.313 -7.9851
-15.0382 115.755 -7.30321
-18.845 107.975 -8.00241
-5.85216 141.566 8.60857
-17.6835 110.05 -8.19221
-26.2328 95.0227 -5.22027
-7.59673 138.879 10.1394
-1.96458 147.162 5.17763
-31.6446 99.7543 24.7154
-15.2637 114.819 -7.5589
-27.7886 91.8893 -4.99506
-11.3921 132.973 13.2821
-19.7419 106.093 -7.5728
-3.34779 145.167 6.8593
-18.0721 108.89 -8.22865
-3.75884 140.618 -0.324343
-30.3519 101.714 24.3295
-10.7686 124.169 -5.6124
-2.04118 143.406 -1.01842
-10.8341 123.974 -5.70936
-26.8801 93.2824 -4.98979
-3.7905 140.253 -0.332976
-9.892 126.121 -4.47345
-36.1256 90.2028 24.6814
-11.9029 131.487 13.8883
-31.7757 84.4986 -2.61779
-24.0135 111.417 20.7225
-13.4278 128.86 14.8635
-33.4929 95.0111 24.5896
-35.0513 92.1053 24.8401
-20.6788 103.669 -6.40664
-21.3325 115.392 19.0018
-28.358 103.882 23.1761
-32.4543 96.5549 24.3876
-24.0323 110.962 20.9732
-4.08212 142.804 7.83635
-5.94715 134.427 -1.39638
-32.0247 83.3728 -2.55174
-22.4242 113.309 19.6348
-9.4876 134.415 12.3832
-10.2285 123.646 -5.67542
-3.31482 139.718 -0.413685
-25.3115 94.4896 -5.61736
-16.4132 110.278 -8.09091
-12.2183 118.801 -7.2831
-7.22279 137.579 10.496
-6.28578 132.956 -1.94918
-35.5243 90.0209 24.7215
-27.1485 104.884 22.1822
-18.9368 105.383 -7.73767
-11.3814 130.981 13.7695
-2.23898 141.125 -0.703172
-10.0624 132.867 12.7085
-30.0441 85.5604 -3.86609
-9.50406 124.513 -5.32912
-5.8303 139.228 9.50061
-21.3549 114.263 19.3805
4.93091 154.065 -2.12556
-22.2059 99.46 -6.1475
-35.1279 89.9345 24.8686
-12.3408 128.793 14.7028
-14.9567 112.057 -8.01106
-29.7535 85.4512 -4.03434
-2.89826 139.166 -0.486779
-4.83056 135.216 -0.8142
4.77769 152.667 -3.01339
-18.9161 117.682 18.2995
-4.95702 139.841 9.01237
-26.5007 104.656 21.6865
-5.30273 139.305 9.33599
-1.00768 142.256 -1.09287
-6.85141 130.084 -2.69641
-15.8237 109.817 -8.35954
-1.24955 145.407 6.29762
-5.10106 133.886 -1.5164
-28.9698 86.1768 -4.45606
-25.1931 106.833 21.7073
-26.4067 104.397 21.5491
-21.1967 99.9419 -6.76325
-22.9855 96.96 -5.831
-19.7493 115.632 18.3845
-26.1502 91.0067 -5.41378
-26.2382 90.8567 -5.34537
-10.6677 120.38 -6.49144
-13.3727 126.379 15.5982
-25.4722 106.032 21.5957
-1.8775 140.119 -0.735062
-29.8278 98.6144 23.9964
-16.2794 108.142 -8.51154
0.600655 144.362 -1.39604
-11.5332 128.89 14.2065
-7.84328 134.525 11.3607
-19.6608 102.427 -6.62593
-15.9031 121.83 17.1098
3.44097 149.224 -2.38502
-3.7206 136.335 -0.490468
-28.6216 85.9743 -4.69883
-0.709871 145.577 6.28319
-28.2918 101.016 23.52
-5.71811 137.508 9.89138
-17.254 119.216 17.7747
-10.7391 129.726 13.7364
-25.8792 90.5775 -5.48464
-9.64798 131.369 12.8589
-11.3707 117.778 -7.01712
-16.7935 119.847 17.5811
-24.5523 92.7428 -5.96017
-0.700384 141.308 -1.17224
-31.5691 94.9483 24.9137
-31.707 94.6142 24.963
2.72825 147.296 -2.12608
4.21082 149.953 -2.52527
-18.138 104.1 -7.61254
-2.91899 137.082 -0.5442
-28.6627 85.0558 -4.64305
-27.038 101.985 22.3555
-11.8782 115.888 -7.64276
-29.8283 97.568 24.4101
-7.39216 126.211 -4.25287
-14.6526 122.7 16.3593
6.47763 154.881 -0.559438
-21.0855 98.2928 -6.84112
-10.258 119.376 -6.43311
-32.5697 92.2416 24.9727
-14.6819 122.416 16.3629
-25.2243 104.391 20.9898
1.55545 148.01 5.25248
-18.5122 102.722 -7.11362
2.41597 149.226 4.68806
6.39846 153.358 -2.23835
-0.695796 144.249 6.77078
-2.95455 140.661 8.39796
-13.644 111.396 -8.26182
-26.4986 101.97 21.8533
-26.2864 88.391 -5.36011
-8.81578 131.278 12.4304
-1.0847 143.509 7.12397
-15.6571 107.346 -8.36578
-10.579 118.041 -6.61915
-29.9412 81.863 -4.13272
6.50103 153.165 -2.35827
-1.08148 143.383 7.18021
-2.92897 135.27 -1.38178
-1.10362 143.188 7.25122
-26.0428 88.4276 -5.43862
-12.9108 112.41 -8.15051
-28.6905 83.7221 -4.38157
-14.3284 121.99 16.1091
-24.3634 91.2404 -5.94146
-31.8758 92.5144 25.0024
-16.2722 105.691 -8.12958
2.56336 148.775 4.93445
0.76475 141.816 -1.70014
2.6773 148.831 4.90108
-13.3821 123.245 15.6042
-29.4562 81.858 -4.28512
6.67815 152.41 -2.94379
-27.1682 85.7156 -5.30881
-16.4866 118.015 17.447
-23.5707 92.1647 -6.18742
7.09905 154.755 0.230513
-4.56178 136.975 9.56012
-10.4256 117.202 -6.75062
-14.7249 107.754 -8.47307
-20.9584 109.83 19.0827
-22.72 106.544 19.4779
-15.2762 106.699 -8.26953
-21.2132 95.8767 -6.97669
-12.5167 111.949 -8.42799
-27.4428 84.7752 -5.11615
-19.7217 112.152 19.1819
3.19499 149.059 4.76324
-13.8497 121.748 15.7938
-3.28441 133.013 -2.05082
-6.19875 126.481 -3.75067
5.91146 150.156 -3.01494
-2.24301 134.95 -1.89422
-7.13897 124.245 -4.24054
-18.6775 113.47 18.3037
6.18043 150.539 -3.10807
-22.8646 92.6428 -6.4302
-12.4148 123.873 15.0437
-16.0414 117.95 17.2074
-6.42292 133.138 10.6
-0.208784 138.466 -2.43947
-19.0508 99.3665 -7.46852
-28.2147 83.1411 -4.4899
1.80338 146.275 5.42869
2.6143 143.886 -2.25275
-8.77995 129.395 12.4769
-19.4243 112.148 19.0428
-25.9027 100.951 21.6872
0.0943463 138.83 -2.44677
-6.58622 132.604 10.7866
-9.60525 127.944 13.098
-3.94232 136.992 9.41272
-26.1308 86.2183 -5.6642
-4.55099 135.79 9.65284
-11.2943 125.152 14.3813
-21.1376 108.267 18.7329
-3.40097 137.431 8.7285
-21.0354 95.2165 -7.04464
2.18127 146.393 5.18343
1.43451 141.093 -2.32866
-27.647 83.5535 -4.83055
7.26582 152.107 -2.82682
-12.7305 110.233 -8.97216
4.31579 146.442 -2.63379
-1.31511 135.945 -1.78646
-3.20191 132.148 -2.03452
-30.0847 93.9541 24.8799
-17.0551 115.478 17.7341
-2.10788 139.38 7.98883
-20.8893 108.493 18.6186
1.65896 141.209 -2.42317
-11.9914 111.55 -8.73327
-1.80216 139.761 7.86831
-2.5403 133.185 -2.08837
-23.195 90.9425 -6.45052
4.81142 150.681 4.58277
-8.79884 128.339 12.4333
-30.7526 92.2069 24.8615
-14.5982 106.418 -8.22467
3.29182 143.706 -2.83105
-12.7375 109.557 -8.90823
-2.87435 137.405 8.20157
-12.2001 122.78 14.8944
-26.3159 99.4321 22.6454
-11.876 111.147 -8.90162
-11.715 123.523 14.6184
-10.9481 124.655 14.0719
5.49895 147.699 -2.85151
-29.4745 94.1194 24.5948
-15.8149 116.617 17.1026
-32.6642 88.8965 26.696
5.02688 146.379 -3.21263
-0.379112 135.847 -2.80515
-9.41995 126.308 12.725
-18.6879 97.9963 -7.4276
-11.6539 122.845 14.501
1.65146 139.546 -3.05015
-1.63464 138.508 7.41534
-10.2344 114.052 -7.82858
-25.4338 99.8257 21.8408
-1.64669 138.373 7.38818
-1.23574 134.146 -2.35942
8.56392 154.815 1.01693
-1.29008 138.964 7.28479
-11.4068 111.043 -8.97342
-0.0533173 135.967 -3.16872
-26.9414 82.9198 -5.03515
-22.0604 91.4798 -6.73409
-10.1408 124.77 13.2584
-5.65342 132.003 10.4955
-5.47888 132.262 10.3628
-10.909 111.929 -8.78835
-4.50206 133.901 9.89123
1.56687 138.763 -3.48358
-27.3942 96.1587 22.7038
-10.2043 124.441 13.2907
-23.9486 101.538 20.537
-13.6445 106.659 -8.32703
8.1112 151.605 -2.72199
-16.4654 101.576 -7.55536
-8.6059 117.695 -5.75198
5.37424 149.482 3.5317
-22.2228 90.8155 -6.76194
1.58166 138.445 -3.65712
-12.0421 121.46 14.6615
6.21519 147.291 -3.63225
-6.35685 122.592 -4.14818
-26.4821 97.2824 22.419
4.23639 143.282 -3.70661
-7.32043 120.004 -5.46427
-19.0441 96.238 -7.50768
-17.5586 111.96 17.5705
-7.12916 128.863 11.2667
1.75999 142.952 5.3867
-10.1362 112.929 -8.27471
-9.35346 115.142 -6.80645
-10.9891 110.819 -8.98249
-12.6551 107.772 -8.54756
-8.50458 126.294 11.9565
-0.0234912 139.784 6.36408
-0.809063 138.415 6.78961
-30.0138 91.0462 24.6795
-4.1374 126.952 -2.85608
-1.13146 132.922 -2.44349
-23.3227 101.498 20.1666
3.67342 141.418 -3.80437
7.31669 151.944 3
-4.38209 132.714 9.63852
-3.15054 134.666 8.885
-10.7422 122.324 13.5585
-17.6923 110.637 17.048
-24.0739 86.2893 -6.34291
-6.94945 119.705 -5.76519
7.69569 152.657 3.28048
-13.9354 117.066 15.4947
-24.1059 86.1848 -6.34802
-21.9346 103.584 19.3956
0.724948 140.334 5.89087
0.15019 134.364 -3.46924
8.85782 153.911 1.866
-20.2093 92.8644 -7.29156
-16.4826 112.408 16.9344
-11.5513 120.407 13.9843
9.32418 153.816 0.483172
-0.319871 133.361 -3.02294
-14.3001 115.867 15.6124
8.84983 153.421 1.55509
-8.89566 124.4 11.9895
-9.96826 111.696 -8.69841
-23.2657 87.1114 -6.48102
-24.441 98.9993 21.3375
8.28272 152.339 1.93157
-21.1516 104.072 18.8635
-8.44265 124.922 11.6182
7.43288 150.955 2.65146
-17.2261 110.427 16.6279
-26.6603 80.6053 -5.7751
8.92131 153.172 1.57183
-7.8775 125.575 11.2477
-9.39724 112.756 -7.92164
-7.9469 125.319 11.2555
-0.291649 132.661 -3.29592
-29.6482 90.0971 24.4415
-5.76066 128.845 10.0384
1.42525 140.392 5.55159
-11.3604 119.817 13.6925
-14.7383 102.17 -7.85699
-25.7065 82.0414 -5.66847
-17.2997 109.227 16.1848
-24.9221 97.6046 22.2892
-0.635374 131.556 -3.02903
-20.1547 104.701 18.222
-11.671 107.253 -8.75169
-16.3497 110.989 16.2455
9.83187 153.792 0.969315
-5.86834 119.807 -5.84728
-8.04349 115.198 -6.52056
0.905219 138.783 5.76625
-28.4506 91.4677 24.3996
-0.537238 131.351 -3.08732
-22.0965 101.088 19.5267
-5.27139 128.52 9.57311
-28.8093 90.5377 24.3081
-21.7472 101.623 19.2975
-25.5676 95.5817 22.1847
6.46831 147.682 3.16811
8.18909 147.018 -4.60036
8.8598 149.192 -2.71611
5.43376 141.213 -5.3048
2.63291 141.144 5.23246
9.30541 151.02 -0.672063
-25.1783 95.8862 22.1933
6.98087 148.232 3.01938
7.15052 148.351 2.97643
-19.3477 104.689 17.7816
-9.71877 109.51 -9.11574
5.65815 141.029 -5.57192
-19.6514 91.0423 -7.44926
3.79349 142.614 4.74041
9.06187 151.462 2.20857
-25.3849 80.5152 -6.18887
-10.2196 108.139 -9.42238
-8.84747 111.422 -8.16827
-9.08157 110.736 -8.58393
-10.9832 118.13 13.001
-6.04366 126.043 9.88375
-20.9488 101.783 18.9157
-0.105627 135.639 6.68896
-21.7504 100.305 19.5847
-7.68791 123.02 10.8667
-8.42819 112.08 -7.64886
3.58218 136.658 -4.9976
-23.7224 83.2362 -6.14658
-25.5299 94.0825 21.8222
-7.85463 113.419 -6.99214
-24.3732 96.3365 22.1946
-7.14408 114.797 -6.62242
9.71226 150.652 -0.132232
-16.363 96.1494 -8.0286
-10.9016 117.389 12.8278
-4.28296 121.326 -4.0945
-17.8498 92.9846 -8.02979
2.27253 133.808 -4.12386
-10.5767 117.492 12.5759
-24.4818 80.9725 -6.12581
-15.4456 97.2029 -8.48108
-8.15804 121.219 11.0379
-7.06232 122.967 10.38
-14.2097 111.134 14.5133
4.27778 141.723 4.58675
-23.2883 96.9987 21.3586
-0.768431 132.997 6.68696
-8.41723 110.524 -8.2714
-10.1758 117.631 12.2744
-0.442556 133.451 6.50112
-0.597966 128.261 -2.97872
4.34508 136.625 -5.26607
-19.3106 102.76 18.0136
-2.95807 129.212 7.98016
-21.9665 84.6858 -7.05237
-24.4666 80.1171 -6.40247
-6.80777 113.861 -7.19071
4.33656 136.248 -5.28309
11.0292 152.409 1.14122
2.154 137.263 5.17432
3.52047 139.65 4.73506
-11.1234 104.36 -8.77758
-9.78691 106.54 -9.53326
-3.28005 128.088 8.14992
-28.2596 87.8479 23.9133
7.13661 145.736 3.3007
-7.13592 112.499 -7.6589
-18.2837 103.829 17.476
-1.42611 125.816 -3.18608
-12.1445 113.474 13.3608
-3.46587 120.948 -4.77358
-13.6638 99.1493 -8.68904
-14.7121 97.1017 -8.67183
-11.6026 114.212 12.9749
4.52385 135.789 -5.49636
-21.7832 83.9847 -7.04485
-28.0216 87.7273 23.7788
-20.3667 100.094 19.0346
-2.25414 129.215 7.62412
-11.0245 114.795 12.5987
2.10936 131.464 -4.42193
-18.8803 102.317 17.993
-10.5112 104.711 -8.86515
-20.8959 99.1549 19.5175
5.83356 142.782 3.85618
-3.11007 121.021 -4.7655
-21.023 85.1258 -7.182
-9.3261 106.477 -9.57779
0.509947 133.519 6.09258
4.5191 135.243 -5.52838
-19.3638 88.0035 -7.48622
6.37545 143.499 3.66551
-19.1509 88.3515 -7.53136
11.1733 151.179 0.703174
-2.99169 127.558 8.13008
-6.1273 122.42 9.97958
-11.8153 101.724 -8.84705
-12.8775 111.245 13.8881
10.0752 149.843 2.7489
-11.0516 102.953 -8.96227
10.1975 150.06 2.74208
0.917127 128.415 -4.42755
6.67919 143.621 3.56121
0.0700812 132.25 6.4829
-17.2107 104.234 17.0449
-7.30108 110.327 -8.23384
-3.56314 126.087 8.57453
9.19818 147.958 3.0973
-10.3818 114.823 12.374
-15.2954 107.131 16.0024
-20.1358 85.7701 -7.35227
-1.95941 122.638 -4.01924
-9.76704 104.853 -9.08842
-12.3464 111.46 13.5829
-0.968375 123.594 -5.56976
-5.74723 112.769 -8.4033
-12.3334 99.7207 -8.97528
-15.3743 106.62 16.0869
-22.5648 81.0998 -6.47191
11.1657 150.682 2.13117
4.81961 139.589 4.49393
-21.4169 97.1857 20.8768
3.18223 136.654 5.13571
6.72874 142.787 3.72902
-15.8911 92.6983 -8.4812
4.29713 138.544 4.76729
10.4842 147.053 -1.93914
-3.57812 116.916 -7.64949
0.778862 125.98 -6.38339
3.07343 130.438 -6.29413
-2.0591 120.53 -6.20872
-22.9519 79.8556 -6.69881
-15.9402 92.4841 -8.47572
-10.8795 101.942 -9.07384
-7.44758 118.774 10.8353
-27.4642 86.8995 24.1879
-3.70346 124.917 8.82925
0.491972 124.951 -6.92079
-8.36226 106.391 -9.62099
6.83696 136.988 -7.27766
-9.26982 104.815 -9.24964
-21.4437 82.3597 -6.9762
0.223678 131.04 6.70152
1.59527 127.214 -5.87894
-5.46764 121.567 9.76059
-16.5186 90.7744 -8.43599
-20.6605 97.5048 20.4568
-3.62308 115.841 -7.92618
-12.9928 109.139 14.3644
-13.7619 108.054 15.1532
-15.326 92.8107 -8.65537
-5.59163 121.111 9.87889
-14.7537 106.354 15.8286
-3.11434 125.091 8.54694
-5.22501 121.566 9.67974
4.21872 137.282 4.91012
-18.8036 86.2412 -7.72333
-6.41673 119.45 10.4077
2.80104 128.822 -6.01997
-21.8513 94.9579 20.9304
-10.4224 112.847 12.7593
-1.14839 121.909 -4.4853
-14.4193 106.562 15.6591
-5.42355 120.963 9.84756
2.53431 128.2 -6.02041
-10.335 101.659 -9.21695
11.2455 147.799 -0.605901
-6.85848 118.521 10.6727
-13.894 107.297 15.3606
-7.74077 106.378 -9.55906
-8.50011 115.676 11.5835
12.2538 150.433 1.17544
-17.5272 101.359 17.8369
-5.17307 121.102 9.74041
-2.2911 118.355 -6.42492
3.5215 135.633 5.37311
11.2184 146.973 -1.45437
7.83577 138.157 -5.86252
0.103837 122.701 -6.73859
-20.8069 96.5331 21.107
7.58407 142.883 4.55393
11.4731 149.615 3.09137
-3.48769 123.661 8.93576
-6.58503 108.385 -9.04459
11.333 149.242 3.16047
3.74969 129.25 -7.18418
8.19135 138.61 -5.60304
3.4652 128.726 -6.96934
-14.8728 105.051 16.0894
5.38894 132.655 -6.49796
0.17427 122.425 -6.57865
6.20768 133.872 -6.94633
2.05071 125.471 -7.64235
-9.24406 113.769 12.1755
12.3013 149.878 1.36606
4.10816 129.317 -7.69541
-14.8107 92.1269 -8.78497
-1.46081 126.496 7.8751
-12.1136 109.047 14.0576
-15.7672 103.308 16.8168
-25.1633 88.2476 22.9117
5.96614 133.187 -6.80532
-3.90503 113.338 -8.26618
8.87292 144.627 4.7501
10.9772 145.006 -2.41197
-7.89588 115.564 11.4326
5.3888 137.96 5.06344
-5.8323 118.864 10.2967
-17.6687 99.9925 18.3075
4.55558 129.568 -7.8186
7.25305 134.897 -7.36245
-15.2395 103.659 16.5582
11.7869 147.037 -0.691948
1.40473 123.23 -7.90478
-6.50413 117.443 10.7118
8.89664 139.056 -5.15083
-16.7857 100.961 17.8058
-16.8192 87.637 -8.0244
-20.2538 81.3948 -7.16108
-6.40336 107.06 -9.34932
-19.8119 96.5534 20.772
-14.9697 103.682 16.4633
11.9816 147.735 0.727194
-0.228373 127.41 7.58558
8.42651 143.041 5.48954
-21.9125 92.1018 20.7008
11.2327 144.827 -1.47622
-4.04432 120.906 9.57657
4.19586 134.908 5.80171
6.91036 139.975 5.483
0.918848 121.777 -7.37383
-7.39802 104.383 -9.70423
4.40391 135.187 5.84241
-17.0981 99.9098 18.251
1.44076 129.959 7.00637
11.0594 144.113 -1.6456
-10.2507 110.549 13.2938
-5.64413 117.912 10.4846
13.2051 149.883 1.79836
11.4777 145.177 -0.854625
3.52186 133.402 6.31756
9.86336 140.29 -4.13477
-12.3143 107.039 14.6808
1.1009 129.114 7.2007
9.55563 139.495 -4.34057
-25.1118 86.4466 23.0109
-21.4838 92.2604 20.6931
-13.5271 105.036 15.6312
7.89493 134.741 -7.18313
9.38855 144.104 5.47323
-18.874 97.1195 20.5542
7.94785 134.788 -7.1406
-14.7474 103.02 16.5525
-14.5967 90.2797 -8.83842
1.3201 129.281 7.1793
-12.4688 94.2384 -9.12315
11.596 145.196 -0.47478
-12.1738 106.948 14.637
-22.678 89.7908 20.8038
-2.71764 113.366 -8.34255
12.5004 147.913 1.63455
-13.6542 104.579 15.799
-22.4011 90.1325 20.6359
-22.8375 89.4099 20.9264
-9.71369 99.1578 -9.47594
-13.5105 92.0303 -9.02359
-4.14653 110.781 -7.69574
6.22304 138.108 6.55887
5.18799 136.336 7.03086
-20.6232 93.2983 20.511
-19.3755 95.1673 20.3753
-5.53759 116.955 10.7534
13.0724 148.283 1.75355
-23.1234 88.1584 21.3652
9.08051 137.374 -4.11462
-12.7129 92.6493 -9.06261
-13.303 91.468 -8.94028
-10.0648 97.4741 -9.40855
5.59252 136.455 7.60878
-4.67719 108.629 -7.90175
-19.2431 94.8625 20.2757
8.32637 141.286 6.83993
-8.60486 100.089 -9.52777
3.90795 132.686 6.85046
-19.926 93.4687 20.3616
-12.3254 92.9171 -9.02269
-1.1372 123.409 8.64965
-7.18486 102.291 -9.60654
2.67446 122.462 -7.25674
1.25184 119.948 -6.61804
0.445517 118.902 -5.55913
-6.53733 114.19 11.6565
-17.6264 97.1253 20.3036
-11.1488 106.688 14.6
12.1914 144.916 1.11918
1.66132 120.185 -7.31452
-1.86837 121.795 9.14231
-11.3494 106.33 14.7564
-2.75272 111.386 -7.64736
-14.6206 87.9172 -8.54146
7.71854 139.331 7.55125
-22.1966 88.2954 20.8763
8.17336 132.725 -6.75579
-18.8492 94.1949 20.1729
-18.188 95.4581 20.2851
3.97037 124.132 -7.26518
-14.6472 87.4491 -8.4697
-5.12279 106.012 -8.1437
-9.30259 97.3086 -9.25436
7.70393 139.019 7.97853
-17.1721 82.6263 -8.13845
-2.77586 110.756 -7.58313
-13.7949 101.91 16.781
8.32108 140.082 7.80491
-21.6835 88.5556 20.546
4.25286 124.132 -7.8702
-12.9246 90.4339 -8.75268
4.37286 132.348 7.84302
-2.03218 111.849 -7.87459
-21.946 88.0568 20.861
0.077741 124.413 8.7528
12.5632 144.788 1.41915
13.4626 147.8 3.92227
10.2438 138.922 -1.11225
-14.227 100.945 17.1992
-24.73 84.4998 24.7516
-23.7479 85.4633 23.119
-6.0192 103.306 -8.88123
7.45788 130.412 -6.81573
-18.7372 79.2744 -7.69274
0.307514 117.145 -5.65666
2.70029 120.731 -7.65152
4.0478 123.867 -6.51772
1.54816 118.817 -6.78025
5.3829 125.708 -7.73718
14.2263 147.618 1.62781
-11.3312 105.13 15.1752
-8.54449 97.9222 -9.23545
5.92918 135.362 9.17391
-12.7906 102.798 16.3313
-0.199932 123.356 8.94739
5.12602 133.944 9.54254
7.72514 138.23 8.51966
10.0265 136.886 -2.71166
-5.61259 103.62 -8.58494
-0.974985 112.856 -8.06325
-1.84783 120.267 9.71591
4.13449 131.327 8.92391
0.573066 116.624 -6.26388
-10.4008 94.0361 -8.8597
6.37949 129.933 -2.14507
10.3401 141.963 6.44855
5.41204 126.261 -5.28979
-14.4015 99.704 17.7589
-16.317 97.1296 20.0018
4.1122 123.214 -6.13636
-1.65787 120.182 9.75801
1.93352 118.07 -7.68526
7.11366 130.284 -3.40232
-3.07966 108.659 -7.08573
13.7719 147.135 4.41014
-14.9419 84.988 -8.38715
6.57747 129.912 -1.95558
7.12194 136.448 8.76208
-14.2222 99.7469 17.7282
11.4562 140.43 0.263926
-12.2177 102.79 16.2397
-12.1291 90.1837 -8.63648
3.29576 128.759 8.47354
-18.3184 78.568 -7.83493
6.27707 128.438 -3.36014
-18.4296 78.3345 -7.83211
-14.6408 98.8869 18.2457
3.112 120.059 -7.40863
13.2868 144.22 1.35573
9.92624 134.646 -4.60161
-16.6618 81.318 -8.17577
-6.17653 112.094 12.3408
1.48069 125.186 8.99285
-19.6687 90.0884 20.3864
3.67716 129.509 9.3881
12.2476 141.614 0.688312
7.85295 136.869 8.10482
-5.96803 101.329 -8.98139
-19.5233 90.1638 20.3648
-12.4309 89.0523 -8.53863
8.70179 138.258 7.7267
6.80091 127.674 -5.72336
6.12554 125.934 -6.48509
14.6859 146.355 1.23347
8.03099 131.624 -2.33058
6.96789 129.792 -1.85873
1.22974 116.232 -6.58852
5.67427 127.299 -1.70635
7.64352 136.315 8.56628
5.39024 132.586 9.80421
4.9997 124.363 -4.71648
3.32855 119.921 -7.06855
4.65152 126.482 0.767363
5.90546 126.074 -4.66956
2.77542 126.992 8.93792
14.3755 145.475 1.30222
8.70393 131.04 -5.17961
14.8912 146.413 1.55825
10.4529 136.654 -0.656793
-13.1685 100.283 17.5219
-11.157 90.7663 -8.58781
-2.46726 117.439 10.6378
-15.2315 97.3064 19.5279
-0.90097 120.056 9.91493
-11.2034 90.6337 -8.57817
-3.17995 116.13 10.9963
6.71032 127.329 -4.45004
6.19132 126.366 -4.31745
13.3331 145.296 5.7283
4.32322 121.921 -5.84408
6.90352 126.898 -5.68946
12.7509 144.129 6.02109
-22.7414 84.3139 23.2629
-10.333 91.9159 -8.54331
4.06169 129.515 10.4691
7.326 127.85 -5.05685
9.35753 132.863 -2.74297
5.71142 132.199 9.85261
9.56855 133.57 -1.97175
5.19372 123.907 -4.30172
4.59517 125.516 1.11861
12.408 143.232 6.23624
5.96443 132.399 9.43041
6.06994 132.481 9.2556
9.51663 133.151 -2.42252
4.90994 126.473 1.98123
3.61742 120.623 -4.47262
5.70712 127.065 0.311594
2.2199 125.203 9.83832
-11.4605 89.3465 -8.46054
4.6195 125.443 1.27871
5.72816 127.64 1.40594
-20.8804 86.2388 21.0347
12.9291 140.716 -0.214406
7.89859 128.778 -4.48338
8.42257 135.892 7.43334
-20.924 86.1329 21.0955
-3.14635 105.82 -7.46212
5.24776 127.119 2.46908
6.69741 127.113 -2.98509
5.89777 126.961 -0.254305
9.44858 131.522 -4.66114
10.6526 140.02 7.36428
5.17286 126.705 2.42181
-12.0268 87.934 -8.28262
4.28173 120.865 -5.45429
-9.93305 91.8184 -8.47302
2.32428 116.748 -5.96025
11.469 137.041 -0.84186
-10.5107 103.209 16.1521
-18.6013 89.4351 19.9861
0.271687 121.223 10.8137
6.60058 126.378 -2.96702
7.51481 127.218 -4.75047
0.810009 112.913 -7.34064
6.64374 125.821 -4.17343
-0.103475 111.131 -7.29829
3.67299 119.171 -5.81393
4.12257 120.017 -5.81586
7.21044 127.247 -3.27092
-13.0183 85.6939 -7.9952
-16.2863 93.7218 20.1916
9.56816 130.41 -5.742
12.0221 137.649 -0.847422
-0.186193 110.767 -7.13306
-1.33687 108.694 -6.68897
-7.41692 96.075 -8.33767
-5.25033 111.045 12.6864
6.69272 127.705 0.235902
14.053 141.674 -0.191602
4.88166 124.117 0.257253
15.5602 145.377 1.4697
7.34096 133.04 8.42111
-8.0335 94.7115 -8.314
2.57908 125.017 10.7478
6.64561 127.16 -0.3232
8.68652 128.204 -5.94653
0.384953 111.389 -7.27667
3.04592 125.764 10.7466
4.37477 128.483 11.0397
5.50493 126.451 2.88989
-3.9554 112.815 12.1995
-7.38346 95.6716 -8.21778
10.0711 130.732 -5.55468
-11.3632 87.8619 -8.17772
8.79285 134.699 7.14609
3.67553 119.204 -3.71953
-5.67635 109.721 13.1244
7.18424 127.893 0.0613987
-4.5631 100.903 -8.20258
9.88834 130.657 -4.65334
-12.298 86.0833 -7.81907
-0.862911 117.918 11.1435
-1.2631 108.064 -6.54257
7.48713 132.539 8.17601
7.59812 126.973 -3.02267
-1.35957 107.772 -6.6159
-0.971939 108.568 -6.48192
8.73576 127.472 -6.21847
3.04787 118.319 -2.55997
1.87155 123.119 11.308
4.94682 123.759 0.964582
-12.2535 85.9725 -7.8166
-1.7505 116.038 11.2825
14.4057 144.261 5.38393
2.71321 116.718 -4.09189
-11.5182 87.156 -8.00967
10.1532 131.467 -3.3421
2.89219 117.595 -2.90398
-6.47151 108.002 13.7905
12.4811 136.738 -1.59
12.7458 137.141 -1.56462
15.4248 145.232 4.10853
10.3053 131.43 -3.37569
5.0179 121.397 -2.89974
10.4114 131.283 -3.75789
8.0589 132.726 7.93244
5.6997 125.72 3.25365
5.433 125.041 2.97188
-0.716205 108.347 -6.37083
3.06741 117.72 -2.20632
7.85908 125.655 -4.72878
-12.4449 84.7393 -7.91647
15.4694 143.46 1.36738
8.49241 127.645 -2.95049
10.8441 131.386 -4.46565
-6.28389 96.429 -7.87291
11.6855 133.38 -3.50436
9.50425 127.433 -6.79264
11.5509 138.543 7.25212
-16.9629 89.858 19.8922
1.57571 121.717 12.1181
1.2465 111.23 -6.92373
-21.0623 83.1048 22.4414
7.86301 126.503 -2.01765
-9.41238 102.684 16.7019
8.08392 128.087 0.269232
12.8403 135.671 -2.85949
12.4691 140.028 7.17958
9.26999 129.529 -1.2029
-9.58885 89.5025 -8.09984
8.76431 127.881 -2.37733
11.3611 132.065 -3.93882
8.79651 128.744 -0.683274
15.0139 143.829 5.29252
-17.9635 87.3505 19.5427
8.03286 126.656 -1.74479
8.10363 127.677 -0.0113554
1.50796 121.225 12.2815
12.1038 139.128 7.29002
5.76441 124.807 3.35055
5.07842 120.399 -2.64893
13.0431 135.28 -3.47029
3.01002 115.546 -4.10115
-6.72234 94.8351 -7.76665
-4.92353 109.119 13.3416
0.772637 119.526 12.1624
7.18067 125.604 -0.151249
6.78779 123.528 -2.71038
3.04025 115.357 -4.48816
-0.221821 108.086 -6.30752
-12.3696 97.63 19.1732
3.22498 115.391 -4.94998
-12.6867 97.1116 19.4357
-8.11121 91.883 -8.00321
10.2442 134.911 6.75425
-8.11876 91.7841 -7.98362
-6.65671 94.7302 -7.70812
-17.9946 86.8231 19.6833
13.5016 136.254 -2.62831
7.52147 125.546 -0.905133
16.1293 143.372 1.438
4.05106 125.553 12.2552
16.0255 144.515 4.10347
1.8272 121.386 12.5752
9.85241 133.744 6.41611
6.92556 122.769 -3.91818
6.51508 124.22 0.592486
-2.6521 102.41 -7.32977
6.44003 122.596 -2.22261
15.6069 143.941 4.84999
-1.75739 104.042 -7.13438
16.2235 143.173 1.42771
6.887 122.5 -3.61175
15.7738 141.911 0.771984
12.3031 132.123 -5.17247
2.10954 121.561 12.6784
3.71245 117.626 -1.00742
10.0763 133.603 6.26737
7.7497 123.482 -4.65899
-11.8565 83.9131 -7.74604
6.38541 124.939 3.53266
14.198 136.892 -2.57718
7.0378 124.292 0.0216007
7.23455 123.482 -2.23113
3.50791 114.868 -4.96107
7.51398 129.293 8.16881
6.13497 123.805 2.68688
14.7044 142.241 6.31434
-15.0193 77.4179 -7.95056
7.09889 122.326 -3.7985
-8.28104 103.095 16.853
14.4829 137.429 -2.0218
-8.31763 90.3767 -7.73257
8.98026 124.078 -7.25393
5.69421 120.441 -1.93259
11.5786 136.388 7.06073
8.26676 123.011 -6.51926
3.57807 115.982 -2.48335
9.31487 131.662 6.52617
7.08958 123.993 -0.02526
9.13163 131.469 6.8786
-14.9559 91.4065 19.6757
-10.3773 86.2438 -7.64286
-14.8726 77.4164 -7.88376
10.5487 127.369 -6.27016
-8.46759 89.8349 -7.70343
5.97301 120.864 -1.60797
-15.7789 89.6115 19.5069
14.5747 137.275 -1.96902
12.7501 138.379 7.08408
-16.8465 87.3218 19.2013
-1.02031 114.458 12.4897
8.95325 130.704 6.6245
3.96475 117.257 -0.744964
14.2603 136.113 -2.80164
13.2666 139.199 7.02718
8.719 130.193 6.8019
5.04138 125.252 11.1087
-12.6589 81.5822 -7.20487
-19.4724 83.1284 21.5471
0.889296 118.062 12.9624
4.70834 124.916 12.0082
13.0772 132.536 -4.64743
-15.5315 89.5257 19.4117
16.7417 143.92 3.88411
15.3961 139.1 -0.36304
3.07298 112.488 -5.72513
0.236068 106.625 -6.41996
9.33335 130.271 5.38534
0.105152 106.281 -6.51474
-2.99127 100.211 -6.66843
16.9711 144.055 3.57635
11.5209 135.159 6.80237
3.31434 115.511 -0.522422
8.22132 122.817 -4.78179
16.2326 143.236 4.84814
15.9992 140.235 -0.0227417
7.11326 127.418 8.50204
2.77818 111.468 -6.15569
7.72388 121.834 -4.56051
-4.77697 96.2875 -7.21928
16.906 142.458 1.13799
7.77204 121.833 -4.49737
8.26823 122.224 -5.52663
15.2701 138.181 -0.803191
-18.4272 83.9916 20.8182
7.09841 123.155 0.966606
-1.93327 111.977 13.3547
7.52683 125.309 3.77807
0.271872 106.02 -6.3991
-1.64884 112.403 13.2836
-17.8511 84.6891 20.421
-9.10171 87.2936 -7.40103
-11.8807 95.7067 19.5056
7.88412 120.925 -5.83903
-0.522695 104.234 -6.66112
-18.6198 83.4247 21.0217
-7.7658 89.8271 -7.37132
-1.41555 112.676 13.2792
17.173 142.462 1.28763
11.0791 127.22 -5.44411
7.4993 125.122 3.97411
17.3097 143.46 2.7898
-1.49999 102.203 -6.52175
8.22356 128.3 7.72921
7.63168 122.661 -1.00888
8.72404 121.403 -7.56374
-7.03576 103.48 16.9552
8.55484 128.61 7.23843
-18.6597 83.0489 21.0772
7.64024 122.615 -0.955473
2.60618 120.136 13.2414
8.24976 128.147 7.73419
4.95127 123.972 12.0585
7.35726 122.932 1.00295
6.32051 125.056 9.16295
6.85322 121.074 -0.481015
15.0796 136.234 -1.75353
-2.91893 99.0908 -6.26318
16.8661 140.738 0.46714
8.26941 127.847 7.7835
-0.509997 113.654 13.2874
2.80489 120.053 13.3255
-12.8082 92.7984 19.0989
15.719 141.299 6.14977
-10.2192 97.6803 18.9573
10.1233 130.432 6.12087
-11.3738 82.0834 -7.02146
-15.6747 86.9594 18.7109
11.9834 134.008 6.31293
-3.41956 108.202 14.1244
7.21524 121.389 -0.222302
7.23615 120.895 -1.26124
-10.7472 96.5589 19.2592
10.3693 123.532 -7.56445
-10.4803 96.871 19.1548
-13.4995 77.551 -7.09795
0.132223 114.434 13.528
11.3582 126.332 -5.56801
-12.1634 93.4205 18.9701
9.49843 128.005 4.72484
1.82598 107.779 -5.68984
-10.6964 82.8125 -7.10883
3.29344 120.375 13.3786
-16.3964 85.3578 19.433
-14.448 88.6246 18.6221
7.28001 120.802 -0.490205
-4.49726 106.225 15.5677
-4.75076 94.2684 -6.75063
7.35673 122.399 2.45187
9.14562 120.372 -8.2356
8.00741 120.496 -3.61519
11.4566 126.159 -5.58115
9.27084 126.635 3.60754
16.7471 139.436 0.438759
-0.131624 103.288 -6.26463
4.75725 115.99 0.097992
9.25222 127.124 4.89778
-8.73238 86.1403 -6.96955
8.78928 125.587 3.87765
12.2031 133.25 6.05817
-16.6875 84.2004 19.5867
2.95359 119.116 13.6444
-11.6232 93.4322 18.6449
2.20105 107.726 -5.60204
-3.7503 106.885 15.2875
10.4917 129.678 6.09346
-6.43403 90.2831 -6.80628
-8.63177 98.9521 18.511
-1.68046 110.299 14.5961
3.44104 119.521 13.5147
-4.52877 93.7992 -6.47227
13.0922 134.391 6.25371
7.78641 124.767 7.54441
-2.34445 108.696 14.4917
3.46752 110.117 -4.60912
7.6859 122.069 2.79005
8.02152 123.295 3.93665
9.20265 125.643 4.11928
14.3904 132.049 -2.83727
6.79138 123.742 9.63353
-11.3048 93.1661 18.4149
15.836 139.495 6.58033
-5.45325 91.5335 -6.53442
5.77062 116.645 0.136869
5.03711 115.732 1.14063
-11.3141 80.1504 -6.54746
7.9785 118.731 -4.05134
-3.05519 96.4341 -5.8667
-15.6138 84.8512 18.9444
17.5356 141.291 3.99214
8.07446 118.238 -5.23411
9.79947 126.262 4.03368
-3.23079 95.9222 -5.93262
7.56903 120.103 0.538946
-11.3241 79.9332 -6.51928
13.4182 129.605 -2.96591
4.6885 112.473 -3.43858
-12.6088 90.0574 18.0983
6.39442 117.568 0.103453
9.5421 125.781 4.28489
4.39587 113.35 -0.483991
9.64792 125.88 4.20171
8.9619 123.995 3.23796
2.77743 117.359 13.8113
-17.1405 81.9797 20.0766
2.80905 117.328 13.8224
0.33001 102.397 -5.75628
5.77231 122.057 12.0786
3.76644 110.123 -3.48463
-10.7116 80.5991 -6.43179
-13.8445 87.1407 18.1415
11.5628 130.282 6.49579
17.501 140.588 4.23107
5.73928 116.064 0.796127
-0.684721 110.811 14.8555
8.03884 120.619 1.10383
5.89412 116.243 0.663395
1.81738 115.268 14.2604
4.43236 119.748 13.1649
8.40821 117.468 -6.17668
8.79311 123.659 4.44949
1.25502 114.215 14.5481
3.68875 109.654 -3.36496
-8.07136 85.2971 -6.45914
6.27648 122.274 11.5244
8.2739 119.157 -2.07822
8.18689 117.925 -4.01205
-0.993008 109.849 15.0321
8.1993 117.902 -3.88294
-2.3636 107.244 15.2156
10.2486 126.25 4.76224
2.50747 106.319 -4.79347
13.4739 132.988 5.89796
7.79602 120.079 2.16006
0.457402 112.3 14.8225
1.88184 114.766 14.4241
16.6402 135.382 -0.984431
5.34481 115.261 2.43699
11.5536 122.356 -7.14185
11.7734 122.893 -6.82089
-9.55086 94.244 17.8731
-9.21984 94.8163 17.9038
9.94985 125.283 5.06552
4.16579 110.042 -2.7534
-8.92647 95.2828 17.8752
8.40876 123.342 7.41462
-13.0451 87.0991 18.003
2.83306 115.81 14.1693
0.56118 101.404 -5.33477
9.60446 123.37 3.48739
-4.99055 90.2371 -6.04551
-7.88789 96.929 17.966
16.9523 135.576 -0.325375
-10.7958 78.8656 -6.20827
11.1578 120.563 -7.67061
3.35506 108.046 -2.61016
-10.3382 79.7101 -6.15392
-0.720786 98.9821 -4.71411
12.586 130.309 6.18963
-9.4683 93.5388 17.6806
17.02 135.523 -0.159292
9.53053 122.618 2.97291
9.0418 121.369 2.39657
6.82796 120.708 9.56304
7.41118 121.723 9.42599
12.1921 123.806 -4.5214
13.1997 131.269 6.22509
6.78046 120.347 9.22954
12.1679 123.682 -4.57109
-0.945331 98.1787 -4.81322
8.42532 118.6 -0.329826
7.44373 119.75 5.75484
7.09865 116.986 1.69102
17.4533 136.356 0.525086
9.61031 122.99 4.07812
-2.88652 105.011 16.2008
-9.2616 81.2991 -5.9762
12.1633 123.506 -4.46705
17.0381 138.134 5.69978
9.41247 121.867 2.79343
6.85445 118.951 6.78062
7.34113 120.803 8.59017
3.11556 106.884 -2.56008
5.85326 119.794 12.3237
6.69097 118.211 6.10856
11.8906 121.528 -6.99397
6.63868 117.873 5.68915
1.45617 112.637 15.0262
-0.815381 98.083 -4.7456
-9.93802 79.7789 -5.98055
10.3795 125.293 6.22642
-4.27657 90.7182 -5.82756
7.37115 120.403 8.17833
9.46057 122.475 4.35512
9.34874 121.691 3.30281
9.05073 121.138 3.39424
-6.6597 98.0031 17.5558
0.662626 100.636 -4.90702
-8.04715 83.2487 -5.95289
-5.9264 99.1552 17.0893
9.41035 122.596 4.97779
6.58607 118.092 6.96334
5.66896 114.59 3.60483
3.06456 106.532 -2.26814
-11.8751 87.9378 17.8254
-6.91942 97.4957 17.8318
14.157 132.262 6.25865
12.8475 124.954 -2.94042
-10.8075 89.7888 17.758
-8.2577 94.5103 17.5075
8.80079 118.04 -0.864999
3.02137 106.08 -2.33958
1.97364 112.787 14.794
7.00976 116.954 3.93073
-4.40168 101.48 16.87
-9.38111 80.2154 -5.80185
-9.44209 92.0531 17.5651
-8.28029 82.3076 -5.80805
15.0443 129.867 -1.04077
8.17582 119.412 4.69878
6.82914 116.402 3.9117
-1.48116 106.376 15.7927
9.08528 118.02 -1.32253
17.5866 135.612 0.974139
4.6165 116.741 13.1823
2.91865 105.314 -2.66297
6.84204 119.107 9.62192
12.5736 123.591 -3.24488
12.4069 121.953 -5.75661
17.0237 133.995 0.363132
3.23954 106.537 -1.14832
18.1507 136.882 1.7938
8.73317 119.885 4.18565
10.8892 125.12 6.39177
5.44664 112.933 3.18216
2.60184 113.074 14.4407
17.8687 135.742 1.64105
9.06662 119.204 2.65932
13.659 129.977 6.35234
-12.6839 85.0572 18.1723
6.98911 118.697 9.78863
5.89595 111.501 0.00415361
1.17202 100.74 -3.13422
3.3986 106.528 -0.220991
15.6269 130.336 0.206913
4.27324 107.988 -0.4952
-12.4366 85.1791 18.1135
18.072 136.007 2.22062
-8.93556 79.7949 -5.44544
-4.86695 99.1308 16.9356
5.95254 111.486 0.290696
17.1163 135.818 5.90547
16.7483 135.124 6.18202
3.35258 105.883 -0.134295
13.9578 129.673 6.37474
6.3164 117.645 11.7968
7.25168 116.64 6.38738
9.83188 117.899 -0.882881
4.50528 108.032 0.0874417
17.6098 134.68 2.64663
10.1638 121.268 4.59325
10.5419 122.037 4.79341
15.1114 127.873 -0.898511
-6.15653 96.0635 17.3284
3.23128 105.322 0.0960497
7.05802 115.263 5.17231
-0.717387 95.4807 -3.92584
-6.39166 95.2616 17.2169
-5.5878 85.2568 -5.31133
3.41928 105.822 0.815959
4.83919 114.503 12.4001
-4.24264 87.8751 -5.16406
5.66079 109.651 -0.0463309
-7.28701 93.4131 17.1804
16.1181 133.021 6.40372
9.39962 118.011 2.5197
12.9093 127.092 7.01861
-14.4234 79.9878 18.3033
2.53957 103.263 -0.263606
-8.61612 79.3063 -4.84364
12.3673 120.314 -3.9937
10.9692 122.259 5.1029
-0.353634 106.05 16.2119
16.0082 129.72 0.85487
-1.30504 104.063 16.1365
-9.11829 78.3094 -4.53744
2.88845 104.027 0.330562
6.29159 110.485 0.14048
-5.56899 84.8787 -5.03424
1.65318 100.433 -1.93158
12.2498 118.533 -6.59469
15.2936 131.173 6.57794
7.04833 114.878 5.92517
7.50572 116.699 7.88035
12.2132 125.198 6.71512
17.1944 134.238 5.55629
2.69086 103.371 0.201362
6.90992 116.864 10.7099
0.496683 107.014 15.7263
4.39171 113.096 12.9103
-8.75106 78.7082 -4.52708
7.5612 116.619 7.95689
4.83674 107.98 1.39971
6.52647 113.73 6.41817
-7.69535 80.474 -4.77178
-11.5523 84.7049 18.0454
-2.78496 100.656 16.4113
-3.32733 88.699 -4.82391
3.37979 104.709 1.09864
-6.71331 82.038 -4.92921
17.3945 133.917 5.32993
14.7995 125.552 -1.12955
-0.44065 104.916 16.1122
-5.43976 95.5937 17.0752
4.66914 112.797 12.4973
11.594 122.473 5.41371
0.392953 106.044 15.6529
0.571331 96.8057 -3.00703
18.5202 135.377 4.60778
-0.204894 95.3167 -2.85878
-0.396884 104.615 16.0261
-12.4372 82.3921 18.1523
13.9648 122.788 -2.63238
15.6829 127.231 -0.294852
11.7575 122.631 5.54212
-7.66502 91.0059 17.2152
12.7371 118.677 -5.76761
7.31753 116.199 9.8856
18.2961 134.197 3.5737
-0.485212 94.4603 -2.99043
16.1402 128.419 0.548639
17.2062 133.012 5.51689
6.64794 111.365 3.22906
10.4885 116.514 -1.18369
4.51874 111.933 12.5339
16.3954 131.609 6.15237
7.73182 115.741 8.04322
16.594 129.118 0.951352
4.00739 105.206 1.87748
15.7299 126.64 -0.522903
5.03802 112.112 11.9446
-1.54539 91.4141 -3.35833
6.47101 114.284 11.051
7.54748 115.167 8.74489
16.9569 131.796 5.70953
10.5675 118.139 3.20802
7.59414 115.05 8.60433
-8.07954 78.3459 -3.77183
0.147779 104.286 15.7973
6.00258 108.895 2.87311
6.5664 109.894 2.78808
4.50036 106.251 3.47687
17.6102 130.695 1.69399
-5.48876 83.1076 -3.88953
-2.64763 98.8578 16.1145
5.38146 107.685 3.31112
-3.71012 86.3774 -3.93191
-3.10658 97.5444 15.7349
11.7728 121.109 5.76412
3.59746 109.08 13.1602
16.7773 130.656 5.56442
12.0222 121.493 5.70562
-2.59161 98.4531 15.8963
6.87282 110.622 3.97244
3.5014 102.893 1.62338
12.6064 122.644 6.023
13.3863 119.664 -2.64874
-2.2536 88.7483 -3.79954
18.0146 132.403 4.93702
6.92751 113.847 10.5958
-5.05345 93.8077 16.8162
13.1158 123.723 6.6293
17.3336 128.876 0.917041
-9.55209 85.3439 17.4829
16.8322 129.848 4.88872
16.8259 127.448 0.250648
