ply
format ascii 1.0
comment Created by Open3D
element vertex 1945
property double x
property double y
property double z
end_header
4.80494 133.726 8.67337
-18.3946 107.381 0.021515
3.77355 132.102 9.27843
0.99282 127.342 12.3128
-6.98278 116.078 14.8399
-15.1578 106.3 12.6988
14.1943 149.956 -2.85338
11.8836 148.072 -5.62525
2.94704 136.009 -4.2114
-14.3915 116.131 -10.2515
-18.1305 110.05 -7.28312
-18.195 107.023 0.229597
4.02274 137.336 -4.56205
2.76581 129.728 10.7562
-6.0518 125.374 -7.07464
2.54784 129.287 10.9267
16.0961 150.724 0.414653
13.8554 149.519 -4.09723
-14.1368 116.143 -10.4396
-9.07253 121.75 -8.21835
-7.67488 123.362 -7.8367
-1.60871 130.542 -6.35646
6.37609 140.202 -5.00938
11.3944 143.759 2.25299
-8.55296 112.979 15.5925
-18.7363 106.039 -0.121983
9.86202 145.322 -6.96526
-13.9554 106.886 13.2477
-4.64969 126.479 -6.41635
-2.73032 120.98 13.8455
12.146 147.733 -5.93264
1.27214 132.991 -3.85884
-11.2236 119.099 -9.29971
-15.5615 105.28 11.6196
-19.5037 103.268 3.61286
-19.7482 104.909 -1.43537
15.0418 149.582 -1.80796
3.22608 129.742 10.1933
-19.2512 106.47 -3.9815
-19.5725 103.103 3.46251
-20.0905 104.257 -1.3156
4.51641 131.853 8.50064
-14.0851 115.411 -10.4689
-15.7351 113.005 -9.77401
-20.2033 104.166 -1.87424
7.04073 136.661 4.20933
-18.0515 108.815 -6.7568
5.51686 138.044 -4.48563
-0.526111 130.788 -5.73341
-0.00171669 131.312 -5.37808
-16.4097 104.318 9.91838
11.1209 142.502 2.37795
-2.78803 128.296 -7.10664
9.88411 140.552 2.93749
12.0809 147.083 -6.61633
-5.00962 116.837 14.721
-19.5683 102.694 3.18199
7.7472 141.349 -6.25775
10.0313 140.694 2.86932
-19.2304 102.806 3.82557
12.0224 143.421 2.25026
-19.5195 102.638 3.22408
14.0915 148.591 -4.23163
0.468013 124.436 12.8799
1.97125 126.996 11.2454
-3.10477 127.704 -7.27493
3.04849 128.703 10.2695
4.00697 135.665 -4.56078
-12.047 117.315 -10.3063
-16.4721 111.24 -9.27921
-13.4002 115.711 -10.6689
1.79772 126.533 11.4053
8.12228 137.728 3.27639
-18.7211 102.819 4.61427
-14.4652 104.94 13.0694
6.37661 138.734 -5.15752
-18.8936 106.028 -4.48873
6.42289 138.727 -5.24842
-16.7053 103.35 9.47175
-17.011 110.126 -8.89539
6.51291 134.693 5.28114
-20.1708 102.207 0.970827
-18.3851 107.328 -6.38351
13.7437 144.246 4.31233
0.0428197 130.482 -5.47063
-19.8601 102.79 0.0916211
-2.92627 118.815 14.5471
16.1843 149.489 -1.31485
15.1791 145.943 4.40421
15.5097 148.875 -2.13258
-19.7137 101.852 2.56402
8.06816 141.04 -6.69328
15.0156 145.554 4.46318
-10.6587 118.054 -9.30643
-11.2717 117.46 -9.84969
13.4189 143.47 4.44539
-20.5782 102.818 -3.0345
8.65857 141.804 -7.0358
-17.0178 109.663 -8.98662
6.13022 133.004 7.0203
-16.911 102.815 8.71791
10.5446 144.24 -7.32077
-8.09973 111.328 15.7324
-9.98404 109.136 15.1382
7.62338 136.131 3.75542
-15.061 103.796 12.1558
-16.1994 102.921 10.6082
-10.9311 107.992 14.7772
2.65922 132.9 -4.45885
-12.1573 116.234 -10.6103
-5.96119 114.016 15.147
9.36616 142.522 -7.69611
-19.195 104.732 -4.74487
10.2899 143.619 -7.65824
-2.66128 126.941 -7.46676
-1.52904 119.938 14.0964
12.9241 142.521 3.6687
-19.8858 101.204 1.79528
7.91705 140.204 -6.91441
-16.1547 102.474 10.7258
14.3506 143.956 4.48359
-19.7113 101.147 2.38353
-17.1809 108.718 -8.80607
6.52911 133.438 5.534
1.51662 130.965 -4.61596
13.2004 142.446 4.15938
8.46785 136.71 3.26658
-16.3041 102.128 10.471
3.62801 133.502 -4.5901
-13.4556 104.45 13.6333
6.86791 138.152 -6.02575
6.896 133.719 5.22988
-12.0739 115.533 -10.5351
9.77315 142.486 -8.04947
-4.52603 123.859 -7.24996
10.1189 142.877 -7.98819
-16.3466 101.819 10.3371
17.7911 148.563 2.26894
3.41288 132.847 -4.62539
-20.3235 101.108 -1.21321
2.34266 131.291 -4.52767
-17.9007 106.646 -7.86176
1.16783 122.972 12.7431
-0.197162 120.895 13.5112
-8.31248 109.795 15.2854
12.5197 141.152 3.23733
-18.3457 101.172 4.11775
7.85977 134.433 4.74637
14.4901 142.575 5.29426
-17.3437 101.44 6.23133
-0.196468 120.484 13.6399
-17.6316 101.362 5.19168
17.6476 146.952 3.85925
8.22142 134.567 4.57032
5.37668 129.529 8.01791
1.22232 122.329 12.777
-1.16437 118.57 14.4568
-11.389 115.251 -10.5825
-13.2591 112.794 -10.4357
9.25235 136.351 2.90265
17.8119 147.005 3.64847
1.45692 122.561 12.4468
-11.1708 115.389 -10.6149
-9.34606 117.09 -9.04324
-6.18723 111.274 16.0309
11.0383 138.552 2.66
-9.78576 107.124 14.8412
4.38214 132.832 -4.58491
0.813288 121.202 13.3797
16.7004 144.96 4.63666
11.6265 139.158 2.71028
17.6199 146.292 4.06582
-8.68616 108.26 15.1439
-18.4056 104.803 -7.94237
-4.27498 113.876 15.0899
13.8023 140.905 5.12823
13.1663 140.449 3.98261
-7.17284 119.158 -8.40584
0.403856 127.827 -5.77516
4.4385 127.258 8.77351
-6.65913 110.357 15.6119
-17.3762 105.911 -8.43122
-16.475 107.129 -8.93116
-20.6436 98.5083 -0.728594
-8.03232 117.757 -8.80946
-4.25725 113.172 15.2699
-5.81454 120.402 -8.34049
-17.118 105.989 -8.68549
-8.64206 107.538 14.9668
-20.7155 98.9174 -2.56673
-9.96434 115.565 -9.99721
-4.09442 113.125 15.311
-7.31387 108.969 15.2428
-16.5901 106.56 -9.00887
-8.59207 107.419 14.9336
7.46072 131.613 5.46276
-10.6095 114.667 -10.6163
-14.5434 100.826 11.881
14.6952 140.235 6.69289
8.77476 138.057 -7.12861
-18.9911 98.8268 2.12237
-19.7704 100.848 -5.63443
-7.11305 118.205 -8.65527
-7.21058 108.675 15.2324
3.55216 124.598 9.71971
14.4249 139.649 6.71237
-12.3456 112.123 -10.6837
12.9963 138.91 3.73623
-18.9337 102.08 -6.66747
-13.4781 110.585 -10.6297
-4.49881 111.715 15.8659
11.7329 141.901 -8.19001
-8.94119 106.475 14.6621
13.4583 138.84 5.11176
-9.49484 115.265 -9.84968
15.5064 145.222 -4.66691
-20.5072 97.6565 -0.954411
7.05491 130.266 5.87941
-4.9653 110.824 16.2193
4.27849 125.435 9.08855
8.44148 132.652 4.21454
-11.3154 113.194 -10.7678
-18.3326 97.7656 5.5983
2.08662 121.474 11.8279
9.08246 137.835 -7.25787
-18.3293 98.2949 4.0641
-1.70594 115.238 15.1352
1.3396 127.218 -5.56587
18.1716 144.858 4.41008
-20.5804 98.3865 -3.78804
-1.77735 115.015 15.2288
5.53159 127.221 7.94426
-0.464823 125.344 -7.0755
13.0791 138.147 4.49283
-8.93291 106.012 14.5304
-20.7382 97.7713 -3.07135
2.0086 120.999 12
-5.16333 110.149 15.9401
-16.6899 98.224 8.66943
19.1882 146.121 3.49573
18.1395 144.184 4.65484
13.4748 137.72 5.76758
7.33289 130.087 5.15904
-18.6252 97.3361 3.89523
-18.2511 102.239 -7.56734
-17.1671 104.434 -9.67207
-8.35684 115.587 -9.35219
-1.24416 124.052 -7.71825
-3.26064 121.81 -8.61811
-18.543 96.8148 5.10663
4.23782 129.766 -4.59605
13.1041 137.34 4.89664
10.0013 138.608 -8.56337
-14.3894 108.347 -11.0816
-4.1618 110.712 16.2869
-12.9707 109.89 -10.8136
-9.64418 113.984 -10.3985
-4.14685 110.558 16.3491
19.6184 146.088 3.30972
-17.7936 96.6818 7.09599
-18.8575 97.2841 1.92694
7.19781 129.317 5.32473
3.36139 122.535 10.1017
17.0373 145.447 -3.75427
3.22813 128.127 -4.77506
-14.5803 99.0656 11.1672
-20.0372 98.3336 -4.96575
-4.52031 119.618 -8.60161
-6.50912 117.225 -8.99644
-14.251 99.2501 11.5777
14.8686 138.465 6.60174
-18.9852 96.8792 2.02375
-12.1954 100.927 13.7702
-19.0601 96.6454 2.07057
2.52598 120.361 11.7161
-19 100.063 -6.86536
13.2771 136.381 5.90727
-0.861093 114.735 14.7366
12.7367 136.273 4.1276
12.6601 136.228 3.87487
-13.754 99.1884 12.0666
-19.164 96.6833 0.739939
-18.8124 95.793 3.88035
5.86556 130.903 -5.09703
6.66825 132.077 -5.52404
-11.2029 101.619 13.8088
-0.730406 123.544 -7.96493
-1.64847 113.146 15.5831
-9.69634 103.408 14.1077
-17.9456 96.0066 5.84511
0.214131 116.049 13.9916
2.44547 119.629 12.119
20.0159 145.442 3.6054
7.88177 133.617 -5.96165
-16.6006 103.777 -9.82339
14.8943 142.84 -6.76647
9.07357 135.438 -6.90001
-19.758 98.0011 -5.67302
-1.71435 112.695 15.6741
-4.12644 109.3 16.275
-0.750789 114.041 15.0112
-4.04747 109.301 16.271
20.3542 145.576 3.37549
11.0679 133.705 3.2432
-6.00981 116.685 -9.20992
1.01221 116.907 13.1525
17.1867 144.263 -3.88551
4.71159 123.387 8.60944
9.77055 131.78 3.63829
12.7592 135.366 4.22036
-17.5472 95.6751 6.45796
20.6673 145.991 2.82654
-19.1693 98.6261 -6.70539
19.927 144.3 4.34271
2.77661 119.319 11.912
7.58481 132.35 -5.86482
4.86076 128.395 -4.71605
-11.2794 110.252 -11.1686
17.3865 140.417 5.48319
-16.6874 102.771 -9.8302
-12.6108 108.514 -11.2253
-1.98245 121.393 -9.45447
-5.57794 116.684 -9.26218
-20.6934 95.294 -4.1335
-11.6488 99.7941 13.9047
2.39533 118.404 12.2637
-6.51439 115.492 -9.59918
21.0983 147.03 0.129514
7.56996 132.071 -5.91895
-16.3108 103.047 -9.93502
15.1502 136.68 7.02071
0.0292664 123.226 -8.17132
0.306086 114.881 13.9492
3.12188 126.047 -5.44049
-12.8024 98.5874 12.6139
-19.3952 95.1559 -0.21888
12.5145 139.28 -8.62234
13.5702 134.122 7.6152
-4.52378 107.596 15.9009
-19.47 94.5468 0.0953174
-8.73691 102.774 14.1696
15.7668 141.958 -5.86534
-15.8059 95.9169 8.44153
-9.26728 101.842 14.4804
-17.4938 94.7458 5.68708
10.5823 131.495 3.6432
-14.7356 96.7673 9.34751
-18.3027 94.2271 4.15368
6.00022 124.145 7.17214
0.866333 123.46 -7.89088
13.4537 133.787 6.78339
2.95185 118.315 11.8812
-18.2505 94.14 4.19724
-18.1386 99.078 -8.09667
12.0603 132.97 4.03541
-18.4869 93.9949 3.56656
11.479 137.491 -9.85127
13.405 139.281 -8.1247
-18.3155 98.5545 -7.94525
14.6289 134.613 7.50409
-13.2831 97.3283 11.2537
-20.4762 94.3715 -4.74129
-12.5505 97.7746 12.4707
-20.4755 93.5331 -2.69595
8.11577 127 5.30625
-2.88164 108.673 16.1566
7.70532 130.888 -6.17395
0.628133 122.698 -8.41644
-11.6103 98.4873 13.3807
-15.3603 102.948 -10.3311
-3.90787 117.383 -9.75757
3.91238 119.491 10.3514
-17.1891 94.1617 5.93299
11.7206 131.961 3.8616
13.153 133.437 4.63791
1.67681 115.289 13.3538
-14.7257 103.501 -10.3872
-18.1646 93.3443 4.02411
-0.301685 111.701 15.5209
19.0091 140.552 4.95388
-8.31532 101.566 15.0233
6.55915 123.801 6.75311
6.42952 123.557 6.92199
12.4013 132.172 4.25748
19.1786 144.227 -4.51476
3.62092 124.74 -5.69695
-14.1072 103.782 -10.5466
3.01074 116.853 12.0573
9.13005 132.265 -7.37353
-21.0389 92.1901 -3.69663
-10.563 108.622 -11.4249
0.47442 121.602 -8.97185
-20.0691 92.4516 -1.7082
-2.39795 108.114 15.9415
-20.3235 91.4925 -0.578563
-16.9018 93.2797 6.02135
9.99237 128.302 4.37618
-16.6219 93.3079 6.64939
9.08863 131.69 -7.34889
-5.48091 104.336 14.8239
20.8577 144.912 -2.71569
0.376047 111.53 15.3264
-20.0136 91.3041 0.272153
-18.7702 96.0119 -7.7006
16.148 135.049 6.74934
4.84928 119.662 9.03648
15.3246 139.571 -7.59713
15.6869 139.794 -7.08997
10.3578 133.399 -8.31595
13.3477 131.938 5.18152
4.76395 125.047 -5.29961
-0.805987 119.909 -10.4269
-2.9747 117.216 -10.6692
8.53226 130.392 -6.75394
-18.6602 95.9332 -7.84402
14.3363 131.912 8.18277
16.9753 140.389 -5.08455
6.55167 122.243 7.155
1.72455 113.43 13.8739
20.0907 140.656 4.32964
-7.84246 100.417 15.6926
13.2928 131.539 5.22119
11.6783 129.824 4.27194
2.6449 114.929 12.6945
0.661313 120.897 -9.16201
-21.002 90.8291 -3.37323
-10.7469 107.196 -11.7463
1.15043 112.057 14.625
4.38976 124.143 -5.67163
-16.5297 92.4872 6.71582
-5.02727 113.955 -10.5917
-16.8464 98.2379 -9.16416
-19.6889 93.3453 -6.00923
-19.4975 93.7401 -6.39663
19.8918 143.558 -4.9199
2.17984 113.756 13.232
20.3303 140.377 4.10429
-0.946913 108.482 15.8982
3.6558 116.042 11.6016
-10.4694 107.104 -11.8173
19.0855 138.471 4.7323
2.252 121.608 -7.40504
-13.4321 94.844 9.63509
13.9587 131.111 6.55251
-16.1499 92.098 7.72143
19.8604 139.532 4.23298
13.9732 131.015 6.63884
-19.1366 93.9027 -6.93168
-20.6642 90.7656 -4.19996
-3.45512 115.493 -11.1217
-19.9416 92.0847 -5.28814
19.7638 139.184 4.25842
13.8629 137.097 -9.8408
9.54996 130.837 -8.21886
1.31743 120.526 -8.95525
-15.5885 92.05 8.4558
8.95254 129.524 -7.22319
16.4641 139.012 -6.90618
12.8882 135.757 -10.3074
17.4522 139.634 -5.4029
13.1897 130.039 5.16359
-14.8702 92.6005 8.74165
17.5643 135.863 4.31169
-20.7044 89.3397 -2.04814
-19.6657 92.0551 -5.59506
6.35355 120.238 7.47689
-17.6993 90.0848 5.80357
-9.66137 97.1724 13.6635
-20.6176 88.9031 -1.25503
5.25108 123.705 -5.60325
16.993 138.752 -5.66645
-20.6398 88.799 -1.2213
-16.8108 90.3295 7.33767
-20.9351 88.8507 -2.38706
16.2814 138.339 -7.10623
-6.29243 111.066 -11.338
3.31127 114.233 11.8898
14.782 137.197 -9.3709
21.308 140.414 3.61982
-1.35236 117.149 -11.1624
8.15027 127.547 -6.65997
9.59119 129.882 -7.98715
-16.6758 96.9459 -9.77944
-20.2705 88.6321 -0.297561
4.47476 122.612 -6.18108
-6.87012 99.2972 16.2573
-18.9907 92.7666 -6.82295
-7.89267 98.191 15.6329
9.77078 130.195 -8.38858
-15.1694 99.3075 -11.2128
-5.53869 100.943 16.0997
13.2926 129.261 5.27146
4.54193 115.986 10.46
2.5719 120.574 -7.75546
6.28017 124.432 -5.48517
-15.2163 91.4195 8.39882
10.3871 131.142 -9.53618
-16.6839 89.8692 7.33878
22.8054 143.883 -1.60467
-6.41537 99.4198 16.3911
11.7686 127.253 4.75659
17.5949 134.485 5.33886
8.41537 122.431 6.08364
-8.27326 97.3202 15.2939
-9.55915 96.2764 13.7493
1.27513 109.605 15.1372
-19.6124 88.4661 0.778269
-16.7274 89.624 7.25989
-3.90407 113.453 -11.7594
0.566594 108.429 15.6213
-3.49568 113.963 -11.8548
-11.524 94.5718 11.4274
18.9743 136.473 4.10902
14.652 136.271 -9.52713
4.55989 122.069 -6.35815
-3.26088 103.404 15.752
-4.31296 101.88 16.1591
-10.0058 105.734 -12.4443
23.037 143.699 -1.45528
14.2951 128.857 7.83225
-11.2022 94.6391 11.7664
17.5629 138.471 -6.15365
18.189 135.379 3.77331
7.88153 126.253 -6.64419
0.757408 118.282 -9.61608
-21.1125 87.4836 -2.52537
-0.966028 106.061 15.8303
16.062 130.995 7.76802
14.3196 128.831 7.50074
-19.0113 88.2885 2.02021
17.1992 133.276 5.52525
-2.33251 104.106 16.1432
16.1166 131.203 7.19595
-18.2946 88.3562 4.08356
-17.5111 88.3371 6.67532
1.76061 110.003 14.3482
-14.9973 98.5641 -11.2808
-3.87027 102.052 16.2151
-20.6904 87.3394 -1.25522
-10.2216 95.2661 12.6054
16.1724 136.615 -6.85675
10.5679 130.518 -9.65208
5.39458 116.458 9.35321
-20.2332 87.2852 -0.373266
-16.2994 89.2313 7.39724
11.8069 126.11 5.02302
23.4128 142.046 2.23478
6.06179 123.009 -5.91016
-18.147 87.7981 4.83269
2.70814 111.397 12.7717
-8.15832 107.316 -12.4153
1.01275 117.861 -9.36489
-18.7218 87.7018 3.05986
-12.4117 93.0157 10.1172
17.452 137.685 -6.56128
20.7263 137.859 3.61638
-20.0263 86.9804 -0.0183822
10.3279 123.726 5.39173
-0.34438 116.546 -11.2099
-5.15027 99.4056 16.7861
-15.9633 96.4334 -11.0353
12.0562 132.108 -10.5744
-17.3437 93.9474 -9.27139
-18.7105 87.2898 3.25165
23.2997 142.983 -1.70502
-19.6293 87.0226 0.807996
19.2168 135.639 3.67749
10.6329 129.836 -9.6177
-7.50815 107.662 -12.3766
-3.77281 101.024 16.756
14.9199 135.189 -9.46985
16.9546 136.697 -6.76343
20.9574 137.802 3.47097
9.95275 128.46 -8.80955
-15.6755 89.1797 7.6956
-15.3619 89.499 7.871
-8.04824 106.91 -12.7466
-8.99257 95.0628 14.2979
16.2275 136.323 -8.64739
-14.2086 98.4008 -11.4862
13.3917 127.042 5.59636
22.5582 142.109 -2.92798
-7.93191 95.8854 15.3744
13.7781 127.347 6.00275
2.50317 110.052 13.3045
-14.3116 98.1878 -11.4624
13.7553 127.246 5.99359
-11.9229 92.5458 10.5687
16.4843 129.777 8.35089
-17.0674 87.2367 7.26886
-17.5768 92.812 -8.65848
-11.8429 92.5811 10.6251
-20.5252 86.0028 -1.1946
7.46002 123.901 -6.5207
20.8456 140.741 -5.76426
-14.5566 89.9173 8.26016
-19.6388 86.3225 0.724444
5.53166 115.19 9.29311
-16.58 87.5072 7.64612
-14.8582 89.5119 8.12135
5.9631 121.772 -6.31196
9.06924 126.524 -8.33179
-17.7373 92.1384 -8.21212
20.7314 136.792 3.51483
-20.5286 85.7158 -0.997018
-16.7787 94.0159 -9.99231
23.7458 140.884 2.81034
-19.2511 88.9782 -5.32029
-8.38364 105.937 -13.119
16.7434 135.615 -6.82368
13.9407 133.029 -9.42235
-4.11732 99.5432 17.0412
10.9533 123.312 5.55562
-5.2453 98.0762 16.8969
-8.67089 105.255 -12.8673
11.6961 130.391 -10.491
12.0619 130.809 -10.3826
14.6045 132.204 -5.70228
-2.3958 101.552 16.9591
-19.7886 85.7686 0.368273
-20.1151 87.0509 -4.10089
19.1562 138.398 -6.99195
19.1342 134.138 3.76704
2.12378 107.984 14.8968
-20.0715 86.9608 -4.22873
23.0769 141.679 -2.90775
24.6473 142.265 0.730133
-12.9206 99.0504 -11.7843
-20.9894 84.4963 -1.01209
10.5925 122.162 5.82399
-20.6367 84.5974 -0.408217
14.694 133.246 -9.1341
14.8023 132.185 -6.18584
-8.5675 104.752 -12.8199
23.51 139.513 3.21145
16.3014 134.944 -8.71238
15.5059 134.005 -8.95143
-16.4602 86.4443 7.9826
-11.0906 92.0062 11.2903
-3.18286 99.7284 17.2
21.9015 140.336 -4.51306
17.2833 135.398 -7.1503
21.0589 136.17 3.13346
6.76357 115.846 8.14514
9.52471 120.037 6.42918
-14.1583 96.6529 -11.3227
-12.0607 90.7324 10.5973
23.3135 141.319 -2.96511
-13.9569 88.8611 9.0099
-9.64976 92.9057 12.7571
-12.6974 90.0365 10.0146
-17.7772 84.8673 6.45592
-14.7003 87.8879 8.72645
11.4183 128.932 -10.7918
-5.93688 96.0448 16.4731
-3.13675 99.2923 17.2907
16.3941 127.674 8.66394
-17.0816 91.6563 -8.94367
6.98562 121.434 -6.38681
12.2733 123.477 5.58584
19.8207 138.187 -7.41604
16.5437 127.829 8.1839
8.34363 123.836 -8.50562
-12.8976 89.441 9.84832
-6.06942 107.189 -13.2943
16.9645 134.719 -8.34794
-19.5575 84.0911 1.4847
-9.40323 92.5102 13.1784
13.7288 124.731 6.50724
-4.47439 109.1 -13.1701
-13.4417 96.9263 -11.4651
18.2081 131.795 2.96768
14.3635 125.162 7.31522
8.85409 124.528 -9.10033
16.4157 133.121 -6.43078
14.4153 131.438 -8.74892
17.4071 134.755 -7.44751
16.449 133.051 -6.32949
10.8181 127.442 -10.4557
1.10618 114.942 -10.3243
23.6745 140.846 -2.7117
-19.9474 83.3751 1.32478
18.1055 130.979 4.1206
-1.56096 112.143 -12.2016
13.1178 123.769 6.11581
-2.973 110.61 -12.9549
-14.5139 95.2043 -11.3982
8.69779 117.656 7.13212
-5.25435 95.9419 16.9007
-4.14234 109.146 -13.2293
9.18203 124.731 -9.49587
-9.55 101.713 -11.9871
5.02536 111.497 10.7126
14.1622 124.574 7.15919
16.0208 133.028 -8.38035
-20.6548 83.4522 -1.82718
-16.5863 84.7534 8.00097
-1.14976 112.407 -12.1731
-19.3334 86.5193 -5.5831
11.6886 121.67 6.04987
14.2454 128.954 -4.27708
-7.07937 93.6132 16.2479
8.73631 123.822 -9.30438
23.4131 140.313 -3.5325
24.6928 140.684 -0.361415
-2.1833 99.3366 17.3526
1.0117 114.441 -10.8759
-20.4579 82.308 0.951856
3.7112 108.659 12.6259
12.4428 122.453 5.90984
4.89022 118.455 -8.67753
7.99116 116 7.71448
-20.3248 84.5429 -4.61481
17.5786 134.176 -7.46525
-5.01083 107.601 -13.678
-14.3863 86.5302 9.46348
15.4608 131.683 -8.29224
-9.54505 101.133 -12.1084
14.1462 130.438 -9.47622
15.4734 129.307 -2.28642
12.9712 129.355 -10.6055
17.696 128.674 6.49644
23.6165 140.089 -3.36779
-14.5489 94.4057 -11.6451
-18.56 83.3183 3.49895
-10.2733 100.053 -12.1951
3.90479 117.041 -9.23624
18.3563 129.735 5.53301
-19.0141 82.8423 3.08153
14.7171 123.839 8.64964
16.4736 130.396 -2.37079
14.9041 128.232 -1.97998
-13.1659 87.5214 10.1237
1.1147 114.113 -11.1689
16.6751 125.785 9.91557
12.6421 128.68 -10.726
-8.45336 91.8015 14.4945
-17.8689 88.3232 -7.48103
18.4653 129.843 5.28461
-16.8786 83.5911 7.79653
5.70999 111.522 10.196
24.0788 140.019 -2.66239
23.9713 137.793 2.55457
12.7482 122.029 6.09512
-9.76749 90.5286 12.8513
8.59895 116.086 7.53628
9.34417 117.202 7.10957
15.7175 131.279 -8.08248
16.7659 130.578 -2.97633
-3.74304 96.3673 17.3478
24.7823 139.67 -0.0278484
3.56639 116.079 -9.17127
15.4873 129.445 -4.34181
19.7138 136.102 -7.59814
15.3573 130.129 -6.58936
14.4961 128.871 -6.20475
-3.97617 96.0316 17.2839
-14.1336 94.2811 -11.6917
11.5905 126.934 -11.0041
3.40362 106.773 13.7062
15.5775 128.3 -1.4795
2.73354 105.328 15.193
24.1139 139.735 -2.82377
-15.3105 92.5112 -11.1769
20.4261 137.005 -7.96764
-19.6503 84.9047 -5.97155
14.2379 122.791 8.0139
16.9835 130.818 -3.68726
-10.172 89.6902 12.5297
16.2669 129.545 -2.90301
23.4128 136.256 3.3016
-9.56887 90.1328 13.229
12.995 128.317 -10.6138
8.77967 115.792 7.56951
14.356 122.667 8.17822
-11.4375 88.353 11.4411
-4.34836 107.276 -13.7439
17.5575 131.697 -4.46789
22.5211 138.418 -5.4335
22.5725 138.45 -5.38625
15.2191 129.029 -5.3969
-9.60091 99.9082 -12.2415
-7.2433 103.346 -13.3252
24.9246 139.236 0.187768
16.958 132.206 -7.92743
2.03628 113.982 -10.2121
15.9537 127.758 0.102366
-17.8503 82.0285 6.04767
15.3283 129.888 -7.80343
15.8611 127.525 -0.0349971
8.74771 121.365 -7.59517
-15.5624 91.5164 -10.957
5.6569 110.229 10.5852
-16.0986 83.1584 8.54582
13.7664 128.777 -10.3199
23.8071 136.465 2.87957
3.71686 115.465 -9.23865
25.2512 138.818 1.52033
-8.22537 101.454 -12.5709
23.918 136.635 2.6853
-12.0949 87.0801 11.4779
3.78249 106.648 13.314
-3.49528 95.7263 17.3303
9.58121 116.373 7.29188
19.5193 130.902 2.67625
15.559 127.468 -1.51934
16.7604 124.44 10.1517
11.6518 126.153 -10.9652
-19.0086 85.1855 -6.60098
25.0642 138.402 1.56298
-15.8151 83.2044 8.78281
15.9024 130.419 -8.18245
21.0244 132.359 3.60932
-14.4744 92.9703 -11.9497
2.19853 103.461 15.7719
21.9885 133.581 3.54531
-0.560836 99.4837 16.8335
-0.999573 110.373 -12.5805
-18.6557 85.509 -6.86332
-2.56042 96.5303 17.5506
-20.3642 82.0328 -3.68009
1.7515 102.661 15.8624
22.7643 134.435 3.4065
-4.88345 105.799 -13.9288
12.5183 126.952 -11.0548
-18.3541 85.84 -7.06046
-4.71176 105.97 -13.965
-19.6904 83.7527 -6.20034
15.9055 130.309 -8.76985
17.0802 131.338 -7.77474
16.2872 130.436 -8.09597
22.6811 137.705 -5.75771
4.89911 107.977 11.7954
-12.0407 86.1056 12.1737
15.3633 126.373 -1.15609
15.6008 128.676 -6.30664
17.5425 125.655 7.69587
12.313 126.264 -11.0001
16.9147 131.158 -8.55929
0.483365 111.586 -12.316
16.2824 122.909 10.2376
4.39504 106.743 12.5847
7.57334 112.278 8.81264
20.6238 135.656 -8.29316
-18.72 80.4797 3.93842
6.5745 118.016 -9.37699
5.26506 116.443 -9.77607
25.8391 138.614 0.851118
16.4666 129.066 -5.43094
-20.4604 81.3792 -4.46695
16.4915 128.039 -2.80054
15.8934 129.498 -8.53852
22.6758 137.136 -5.902
18.1494 126.99 5.18102
14.4504 126.427 -5.50328
16.9061 123.398 10.2238
-5.63485 103.885 -13.6934
10.983 117.066 6.94143
25.3595 138.274 -0.221297
14.3413 127.174 -8.0791
19.9633 134.605 -8.68657
4.29337 106.037 13.0478
-2.49461 107.682 -13.3927
-18.7156 84.5207 -7.30651
-3.1497 94.8234 17.2699
14.4725 127.738 -9.26484
13.0981 126.08 -9.53673
22.1494 136.473 -6.51033
14.7133 127.731 -8.51488
25.9944 138.318 1.32873
-20.3762 79.4209 0.0808584
12.6501 119.058 6.84657
13.57 126.9 -10.2213
15.853 128.141 -5.95686
-9.06886 88.2124 14.5299
15.1378 128.181 -8.42418
15.1463 128.163 -8.35288
-0.98952 109.218 -12.9248
16.6522 130.055 -8.51108
24.8062 138.013 -2.28174
1.27692 100.673 16.1181
17.5579 127.423 0.937654
17.4851 130.245 -6.59042
-18.6236 84.3999 -7.59966
-19.5653 82.6598 -6.25786
-7.9458 89.0801 15.3121
15.8021 121.396 10.3257
3.22779 103.485 14.887
-5.56526 103.402 -13.7099
-8.40555 88.4677 15.1421
17.2035 129.826 -6.81146
17.2132 129.198 -5.19544
15.18 120.869 9.39034
23.3307 136.97 -5.10966
20.9076 130.395 3.71856
-0.61517 97.6335 17.0163
3.03246 112.933 -10.1785
25.6586 137.402 1.33386
12.5861 125.43 -10.9075
18.1926 125.688 6.73521
2.63918 112.577 -10.7257
-4.49334 92.5412 17.0526
-1.57445 108.084 -13.1866
9.63526 120.511 -8.28162
15.4114 127.6 -7.55489
-16.1953 80.8982 8.35609
5.63882 115.967 -9.84206
-10.1764 86.6121 13.4161
8.44701 119.159 -8.93675
-20.9043 79.0275 -2.51412
-9.60463 87.1206 13.7823
14.8648 120.354 8.89292
-15.2275 89.4842 -10.7045
23.658 136.895 -4.71356
-14.7374 90.4344 -11.6836
-15.0119 89.8235 -11.1031
2.41326 101.562 15.8704
1.84229 100.717 16.0473
-6.80639 101.122 -13.309
-18.7557 83.4454 -7.30542
23.9523 136.963 -4.35481
15.2787 125.225 -2.75724
22.0253 135.28 -6.57607
15.2456 125.239 -3.23276
-10.7104 85.4043 13.5224
17.7915 130.805 -9.29751
7.89219 110.956 9.04417
3.70354 113.016 -10.0399
-5.36981 90.8496 16.7962
-9.66485 96.6278 -12.0671
22.7587 135.644 -5.72122
12.9428 124.915 -10.4822
20.892 134.076 -7.90907
16.9803 121.842 10.5467
19.8646 129.124 1.29382
-18.2282 79.3817 3.74691
3.09147 112.211 -10.5272
16.067 120.552 10.5885
-8.84861 87.0143 14.7304
-17.632 85.0414 -9.04942
14.23 119.202 7.89391
19.8989 128.95 1.38956
15.4716 124.99 -3.0027
16.941 129.101 -8.76797
8.04266 110.705 9.0577
-2.59473 106.019 -13.8098
6.64194 108.335 10.4113
13.5126 124.839 -9.30218
-3.75524 104.583 -14.0567
1.19314 99.0602 16.2507
11.6534 115.916 7.28717
-13.7797 81.5912 11.7698
-14.6065 89.6681 -11.6424
-10.4116 95.1395 -11.9086
9.28488 119.093 -8.75557
10.742 114.439 7.66843
-0.719351 95.8719 17.6074
5.41061 105.952 11.8757
19.5551 128.35 0.82976
24.6135 136.453 -3.34853
-4.76529 90.8704 16.9998
-0.777216 107.811 -13.2947
3.02841 101.447 15.3651
-4.52517 103.232 -13.94
4.56394 113.262 -9.8326
-18.4036 79.0483 2.44839
-18.0101 83.6456 -8.01784
-13.4909 91.1044 -12.3785
11.6232 122.343 -10.0672
13.5633 117.961 7.47004
17.531 125.873 0.120579
16.943 128.37 -8.20697
-11.6343 93.2749 -12.1053
-17.2938 79.0854 5.59245
-11.2068 83.7681 13.4385
13.2547 124.392 -10.3495
18.0131 126.365 0.00460102
19.6364 132.062 -9.34512
19.4787 127.947 0.655265
-17.8684 83.5149 -8.03908
-10.6033 94.3394 -11.9774
-8.9172 96.6026 -12.3179
17.0269 125.346 -0.932747
-8.8974 96.5911 -12.3296
0.971707 109.423 -12.9126
-17.7616 78.6793 4.36164
22.1335 129.999 3.68057
-18.0183 78.7837 3.13409
15.7239 126.007 -7.16059
-9.5251 95.5456 -12.0888
18.8256 123.358 9.29971
16.8973 125.05 -1.39021
-17.9506 82.7395 -7.3089
13.2889 116.906 7.55651
14.6277 118.294 8.36604
14.0369 123.768 -7.57891
11.05 120.636 -9.38301
-6.17006 88.4863 16.4359
-0.236412 95.6258 17.5364
-14.191 89.3781 -12.2574
-17.7953 78.5072 3.61491
-3.68092 103.463 -14.0938
-0.048662 95.7471 17.4403
19.8643 127.138 2.29764
-17.9706 82.2202 -6.79747
16.5382 126.699 -7.72199
19.5957 131.271 -9.52306
25.5395 135.983 -2.129
-0.839958 106.707 -13.7335
1.2424 109.106 -13.0575
20.2364 127.265 2.62984
-0.676639 106.841 -13.6907
-9.58332 94.8345 -12.1845
-19.167 77.6367 0.340445
-13.4962 89.9637 -12.6396
-0.203338 107.317 -13.5331
16.562 124.292 -2.05117
26.3175 135.654 0.830802
-7.18699 98.0273 -12.6617
17.7851 125.276 -0.633358
-13.965 89.1853 -12.3671
21.433 132.587 -7.58903
16.5161 125.876 -6.53528
-8.43665 85.4744 14.9917
19.2499 126.436 0.882516
16.6032 124.2 -2.10387
13.8545 122.965 -7.98442
8.43555 109.256 9.31955
-1.52225 105.612 -14.0127
13.4127 116.169 7.78115
-19.9458 77.8949 -3.7324
20.6024 131.687 -8.5697
17.424 124.894 -1.64361
0.259958 107.531 -13.5042
25.5732 135.485 -2.13138
22.214 128.924 3.54286
7.19099 106.951 10.4833
15.3256 124.084 -6.71917
11.6584 120.628 -9.89229
18.1159 120.759 10.7812
20.0056 125.758 4.14414
-17.5797 77.9682 3.27565
-9.3481 94.5878 -12.3162
-19.4501 78.3692 -4.10938
-11.7123 91.6179 -12.7038
19.1911 122.557 9.34092
0.762633 95.8818 17.1398
16.7318 126.166 -8.05413
-6.81878 97.7928 -12.6597
3.10266 99.2949 15.8522
-18.6384 79.4842 -4.7634
19.2401 129.941 -9.77177
14.2818 122.375 -6.66504
13.8673 116.083 8.03911
9.9078 117.574 -8.75635
-12.824 79.9797 12.9031
17.93 126.077 -4.29898
16.3508 123.939 -4.0281
-12.5603 80.2154 13.1096
18.9442 125.481 0.489203
13.7476 115.797 8.03571
14.4936 116.641 8.29121
14.529 116.668 8.33549
21.4363 131.778 -7.8751
19.6491 123.114 8.37025
7.44453 114.825 -10.6714
-0.801087 105.577 -14.0552
8.85406 116.376 -10.1054
-14.3355 79.1126 9.24118
18.147 124.556 -0.656853
9.89652 110.226 8.88913
-17.8463 77.3619 2.06825
-6.23525 86.5962 16.4141
-20.5244 75.7429 -2.87407
10.0134 117.136 -8.77127
7.14619 105.729 10.9544
22.7235 132.485 -6.54115
20.0429 124.7 4.54371
-13.7952 87.8923 -12.1834
15.4666 116.792 9.66839
19.4174 121.902 9.46055
-10.7335 91.9365 -12.7165
-16.6601 82.9867 -9.42661
0.815375 107.056 -13.7577
-0.111725 93.502 17.8487
24.5815 133.621 -3.88484
-13.7923 78.7703 10.6319
16.9655 123.559 -3.34893
-3.30588 101.813 -14.1834
-16.7365 82.5058 -8.83097
-0.764294 104.969 -14.0476
4.2893 110.323 -11.2042
18.6653 128.146 -9.83483
0.643065 94.3683 17.4851
-2.39305 90.3915 17.6643
20.1357 129.785 -9.34032
3.52454 109.671 -12.3116
17.5833 123.502 -1.64716
11.9548 119.35 -9.50158
1.71791 107.805 -13.5702
-18.2937 77.0492 -0.498095
26.7424 134.525 -0.131451
19.0074 120.536 10.2603
-1.56911 91.1916 17.9133
-13.5235 78.4034 11.4615
19.1698 124.698 0.1137
-18.3402 78.6476 -4.96707
21.0119 130.444 -8.62208
14.4839 122.295 -9.18453
0.682025 106.357 -13.7606
14.0758 121.889 -9.64613
1.20143 94.8829 17.2127
15.8866 116.384 10.2926
0.444717 106.018 -13.8025
20.7375 125.598 2.54271
-5.62572 97.8045 -12.8557
20.4214 125.548 1.45584
5.66031 102.024 13.2345
14.0681 114.631 8.47285
15.5443 122.174 -6.03732
17.9141 126.628 -9.68493
15.2982 121.658 -5.58729
19.1701 124.399 0.074644
-16.5942 82.399 -9.7067
7.00038 104.289 11.5422
11.0923 110.561 8.88592
3.00819 97.3402 16.079
-14.3776 77.9916 8.60815
-1.78725 103.086 -14.339
15.4535 115.713 9.79833
-19.9422 75.2836 -2.72493
25.7695 132.84 -0.269336
14.3785 121.735 -9.22253
3.70042 109.284 -12.4612
-7.67145 83.7854 15.4059
-16.8357 76.6994 3.44234
9.31473 115.571 -10.3759
-3.71566 100.236 -13.8727
20.1392 123.068 5.82251
10.1602 108.902 9.33559
20.304 123.854 4.17955
6.69018 112.432 -11.3449
-1.56953 102.967 -14.3136
-8.33715 93.7589 -12.9632
-18.3554 77.5 -4.35057
-12.9641 87.5164 -12.3387
12.6644 119.767 -10.9122
-11.9249 89.1217 -13.1951
13.0814 120.073 -10.4769
-19.3655 75.2328 -2.1422
17.6912 122.983 -3.04717
7.8539 113.643 -11.3803
-17.2672 80.2098 -8.21465
20.543 129.104 -9.51109
5.57955 100.76 13.9251
-3.77518 99.5293 -13.6404
3.39079 108.439 -12.9738
-20.2402 74.5914 -3.79962
13.3404 120.078 -10.1711
23.8694 128.477 2.79064
-17.901 78.4381 -6.04561
25.1515 131.214 -0.0528042
-11.1147 89.8555 -13.0418
16.7732 123.467 -7.73326
24.6755 130.089 1.20024
17.3546 124.311 -8.11375
-13.5845 77.852 9.26701
18.8919 124.03 -2.55864
-9.64418 80.9674 14.0633
-13.5884 77.8017 9.22896
3.8469 108.716 -12.7573
-14.04 85.3482 -11.5914
20.3412 124.169 1.61186
-16.6413 80.8118 -8.66159
-5.07042 97.3956 -13.2544
-14.8265 83.9521 -11.0484
4.60442 98.6935 14.8396
-16.834 76.3659 1.73192
-18.1444 77.486 -5.44782
16.9912 123.396 -7.82521
0.673259 104.798 -13.7686
19.4745 123.838 -0.920148
-1.62692 102.076 -14.3625
18.3613 123.02 -2.60412
3.42459 108 -13.136
21.6431 125.155 2.51523
16.7446 115.55 10.9796
-0.0032188 91.2108 18.3394
-7.60694 82.7195 15.1205
13.7817 119.772 -9.70359
14.5061 119.526 -6.74218
16.1068 120.914 -5.05601
14.4835 119.517 -6.85243
-13.9767 77.1108 8.38777
6.22324 100.918 13.4911
8.97733 114.139 -11.3427
-16.1267 81.2021 -9.48047
20.5234 121.211 8.19886
-11.2725 88.9037 -13.2963
-15.6406 76.3001 4.5589
20.8122 128.589 -9.80747
4.92118 108.977 -11.7157
14.32 119.322 -7.40168
8.32244 113.225 -11.497
-13.0202 86.1256 -12.1015
24.5388 128.971 1.05675
-0.346815 90.318 18.2184
19.8795 121.328 5.09337
24.879 129.606 0.284518
13.7782 119.225 -9.54194
9.45814 105.934 10.2084
5.11419 108.9 -11.6206
-8.77505 91.6464 -13.1244
19.7559 122.764 0.675707
3.7899 107.719 -13.1601
15.0925 113.274 9.518
17.3383 123.438 -9.13253
-12.1824 77.8474 10.7811
8.11259 103.644 11.2244
-10.3575 78.8343 14.062
22.0292 129.22 -8.79137
16.2304 120.264 -4.94046
24.7516 131.241 -5.14954
8.766 113.242 -11.52
19.5209 122.397 0.228986
19.7869 121.557 3.19323
8.20852 103.594 11.1956
25.2582 129.922 -0.34931
9.24275 113.741 -11.4432
-10.6186 88.9772 -13.2968
10.676 107.129 9.98843
-12.1069 77.8668 10.1956
8.40018 103.796 11.0287
19.8216 118.805 10.0349
0.915095 91.5753 17.7367
10.007 106.138 10.2364
22.4778 129.302 -8.25159
12.3418 116.979 -9.92808
20.8692 127.893 -10.0428
19.4511 122.445 -0.831375
21.849 124.282 2.26828
19.543 122.159 0.139973
17.2746 114.789 11.4283
27.2761 132.527 -1.20719
-7.00154 93.4731 -13.5798
-11.4908 77.3608 12.843
17.3886 122.916 -9.41065
-5.56857 83.4452 16.2703
19.578 121.946 0.0846854
10.325 114.236 -10.662
-11.3551 76.7224 14.2001
18.2502 120.858 -1.73181
19.5928 121.854 0.0603132
19.6954 117.867 10.5548
18.3568 115.759 11.5178
4.79767 107.771 -12.5047
18.0515 120.807 -2.47606
17.8231 121.172 -4.17576
5.12349 108.03 -12.204
16.6335 119.78 -4.56443
-4.25262 96.6276 -13.8063
-4.25822 84.5724 16.9283
19.5974 120.507 3.07303
20.2665 120.261 5.806
2.3366 104.735 -13.2982
15.9474 112.748 10.5366
-9.70381 78.4513 14.2434
-10.1384 88.6378 -13.4002
-14.2966 82.6095 -11.7447
20.3826 122.301 0.145793
8.1528 102.011 11.9453
4.44604 96.031 15.0462
6.46205 99.1323 13.4643
6.71274 109.324 -11.8733
3.95644 106.388 -13.5693
15.659 112.084 10.1593
24.1962 129.521 -6.57217
-15.1778 81.1026 -11.6945
25.6112 129.046 -0.776872
13.5061 117.12 -10.1277
-1.28534 87.4614 17.2687
18.9391 115.638 11.4379
-7.43374 91.6953 -13.7074
2.28664 92.0895 17.0051
6.20452 108.372 -11.7989
-11.7814 85.8853 -13.2809
-3.33689 84.7664 17.0583
14.381 117.278 -8.06388
20.1362 122.01 -1.326
2.94259 93.1249 16.2281
19.6627 124.931 -10.4333
20.9896 122.03 1.24739
-9.07396 77.9579 15.4844
18.3294 120.542 -3.69907
18.9393 120.508 -1.63197
-5.3947 93.9739 -13.4772
4.41025 95.3029 15.1829
14.689 117.164 -7.17157
14.7923 117.187 -7.01687
21.7378 122.536 1.94244
28.5685 132.555 -1.58825
-14.033 82.1968 -12.3035
18.4811 114.317 11.8588
4.94027 95.7597 14.968
8.44831 101.402 11.9756
18.3223 119.937 -3.15089
20.0172 121.37 -1.31372
13.9311 116.924 -9.97847
28.7719 132.659 -1.66358
-15.257 79.833 -10.9391
17.202 118.577 -3.81746
25.6881 128.28 -0.881355
2.01604 90.5397 18.0944
-17.4185 75.2908 -6.83675
11.7639 105.866 10.482
15.473 110.847 9.84154
14.6995 117.163 -8.89978
20.0649 119.235 3.34929
16.6416 111.762 11.085
-5.92901 92.3913 -13.5457
21.0593 125.757 -10.5094
5.58796 96.0605 14.6755
24.6925 128.913 -6.82746
10.2111 103.341 11.1289
15.7403 116.413 -4.2141
22.4189 127.211 -10.1057
8.2248 100.267 12.2729
5.77411 106.744 -12.4636
7.19871 108.458 -12.1897
17.8355 118.536 -3.23115
17.3872 117.957 -3.28761
-9.89595 87.1188 -13.7678
23.857 128.005 -7.85619
20.3644 118.99 3.48717
20.4756 118.994 3.77541
9.50741 110.585 -10.8859
28.6397 132.513 -4.3364
18.2406 120.183 -6.90195
16.143 116.172 -3.52406
22.578 122.511 0.884871
28.5859 131.349 -2.10833
24.2758 127.901 -7.47975
21.135 117.707 8.08485
22.551 126.666 -10.2594
22.9517 127.018 -9.9273
14.4927 108.364 9.91724
29.1873 131.859 -2.25906
18.2938 112.344 11.9652
21.3368 118.714 5.58566
5.20196 94.2994 15.1573
-15.9413 76.6295 -9.13798
-14.8351 79.0581 -11.7305
-15.6775 77.3212 -10.1504
20.2568 118.443 2.21328
24.7136 127.867 -7.34193
3.75363 91.5174 16.8413
13.7083 114.755 -10.029
23.0366 122.655 0.30745
-8.78845 87.3322 -13.5985
15.3205 108.854 10.1015
3.93792 91.6924 16.6742
25.9558 126.856 -1.18662
19.6935 120.922 -6.56439
-15.1763 78.1869 -11.4636
13.8213 114.684 -9.97797
5.69529 105.523 -13.1715
15.6225 109.029 10.3596
-8.03275 77.0515 14.634
-1.3409 84.5855 17.2759
15.3086 116.51 -9.88862
10.0329 101.174 11.8546
18.4705 116.966 -0.944089
19.7017 113.615 11.5252
11.2272 111.568 -11.0755
21.467 117.553 7.10271
21.4336 117.261 7.50752
19.5584 118.142 -0.920448
9.06995 99.4874 12.3879
17.8587 115.893 -0.887351
-2.96723 82.2666 16.8589
18.3816 116.142 -0.347409
-15.5465 76.803 -10.8483
11.401 102.517 11.6195
14.4603 106.972 10.1993
17.3524 115.595 -2.43891
-2.00503 95.4304 -14.3453
-0.856911 84.4767 17.2993
10.7994 110.412 -10.8747
21.6448 117.463 6.58488
21.5382 117.001 7.40883
5.23741 92.8023 15.8945
-15.5779 76.4326 -10.4922
16.343 108.871 11.0648
-4.19154 92.285 -13.7815
12.7151 112.824 -10.9759
28.2742 130.746 -5.86672
16.2395 115.185 -5.70925
8.79495 98.3241 12.9092
12.2065 103.253 11.4253
-10.0347 84.5214 -13.7883
13.968 105.702 10.6212
25.7243 127.751 -7.29037
-9.68716 85.002 -13.9589
19.8593 119.272 -4.93158
28.3716 129.006 -1.95606
12.2037 102.963 11.5314
20.1872 117.357 0.857137
26.2896 126.144 -1.65063
10.731 100.795 12.2207
19.9697 119.312 -4.98329
15.1994 115.037 -9.67313
19.8458 120.736 -9.09513
20.1005 119.583 -5.31821
-6.7363 88.6075 -14.0388
10.4042 100.181 12.4121
20.7026 114.536 9.39765
19.3661 116.432 0.105656
20.078 121.198 -9.79432
8.12092 106.972 -12.5922
21.4966 117.791 3.50773
10.6171 109.31 -10.7335
21.433 115.999 7.56506
1.58296 98.9784 -13.9188
20.7798 114.544 8.946
14.7553 114.062 -9.54583
-8.93417 85.5267 -14.1698
18.0683 115.236 -1.73241
24.452 126.158 -8.79524
15.4042 106.985 10.4669
5.24591 91.5663 16.6007
21.537 122.94 -10.4748
-4.11735 91.2569 -13.7616
16.9581 114.793 -4.94925
24.2505 125.86 -9.3926
-7.05192 87.623 -14.1881
11.5579 110.07 -10.7409
14.5689 113.53 -9.82829
10.9978 100.152 12.5787
19.8407 115.785 1.55695
11.2624 100.537 12.435
-12.1382 80.5926 -13.2323
17.5144 114.725 -3.61728
-5.22158 89.569 -14.1438
6.7344 93.1835 15.6162
22.5832 119.555 0.0578664
10.3292 108.033 -10.6929
-5.3222 76.935 17.502
23.6793 120.818 0.226645
23.3636 120.243 0.371092
11.9428 109.893 -10.5806
23.6216 120.593 0.272036
4.79893 89.5495 17.8883
-0.842765 82.5352 17.3192
-0.232653 83.3188 17.2452
15.4022 105.832 10.7849
-5.1437 76.9847 17.2746
26.693 127.547 -7.89491
21.8268 115.474 6.98129
17.7482 114.459 -3.77735
6.76903 92.6799 15.9055
-4.05144 78.8603 15.6426
-2.59037 80.3836 16.4618
18.9122 109.478 12.4154
29.5568 130.141 -5.6096
13.6103 102.879 11.8257
6.80912 104.051 -13.443
17.2639 114.543 -6.05356
27.7929 126.371 -1.85309
18.6544 114.556 -1.80567
18.6945 109.028 12.3679
8.56714 105.752 -12.4878
28.1178 126.552 -1.74095
14.9063 104.428 11.3399
19.9875 110.596 12.1897
27.6118 128.159 -7.80695
22.4598 122.396 -9.95971
12.7245 110.021 -10.2686
28.7822 127.281 -1.83569
5.42159 89.5144 18.0264
6.98665 91.967 16.6423
-2.09545 92.3846 -14.2191
-1.5302 80.8662 16.9267
-2.1975 80.1257 16.5463
23.5616 119.569 -0.0232615
15.6149 104.773 11.6037
15.9499 105.185 11.6174
20.9748 112.014 10.2323
-14.3888 75.6486 -12.5663
22.4998 121.703 -9.57828
22.6676 121.946 -9.66691
-14.1563 75.902 -12.5881
22.6462 121.837 -9.61355
-5.5784 87.4904 -14.2121
28.0062 126.28 -3.65711
0.161553 94.6098 -14.3703
3.00433 97.9895 -13.7819
-2.27157 79.3959 16.3545
23.8496 123.026 -9.90335
17.0057 113.471 -7.91999
24.4488 123.93 -10.3287
25.739 125.024 -8.90637
-3.75918 76.7573 17.9016
1.47294 83.686 17.3075
19.0326 108.124 12.2967
7.12051 90.7284 17.7345
12.7801 108.824 -10.0504
17.105 105.786 11.8616
14.5668 102.237 12.4931
29.9785 129.29 -6.33796
0.789789 82.6516 17.1761
-0.867163 80.5444 17.0641
28.3374 126.171 -4.00211
4.3214 99.0642 -13.5325
13.9246 109.684 -9.70277
-4.36981 87.9878 -14.1281
1.37576 95.436 -14.4069
6.5263 89.4247 17.8121
13.3057 108.927 -9.85658
21.0946 110.79 10.8336
5.06595 99.7319 -13.3999
26.8377 122.655 -0.839978
13.7054 109.319 -9.73675
13.2656 99.6371 13.5037
14.8215 101.827 12.9989
21.1165 111.217 9.57663
9.81866 94.6376 14.9599
-2.0922 78.7636 16.2556
19.0629 113.606 -3.68343
30.0803 127.921 -4.28496
-3.21722 76.9794 16.904
10.2779 105.223 -11.3017
-3.06267 76.6667 18.0325
9.70254 94.0716 15.3172
5.15991 87.2193 17.8776
21.2092 110.378 10.8907
7.54704 102.42 -13.5091
16.414 103.36 13.0559
6.88641 89.3399 17.6851
13.4642 99.2216 13.8861
2.24273 95.7694 -14.2664
9.89243 104.513 -11.662
24.3688 122.237 -9.62571
0.900767 93.9076 -14.3159
6.86736 88.9676 17.6574
4.69145 86.1388 17.727
27.6575 123.374 -2.49273
14.73 100.272 14.1593
28.7373 127.115 -8.78269
9.20712 92.0515 16.8472
-2.01126 77.9506 16.1215
15.9706 101.938 13.5787
5.52927 99.098 -13.4586
13.5507 108.028 -10.0917
2.82741 83.4648 17.5087
29.8053 127.682 -7.24048
19.6845 113.237 -3.5209
11.8934 95.9042 15.0423
27.685 122.798 -2.09393
12.6177 106.779 -10.6255
7.87302 89.6424 17.6106
19.8739 113.149 -3.37307
30.2374 127.44 -5.99125
16.4933 102.091 13.7716
-4.56969 86.057 -14.348
10.7684 104.524 -11.3835
27.5837 122.168 -1.50629
25.4996 122.775 -9.94812
19.7345 113.024 -4.20671
-0.178465 91.376 -14.0783
11.6471 94.8502 15.7041
-2.04112 76.5826 17.5051
-12.0292 75.8048 -13.2969
5.3826 98.1566 -13.5537
29.0916 126.711 -9.0207
15.8279 100.607 14.2437
6.59972 99.5288 -13.3599
2.64627 94.6756 -14.4257
22.6908 113.275 3.58683
1.51885 80.7417 17.3218
21.7342 109.515 9.83828
18.4046 103.879 13.052
16.9283 110.424 -8.5336
-2.89264 87.2257 -14.1266
5.5865 85.6782 17.4473
3.45692 95.208 -14.2964
10.8182 92.4947 16.7109
30.1679 125.557 -4.52175
2.58535 94.0858 -14.4409
3.80307 83.142 17.3617
6.409 86.4449 17.3842
15.4326 98.8395 15.0166
-6.99597 81.3843 -14.5192
20.6472 111.763 -1.84183
10.0623 90.5834 17.6052
21.8513 108.228 11.009
3.41105 82.0889 17.417
1.65206 79.93 17.0577
20.0449 111.302 -2.96425
14.32 106.831 -10.3542
17.1878 109.596 -8.17268
-1.96085 87.2804 -14.036
-8.79432 78.532 -14.0877
-10.8225 75.745 -13.6565
22.8146 112.239 3.13987
4.64387 95.6863 -14.085
-8.25343 79.2891 -14.3868
6.37587 97.6279 -13.5221
2.42477 92.8268 -14.2034
15.5986 107.737 -9.76045
22.9658 111.06 5.58196
4.04973 82.2316 17.3386
18.9428 109.789 -4.39068
3.09958 80.9688 17.3885
10.8002 90.7638 17.5511
22.3165 109.497 7.34027
22.2153 111.377 1.94407
15.0379 106.776 -10.0785
12.6499 93.1434 16.774
17.5418 108.7 -7.00152
21.7773 106.766 11.6626
6.80968 97.3385 -13.5804
-2.79897 85.3775 -14.4769
21.6035 106.281 11.8663
22.9776 110.445 5.70901
21.9831 110.68 1.76402
15.4103 106.716 -9.93633
17.2401 99.4665 14.5806
14.3254 95.0932 16.0984
4.2731 94.0541 -14.2247
-3.3655 84.3742 -14.5289
11.7583 91.1967 17.4582
6.85217 97.0176 -13.6319
-0.00316803 75.6831 18.4184
14.18 105.124 -10.6753
15.0159 95.7549 15.8365
22.2131 106.899 10.8264
-6.74668 79.7131 -14.616
-10.1894 75.1023 -14.2585
22.5154 107.918 8.68132
21.3424 109.571 0.307683
14.1599 94.0615 16.3777
10.1385 100.385 -12.9955
21.8758 109.641 1.51651
16.2013 97.0295 14.9615
1.7135 77.5227 16.9023
14.8664 104.991 -10.3674
17.3922 107.284 -7.98538
21.9785 109.324 1.79297
16.826 97.7158 14.4991
-8.93487 75.8712 -14.1365
18.5842 100.22 13.6307
22.0549 105.402 11.7097
-1.54104 85.2324 -14.3298
9.53816 86.8661 17.7325
9.42707 98.82 -13.2232
17.9124 106.965 -6.46137
6.1579 82.6294 17.1338
4.74276 80.7905 17.0929
18.2661 99.0051 14.2783
22.7618 107.481 7.26096
22.1109 108.598 2.25725
5.80559 81.9189 16.9964
13.418 91.6472 16.9152
3.01136 78.292 16.9589
22.433 108.62 2.86283
5.32677 81.2021 16.9356
19.7479 101.221 12.8728
21.8053 108.181 1.80913
13.6994 91.8764 16.8381
20.0493 107.066 -1.27026
14.9168 104.013 -10.4028
19.4162 100.465 13.2875
15.0702 104.028 -10.3147
9.11577 97.4815 -13.0721
-2.58521 82.8713 -14.4311
17.97 106.006 -6.29978
9.10426 85.2291 17.782
-0.693574 85.1757 -14.2582
12.4599 100.866 -11.5553
10.2352 98.4289 -12.6656
19.5187 106.246 -2.26868
1.75068 88.0226 -14.2905
-4.40393 80.228 -14.6768
4.47803 91.3117 -13.953
5.56651 92.5977 -13.7928
22.5418 107.803 2.6907
-3.29015 81.4811 -14.6117
6.49483 81.5542 17.1372
22.9595 107.979 3.46303
16.1676 104.394 -9.69294
16.3513 104.58 -9.59312
11.2511 99.0634 -12.2895
6.91342 94.0052 -13.582
21.4665 102.585 12.1055
9.42929 96.9218 -12.8329
16.1799 94.2712 15.7177
5.81479 92.4394 -13.7002
22.9919 105.951 7.98713
0.777307 86.1973 -14.2806
-1.08637 83.7699 -14.3302
19.2138 105.275 -2.96379
3.71889 89.7836 -14.0948
0.0406375 85.0836 -14.2809
6.64796 81.2314 17.1509
22.9884 104.939 10.0215
23.136 107.571 3.61247
5.14364 79.1613 17.0898
16.3133 103.86 -9.59076
8.05881 82.6158 17.5889
16.5231 103.967 -9.32452
18.3384 97.06 13.9134
-3.77032 79.8252 -14.4997
20.5206 105.547 -1.08457
4.53507 90.0019 -13.8081
18.6537 104.238 -4.08423
16.65 103.505 -9.1016
4.06959 77.0583 17.1766
-4.27864 78.7035 -14.5236
3.6735 88.611 -13.8817
22.9705 103.584 10.8876
7.16519 92.7743 -13.2839
23.3169 104.724 8.88228
19.6099 104.496 -2.82548
15.8705 102.411 -9.74791
10.9545 97.0109 -12.0741
23.1807 105.198 6.9234
-3.56674 79.1941 -14.3448
16.7656 103.082 -8.89832
-5.03122 77.4149 -14.6543
-1.27386 82.0278 -14.2512
12.8339 87.6506 17.4527
23.6029 106.235 4.97588
11.084 96.8403 -12.007
23.6344 106.277 4.85328
18.6646 103.487 -4.29035
-1.09361 82.0339 -14.2136
23.4553 105.557 5.99868
19.7036 104.181 -2.80653
4.59687 76.9072 17.3667
14.8673 100.47 -9.70265
23.6387 106.133 4.25135
22.7429 105.633 2.38173
6.11658 78.4698 17.1655
17.6439 102.515 -6.68085
13.0792 87.1811 17.3907
-0.328306 82.2915 -14.0564
16.1554 101.53 -9.39851
7.35047 91.6747 -13.0355
7.42393 79.723 17.369
23.7962 105.436 5.22202
13.7237 87.8783 17.1379
0.0622801 82.4656 -13.9948
20.5687 103.958 -1.94271
23.0445 105.093 3.19869
11.1779 84.2276 17.6047
10.5466 94.9192 -12.0624
17.3339 92.6708 15.4136
15.5079 99.8699 -9.25372
3.94729 86.8093 -13.7502
9.91154 93.8117 -12.295
6.96531 90.2446 -12.9591
20.1572 97.0192 12.8976
5.32591 75.9699 18.0703
16.8349 101.231 -8.97073
20.8244 97.8072 12.7606
4.50922 87.1558 -13.5321
23.4677 102.279 9.74222
16.4463 100.586 -8.98374
5.8029 76.3773 17.9532
21.4198 103.683 -0.796612
16.2053 90.44 15.9708
6.78903 77.7941 17.4664
15.0659 98.9097 -9.52003
7.76447 90.7935 -12.7326
23.7663 102.709 9.15892
17.6218 92.4185 15.3201
23.8703 103.989 5.9762
7.47607 90.2335 -12.7905
14.4813 98.0645 -9.99333
14.52 98.0789 -9.96692
4.89313 86.9173 -13.3676
22.7424 99.7976 12.0015
-1.84761 78.4255 -14.0818
9.13546 91.8741 -12.5232
-1.83649 78.3905 -14.074
16.5359 99.7829 -8.7104
15.6668 98.8251 -9.19905
14.6868 97.8064 -9.89975
23.4242 103.358 4.26288
13.3026 96.3298 -10.9444
12.2661 95.1506 -11.414
2.26101 83.076 -13.6795
9.60084 80.2407 17.5497
5.81253 87.4018 -13.1964
5.00153 86.4029 -13.3176
22.5051 103.085 1.09858
23.5256 102.893 4.4748
14.9098 86.9643 16.6354
12.8904 95.2284 -11.1887
22.6855 102.712 1.60685
12.5679 94.7187 -11.2642
-3.0104 75.8715 -14.1615
22.4913 102.641 0.811633
23.06 102.573 2.67742
18.2466 91.4066 15.1152
12.2492 82.759 17.2929
22.3448 102.171 0.384562
18.7227 100.128 -6.36363
1.64486 81.1728 -13.8681
3.06726 82.8802 -13.5826
11.9359 93.3411 -11.3157
14.2702 85.0797 16.948
9.25686 90.162 -12.535
23.5495 101.767 4.57132
15.6354 87.0308 16.2558
14.8843 96.0951 -9.93775
19.3534 92.247 14.4553
18.2281 90.4787 15.1903
18.2701 99.2971 -7.2863
12.5519 82.3218 17.3083
20.0394 93.0225 14.1805
20.5507 100.278 -2.85847
11.5605 80.7448 17.626
23.3355 101.553 2.90605
14.4065 95.1648 -10.2084
8.18344 76.0511 18.1119
21.749 100.763 -0.693304
24.0495 100.974 6.10649
14.928 95.5405 -9.87235
8.06261 75.6197 18.2311
18.1148 98.5577 -7.56703
21.6799 95.0013 13.0625
24.2625 100.094 8.48904
11.2162 91.2899 -11.7832
22.4169 100.933 0.183708
18.796 98.8873 -6.47404
23.7512 98.6227 10.2314
10.6815 90.389 -12.051
24.0366 99.134 9.28627
21.999 100.057 -0.62212
13.0348 92.5128 -10.7516
8.67603 87.6036 -12.5715
20.1541 99.1242 -4.47996
14.3964 83.3422 16.921
12.1576 91.2937 -11.2431
23.5305 96.8952 11.465
23.2905 100.228 1.73064
6.47293 84.2325 -12.7222
23.9229 96.9938 11.2073
16.2352 85.1227 16.3301
22.9714 99.8643 0.650921
5.50733 82.8511 -13.1105
3.75384 80.5675 -13.3141
20.473 91.1491 14.2941
24.429 99.2068 6.14844
23.7115 96.124 11.4376
18.5403 87.8041 15.6467
23.047 94.9299 12.1057
11.4825 89.2461 -11.6421
7.32176 83.9372 -12.5075
24.3852 98.9203 4.91451
17.1959 94.6225 -8.15122
22.4904 98.4255 -0.698687
20.0574 89.2172 14.8201
24.5832 97.4752 8.23315
22.9483 98.4869 0.18246
24.4152 97.8161 6.40012
4.06972 79.3103 -13.0241
13.2366 79.0455 17.5524
7.42269 83.3234 -12.5398
19.6362 88.0286 15.3343
7.87932 83.7516 -12.3724
14.336 90.9515 -10.1776
21.1517 96.7713 -2.8427
20.2567 88.6181 14.978
14.7091 80.3759 17.4112
23.818 97.9509 2.21251
19.694 95.3552 -4.75636
13.8348 89.9387 -10.3933
16.0204 92.1757 -8.96908
24.5051 95.3 10.6804
10.7404 86.4258 -11.7151
21.7193 96.236 -1.78408
23.3444 97.3053 0.588628
17.496 93.0616 -7.79611
11.842 87.2235 -11.3973
24.6338 95.0614 10.3766
14.8287 90.4275 -9.92949
24.9589 96.0939 8.69723
1.83517 75.3264 -13.9289
12.6624 76.5477 18.0906
24.005 96.946 2.70301
20.6666 94.8772 -3.13799
16.1605 91.2533 -9.05019
15.507 80.0041 17.3719
23.7989 96.6165 1.95256
21.0379 94.8501 -2.57535
23.9402 92.9488 11.5936
18.3585 92.9121 -6.5865
19.6508 85.8646 15.6588
13.4501 88.0855 -10.4972
19.6124 85.6744 15.6948
15.8596 80.189 17.3369
24.77 96.5281 4.68948
8.98893 82.8974 -12.2054
23.6709 96.2695 1.43967
17.8589 82.9581 16.3886
21.2899 94.5404 -2.23717
24.4648 94.063 9.28391
5.53756 78.2801 -12.6013
21.1047 87.3826 14.5764
24.4551 94.1071 8.29105
19.6272 92.5591 -4.16952
24.9217 95.4493 5.68786
23.0423 90.0513 12.7706
7.68827 80.1144 -12.1045
17.5138 91.052 -8.04184
24.6124 93.3787 9.19479
13.8054 87.1812 -10.404
14.1153 76.3901 18.0837
5.96583 77.8196 -12.4903
23.7633 95.0138 1.49485
24.2313 95.0618 2.76203
17.9065 90.8815 -7.25773
11.0873 83.7534 -11.555
19.7881 91.8559 -3.95332
19.7492 91.7353 -3.99912
6.26362 77.3862 -12.3965
24.2395 91.0481 11.5082
15.53 87.9927 -9.38801
17.9384 89.9579 -6.62139
15.4891 87.9161 -9.42474
17.2505 79.7042 17.2265
20.0619 83.8223 15.6625
18.9547 90.4459 -4.93346
20.2509 83.7277 15.517
19.6963 82.5234 15.7784
17.7079 88.7047 -6.61402
23.0947 92.7903 0.551284
18.8422 89.3378 -5.15399
25.0291 91.9755 8.31704
6.38036 76.264 -12.6356
10.9138 81.5921 -11.4962
7.83781 77.8053 -12.0594
24.582 93.3412 3.01482
