ply
format ascii 1.0
comment Created by Open3D
element vertex 1935
property double x
property double y
property double z
end_header
-14.8008 134.794 -0.617921
-8.14197 135.206 5.17935
-6.46868 133.946 4.52761
28.6387 116.673 3.90558
26.2469 113.616 -2.79322
-11.9332 130.621 -4.86749
28.2626 114.247 -0.114126
-9.02625 127.588 -7.41267
24.2031 113.04 -5.08419
-17.2973 137.985 2.9683
6.0174 121.067 -6.16612
28.9097 116.055 3.51462
7.40565 128.754 7.38704
17.8691 121.511 3.85737
2.94729 121.904 -7.01778
11.9427 124.53 4.13684
11.5676 117.374 -7.59097
-13.4025 139.424 8.57457
-17.5858 138.846 4.4249
9.1259 127.52 6.85917
-9.53627 127.239 -7.83034
13.2711 122.709 2.49927
-5.86011 132.557 3.55724
2.35506 122.217 -6.69609
-13.8687 133.059 -1.80123
-15.6812 134.655 -0.585852
29.1484 114.708 2.02228
-15.8825 134.694 -0.584154
-16.8021 135.324 -0.221187
8.993 127.364 6.95203
16.3557 114.463 -8.05183
1.06157 123.527 -5.26428
29.154 115.4 3.39505
7.22928 119.885 -6.14727
-9.38278 126.918 -7.64204
7.25143 128.347 7.50695
-1.31818 125.356 -3.89939
12.7934 122.599 2.59493
-13.7876 132.39 -2.19711
-16.321 139.929 7.97632
11.1405 124.97 5.16139
11.3365 116.741 -7.86895
-15.2061 133.722 -1.07746
18.3892 120.921 4.34601
-10.4413 127.023 -8.0306
-16.3854 134.549 -0.516121
-10.9402 127.234 -8.0471
-12.0969 129.123 -5.81115
20.8947 111.872 -8.02876
-11.3545 136.958 7.40919
16.756 120.669 3.10037
0.666498 129.68 5.33208
-0.516885 129.807 4.66029
-14.4936 132.823 -1.20136
14.5603 114.989 -7.3977
-12.6501 127.708 -7.96893
10.6207 116.562 -7.90036
-12.376 137.441 7.8832
9.3964 117.187 -7.66362
24.3209 111.744 -4.69633
16.1127 120.382 2.83979
29.601 113.789 2.66885
-8.62412 134.698 6.7823
-10.9351 126.772 -7.71773
20.5366 121.317 7.81085
4.76239 119.628 -7.02525
17.5711 112.378 -8.74899
-17.144 135.625 1.96758
-4.43846 125.328 -4.69839
-4.72679 125.372 -4.83681
-0.822956 123.672 -4.54381
-14.8109 138.391 8.36368
25.9232 111.767 -2.91452
14.3094 114.238 -7.75157
-17.8873 137.31 4.54941
3.09653 119.472 -7.86297
-13.0285 128.41 -5.92796
17.8612 119.665 3.90499
-5.32688 124.967 -5.43648
9.20794 116.512 -7.60361
4.34791 118.903 -7.50105
-11.5195 135.935 7.67925
-2.9229 124.39 -4.20596
15.0304 113.03 -8.58569
5.40253 127.577 7.33436
-12.7872 127.06 -7.51564
25.2144 118.666 8.33274
-10.5302 135.074 7.11579
-13.0366 128.043 -6.0699
-14.6972 131.885 -1.17625
1.8556 120.087 -7.32966
28.092 115.781 6.13656
4.78932 118.781 -6.98386
28.6668 112.14 0.841129
-17.9421 135.697 2.73979
19.8619 110.583 -8.39803
14.7497 112.9 -8.58205
22.0341 110.471 -6.83753
-18.0264 138.215 6.79057
11.8523 121.863 3.65163
11.3769 114.766 -8.07016
12.4032 114.074 -8.38686
-11.7773 126.387 -7.23246
13.1339 113.517 -8.51561
-13.8046 128.644 -4.95516
-2.49766 129.521 5.25024
-13.2146 127.399 -6.33884
-1.93708 123.295 -4.19086
19.2986 110.47 -8.27046
7.39926 116.693 -7.39824
25.3808 110.716 -2.97633
29.5461 111.724 1.87064
-18.4291 137.758 6.64258
15.1975 119.167 2.7759
4.26994 117.678 -7.95244
18.4857 118.682 4.64002
18.3512 118.604 4.43192
4.80172 126.607 6.84552
-0.340891 121.506 -5.25182
-13.5634 126.617 -7.1763
-14.4317 130.801 -1.06517
20.2812 109.453 -8.52995
-1.15946 122.079 -4.67627
2.51967 126.865 5.86697
20.7805 119.091 7.57546
-13.0478 126.012 -7.38282
-16.915 131.045 -2.24471
-17.2268 137.821 8.4654
-7.2076 130.864 5.04187
27.755 115.234 6.95889
-16.6258 130.738 -2.35623
-11.498 134.421 7.52224
28.7639 114.064 5.92629
-18.6803 136.724 5.74398
21.4056 118.967 8.22682
28.1718 114.685 6.59922
-3.07145 129.299 6.01977
19.1511 118.264 5.46544
4.19328 116.891 -8.24605
-17.396 131.26 -1.83388
1.74249 126.675 5.58799
-14.0435 126.488 -6.80161
3.20102 126.226 6.08843
13.7312 119.093 2.85897
-5.50883 122.799 -5.9945
20.6601 108.516 -8.69519
19.0925 117.986 5.30148
-15.6202 136.873 8.85515
-13.0569 125.903 -6.75049
6.55973 116.237 -7.08298
-12.1747 125.03 -7.39961
-6.15445 122.924 -6.10881
-8.94938 131.467 5.44538
19.0111 117.837 5.14226
21.0705 108.41 -8.39737
27.0023 110.116 -1.0341
10.8866 121.501 4.83309
15.5866 110.938 -8.43604
21.7349 118.512 8.48973
3.02265 125.959 6.02608
-11.1205 124.645 -6.98658
28.7964 110.396 1.0189
3.82417 125.682 6.29212
2.52492 116.948 -8.63139
1.82248 126.056 5.60593
-5.19763 129.09 5.16393
29.3398 110.059 1.26917
9.90418 122.439 6.15571
-12.9637 124.746 -7.74807
-2.65993 128.632 6.43823
14.1587 111.438 -8.17791
20.287 117.807 6.77806
-14.6349 129.676 -1.1077
8.10203 124.317 7.85724
29.276 112.68 5.53008
4.29758 115.886 -8.47096
-13.6748 125.892 -6.25052
15.9572 117.44 3.09429
11.487 120.17 4.03979
25.2324 116.616 9.00839
29.1466 109.695 0.974668
18.8344 108.758 -8.47733
-19.0863 133.817 2.59907
22.7633 108.032 -6.48963
-2.24273 121.196 -4.58239
28.3339 109.612 0.458943
-14.9753 128.393 -2.77257
19.333 108.187 -8.67333
11.7381 119.538 3.72132
18.1752 108.931 -8.30441
-19.1068 134.588 4.12934
-14.0598 135.115 8.89814
5.03005 115.527 -7.80359
-16.2704 128.709 -2.96523
18.2631 116.453 4.1489
14.2955 117.639 2.99594
21.7884 117.293 8.28773
-1.08191 126.988 6.25781
-14.4726 127.407 -3.36963
17.3992 109.092 -8.02986
-13.6979 124.902 -6.60721
6.60495 114.892 -7.00223
27.6938 108.573 -0.863039
29.3016 108.666 0.544596
-10.9256 123.342 -6.82551
2.20307 115.805 -8.78745
24.309 108.143 -3.99487
21.0992 106.95 -8.36509
30.5642 108.808 1.92345
-7.45497 121.91 -6.32166
27.742 108.143 -1.24195
4.28344 124.232 6.50168
-14.5449 126.192 -4.85435
-11.8593 123.341 -7.35601
-9.73754 122.809 -6.5376
-16.9683 136 9.06166
-5.93097 121.249 -6.04655
9.61759 121.716 6.71758
-8.26557 129.14 4.85928
3.61551 114.612 -9.18997
18.184 107.907 -8.57848
-0.54424 118.158 -6.40452
-10.2849 131.119 6.959
27.9966 107.454 -1.47309
-12.0863 122.756 -7.81923
12.3464 111.218 -7.47863
9.64988 112.658 -7.23054
16.3659 108.908 -8.02657
-18.6773 135.897 8.27653
20.7554 116.038 6.92062
-17.849 128.219 -3.29841
-17.2292 127.853 -3.39889
23.6696 107.085 -5.11909
-8.15687 121.522 -6.44166
-13.8324 123.37 -7.84833
-14.8328 125.432 -5.30162
16.415 115.786 3.3388
-15.6239 134.806 9.24111
13.8229 116.841 3.1437
-18.5635 129.438 -1.62327
-2.98283 119.965 -4.78122
4.76161 113.624 -8.97887
0.769247 125.496 7.05269
-14.3621 124.016 -6.98456
9.56694 112.294 -7.33016
-11.7241 122.164 -7.90408
29.4097 106.9 -0.554664
-11.4085 121.947 -7.81677
-3.47147 126.794 6.14162
-13.295 132.174 7.20807
-19.9132 134.367 5.77149
-14.5272 123.988 -6.62662
-19.8098 134.834 6.80735
-15.5877 134.011 8.75966
-2.82978 126.588 6.69066
4.56135 123.122 6.84836
19.3369 106.252 -8.81822
26.3109 106.63 -2.78391
-5.27987 127.251 5.94118
-11.7562 121.617 -8.06717
26.6879 113.54 8.68141
10.6365 111.095 -7.61534
-13.1674 131.589 6.95893
29.8714 106.912 0.590581
-15.8095 133.988 8.81969
-14.7617 124.069 -6.2288
6.32038 122.644 7.75964
13.0649 116.639 3.35895
-14.6043 123.734 -6.59273
6.03664 112.779 -8.19922
-10.3545 129.825 6.51118
-9.61884 121.07 -6.86849
24.2897 115.012 9.57558
22.018 105.476 -7.47624
-1.06352 117.238 -6.22939
12.7893 109.684 -7.63213
21.391 105.28 -8.05522
15.3364 108.309 -7.81053
-17.7057 127.372 -2.67635
7.85751 111.893 -7.66725
7.64576 121.722 7.97082
7.36586 111.903 -7.86282
-0.799128 116.514 -6.76124
18.3816 114.245 4.42053
-9.46491 120.499 -7.01478
-5.83756 126.957 6.17945
-15.0555 123.85 -5.88743
-5.25078 119.316 -5.59795
-13.7383 122.071 -7.65393
-3.41807 118.678 -5.11094
28.1234 111.556 7.83352
25.9122 105.783 -3.11713
29.591 105.434 -0.824473
23.8868 105.696 -4.77958
20.7128 114.145 6.38206
-15.0256 123.784 -5.70595
-19.8029 133.827 6.73051
-16.177 132.926 8.09335
10.3771 110.22 -7.85854
5.95201 111.609 -9.04066
-14.4033 131.459 7.14377
27.5101 112.001 8.253
-7.63781 127.111 5.42876
30.4187 106.571 1.8451
15.965 107.227 -8.21425
-9.28934 127.422 4.72784
6.78773 111.468 -8.44027
-14.7783 125.795 -2.02775
-19.9353 132.322 4.52295
-15.2572 123.745 -5.62558
-10.214 128.701 6.24865
1.21119 113.647 -9.06401
-14.5678 123.595 -5.17627
-3.2398 118.026 -5.34676
-20.0198 130.632 1.97743
30.8898 107.735 4.82808
-11.4235 119.926 -8.23562
-7.9359 119.293 -6.50179
-9.26243 127.078 4.96983
-12.264 129.51 6.66964
-19.3483 126.965 -2.87549
-16.5786 126.33 -1.72723
31.4345 106.647 3.7384
-13.8326 130.419 6.98507
2.11507 122.871 7.18739
-11.1472 119.659 -8.19325
-15.7192 124.011 -4.68051
11.1621 116.95 4.73913
-3.75783 117.806 -5.38019
10.8652 117.276 5.14641
31.1355 107.244 4.79954
25.1474 113.156 9.71453
9.64314 109.407 -8.1804
-18.0747 133.473 9.13575
15.2972 106.571 -8.28354
5.59674 110.044 -10.1903
13.0263 107.729 -8.01662
-4.81328 117.578 -5.83347
15.6292 113.552 3.52425
-0.750571 114.541 -7.46843
-15.6285 125.469 -1.40393
15.5158 113.549 3.52175
7.37669 109.281 -9.59667
-0.842835 114.612 -7.34855
14.2274 106.922 -8.02248
-14.9634 124.687 -2.02172
29.1485 109.471 7.6391
3.47634 121.352 6.91122
22.9465 103.784 -6.20276
25.1146 112.691 9.78197
27.7453 103.905 -2.28543
28.1792 103.851 -2.00427
-14.9662 124.547 -2.01791
-18.6182 133.194 9.05238
-6.32234 117.375 -6.84525
27.7222 110.763 8.81428
28.1765 110.25 8.35103
3.0623 121.494 7.0807
4.51697 121.002 7.41604
22.484 112.775 8.17876
14.8234 106.187 -8.30108
-19.4677 133.396 8.93147
-3.05286 124.651 7.58201
-11.2341 127.565 5.95753
22.8775 103.56 -6.24616
21.0877 112.521 6.80041
-2.61159 124.429 7.64728
3.49494 110.793 -9.45467
1.33401 122.533 7.76956
-3.27477 124.646 7.63798
-18.0337 125.175 -2.72265
15.5936 112.9 3.59002
11.5072 107.229 -8.56169
11.1716 115.675 4.73429
-20.2994 132.029 6.7171
-16.2515 123.503 -3.84148
-0.674799 113.483 -7.90243
15.9021 104.932 -8.66956
-10.398 125.839 4.62073
31.2687 104.032 1.79157
-1.32429 114.261 -6.92696
8.48763 107.795 -9.65871
17.2118 103.901 -9.15493
-16.4532 123.677 -3.37253
-14.8391 123.449 -2.34406
13.9636 105.837 -8.38403
16.9909 112.101 4.0489
-11.019 117.72 -8.53607
2.60092 110.77 -9.18108
-16.0575 122.61 -4.54525
26.5177 111.028 9.7185
20.5749 102.719 -8.14076
9.36597 107.543 -9.00353
-15.3836 129.692 7.46498
26.6458 102.829 -3.18391
-15.3227 121.722 -5.2224
-16.4658 123.394 -3.40945
-15.8374 123.051 -3.46779
31.0479 102.74 0.127415
-1.84173 114.314 -6.66086
25.7428 102.72 -3.98754
-15.5829 121.837 -5.16623
-9.6539 116.896 -8.44061
30.8347 106.469 6.15291
-15.4203 123.117 -2.79672
-15.8132 129.628 7.38478
27.8165 102.475 -2.49217
4.48774 109.066 -9.90048
-7.09821 125.2 7.10451
-15.8505 120.973 -6.36449
15.7854 104.144 -8.9044
24.566 111.53 9.75403
13.601 112.952 3.57805
11.8103 105.768 -9.24987
31.448 103.778 2.74994
31.7249 105.225 5.32031
21.472 111.32 7.24331
-4.81363 115.459 -6.31675
11.0118 114.822 4.8783
-8.68087 116.21 -8.03621
-5.14755 115.519 -6.41372
12.2441 113.714 4.15978
3.01389 109.684 -9.38345
-4.94489 124.328 8.01726
-20.7867 127.121 0.282483
10.8881 114.884 5.08199
31.16 105.76 6.09758
-2.83656 114.254 -6.49592
26.773 110.134 9.73255
-18.0601 130.695 8.15836
28.7477 101.828 -2.05353
-1.93024 113.558 -6.87738
-19.1752 124.41 -2.68163
1.4782 110.216 -9.481
11.1428 105.545 -9.50001
-5.30084 124.291 7.90186
22.9945 101.571 -6.72324
23.1613 111.261 8.9578
27.3725 109.41 9.28142
-7.27916 124.798 7.31012
20.1259 110.904 6.15573
-6.85662 115.572 -7.15613
20.2423 110.885 6.25441
31.8521 102.783 2.23805
-8.02233 124.543 6.47964
-16.1957 129.071 7.48129
-7.98782 124.528 6.61592
19.2108 110.692 5.43543
27.0154 101.046 -3.93128
-18.1658 123.571 -2.54109
11.7533 113.508 4.41461
31.7418 104.851 5.99768
-2.37995 113.239 -6.83216
20.7429 110.56 6.70867
-7.7311 124.586 7.33808
31.8882 101.442 0.780342
29.3087 100.906 -2.03805
22.4719 100.99 -7.15098
20.9194 110.429 6.87304
-21.1801 129.117 4.43493
-12.1147 125.515 5.72275
-16.0354 120.963 -4.588
22.4009 100.901 -7.12059
28.0181 108.14 8.84978
-19.5728 130.551 8.11315
31.5066 104.966 6.53376
-16.2362 121.279 -4.11386
-0.275567 121.441 8.47927
22.6435 110.447 8.54913
-16.0704 120.778 -4.71703
26.1282 100.538 -4.63985
-8.34753 124.044 6.49109
-4.36508 113.925 -6.66222
30.2334 100.547 -1.43542
20.2583 110.181 6.35838
13.2338 111.935 3.77214
21.7716 110.248 7.69317
-15.5329 120.763 -4.20042
6.44997 106.337 -10.3681
2.454 108.6 -9.73221
32.4597 101.781 2.49126
-13.682 117.438 -7.95674
-11.2932 124.456 5.25466
27.8724 100.132 -3.40253
-16.4579 119.006 -7.27443
10.4932 114.189 5.7997
-17.9997 128.951 7.68409
-0.16122 109.677 -9.42512
-11.3649 115.445 -8.76984
-0.773759 110.219 -8.91183
32.6893 101.833 3.47908
-12.8007 124.988 5.55892
22.3732 109.747 8.28865
28.5975 99.8251 -2.81123
4.56651 106.552 -10.5443
-21.1597 126.327 1.35093
32.7046 101.943 3.79361
-12.0226 124.792 6.10889
-19.5508 129.627 8.07204
31.6247 99.8097 -0.28707
-15.4866 121.587 -1.67202
-12.7017 116.134 -8.26305
10.2965 114.057 6.1702
28.4802 99.6406 -2.88299
32.8491 101.304 3.18796
-7.61217 113.656 -8.17342
-15.6607 119.943 -4.28288
8.57816 104.37 -10.5394
32.8576 101.712 3.94653
-17.1528 120.791 -3.95097
-1.92298 120.94 8.05231
32.9165 101.038 3.01481
-2.9099 111.97 -7.07425
-12.9888 116.029 -8.29632
-15.881 120.482 -3.32975
19.818 100.777 -7.39784
3.46235 118.193 7.9899
-3.34805 121.521 8.08722
21.1859 109.039 6.99083
-12.7549 125.411 7.15354
32.5245 103.042 6.20451
19.2927 109.099 5.74558
-1.13235 120.551 8.36958
-9.34112 113.955 -8.53764
23.5986 99.4673 -6.36805
-8.95709 122.956 6.21209
3.59905 106.74 -10.1178
-21.2007 126.699 2.91989
3.16254 118.148 8.04915
30.3982 105.12 8.20121
-21.4028 130.284 8.67442
12.3518 111.299 4.24951
-17.5797 127.832 7.69383
-21.4438 127.996 4.97867
15.3272 109.752 4.09084
-8.27747 113.371 -8.30511
6.05536 105.427 -9.93593
-19.5066 122.883 -1.63155
-17.0804 120.03 -4.25266
-13.6616 124.363 5.34708
-3.71326 121.201 7.97359
-17.8571 127.836 7.76786
-3.15996 111.394 -7.17962
-19.8666 129.144 8.42189
4.54699 105.663 -10.4134
-16.913 117.798 -7.48893
13.9491 101.593 -9.63162
9.8731 102.996 -10.5016
-13.6012 124.447 5.82594
-12.6101 124.913 7.36724
-21.8807 129.218 7.16187
23.3505 108.273 8.4419
29.9749 105.153 8.54992
1.04932 118.871 8.27662
-16.599 120.869 -2.08721
-15.6271 120.555 -1.84063
13.9168 101.492 -9.63076
-12.4759 123.613 5.65317
-16.0545 120.744 -1.61655
-20.352 123.633 -0.253557
-2.05806 109.928 -8.12215
-15.8819 126.662 8.21576
-5.63108 111.626 -7.98952
9.74885 113.628 7.20546
7.10608 115.855 8.78142
7.61063 115.462 8.55506
29.3881 105.274 9.02456
21.9114 107.87 7.46758
21.3636 99.1479 -6.93732
-17.1737 119.528 -3.88411
-13.8079 123.918 5.84403
24.8375 107.505 9.38258
-2.40394 119.75 8.0434
11.0537 111.358 5.00507
-12.9169 124.034 6.87541
10.2115 112.62 6.41467
-16.2186 120.28 -1.67624
9.50354 113.579 7.47232
-13.637 123.326 5.2937
24.8665 98.1982 -5.32256
33.0061 98.2619 1.1023
-17.2166 121.075 -0.963649
-9.37238 122.197 6.9229
26.399 106.963 10.0964
29.3736 104.9 9.08013
-19.21 120.149 -3.91397
-21.3523 128.935 8.5668
23.6604 98.1808 -6.02868
-5.31438 121.08 8.42001
-16.8938 120.386 -1.60788
-16.6165 121.573 0.542581
-1.30877 108.123 -9.23124
9.91836 112.748 6.94534
-16.1367 119.154 -2.8497
-15.3819 119.695 -1.39544
16.8799 99.7606 -8.46435
10.3045 101.735 -10.3491
-4.98339 110.504 -8.03563
-13.9145 123.548 6.03185
15.3259 108.446 4.3718
-21.9586 125.443 2.90698
-0.668853 106.926 -10.3723
-14.5553 123.907 6.2025
32.7989 97.7533 0.773107
-13.7856 123.001 5.46175
33.3048 99.7449 4.47999
31.589 102.301 7.28197
4.58897 116.411 9.11245
14.2265 100.182 -9.48244
-16.2646 125.754 8.07493
26.8211 106.294 10.0836
3.40995 116.688 8.70463
-22.0612 125.354 3.04152
-17.2433 120.044 -1.75281
-15.4918 123.392 4.99727
15.8144 108.047 4.52691
33.3842 99.5831 4.52322
-16.3374 125.67 8.04561
2.2596 105.358 -10.1627
-14.3906 124.282 7.36943
11.4541 100.934 -10.1588
-21.2824 123.296 0.475973
-14.1262 124.136 7.36909
-1.80591 118.801 8.38638
-1.16621 107.016 -10.0318
-3.59594 109.632 -7.63201
33.0865 99.8945 5.07549
32.6547 97.2446 0.511012
-17.3114 119.928 -1.61903
2.57173 104.956 -10.2985
-16.3481 118.24 -3.53275
17.9459 99.1242 -7.57425
-19.4399 119.447 -3.79571
14.0499 99.7364 -9.53775
2.39345 116.742 8.76145
-17.3667 119.862 -1.44779
-17.454 118.76 -3.27903
-17.6856 116.876 -6.44274
-13.7606 113.293 -9.14811
18.8052 98.771 -7.25728
33.8475 97.8016 2.86586
17.3625 99.0281 -7.87877
11.8617 109.469 4.65339
-6.48525 120.955 8.95422
-21.0417 128.126 9.24776
-21.8934 126.889 6.70696
-11.5805 111.775 -9.54779
11.8544 109.341 4.66489
-15.3234 123.359 6.24618
19.951 98.1094 -7.04405
-20.3455 127.642 9.35842
0.840595 117.107 8.81766
-20.2226 119.839 -3.04489
-15.9255 119.511 -0.251725
32.3941 96.5502 0.194101
-15.696 124.018 7.21229
-10.5287 121.701 7.53635
-8.53451 121.255 8.36647
-21.0497 122.035 -0.0247619
-14.6203 122.352 5.44377
-18.123 120.431 -0.305418
-16.173 114.598 -8.13178
2.34853 104.275 -10.3329
-4.85225 119.05 7.94904
-16.769 118.925 -1.42343
-18.2571 120.352 -0.209694
-22.7536 123.921 2.05932
15.3704 107.141 4.55518
-0.0753681 105.125 -10.5647
17.1536 98.4632 -7.76352
14.88 107.133 4.47352
30.0956 102.46 8.71307
33.8182 98.5219 5.28321
14.0915 98.926 -9.1992
-19.5056 118.747 -3.25342
16.193 98.4646 -8.22572
15.8856 106.664 4.71086
20.8523 105.762 7.10883
29.5602 96.103 -1.67014
-17.6511 115.53 -6.91208
32.2535 95.9061 0.188165
-20.5517 127.129 9.63043
-17.1301 120.686 2.02998
13.6922 107.202 4.27119
-17.4309 119.774 0.458145
34.0304 97.7796 4.89323
-4.82171 118.312 7.91298
33.2004 95.728 1.07441
-15.2242 123.798 8.77022
-16.9917 117.513 -2.63901
11.8241 99.1812 -9.82453
-15.9475 122.146 5.69321
-22.2764 126.608 7.97355
21.0393 105.404 7.37823
-12.4715 121.254 7.00573
-5.94587 118.965 8.38564
1.43194 115.978 9.2907
-21.0927 119.631 -2.18229
4.29833 102.961 -9.30708
-14.9732 112.455 -8.93867
3.59954 114.934 9.4743
-7.78488 120.26 9.24321
-0.236005 104.446 -10.2962
-16.8341 124.081 8.4152
-8.99817 120.68 9.01182
-17.458 119.486 0.575988
18.5583 105.431 5.80922
-3.6744 107.049 -8.73564
-16.0419 120.9 3.95814
-5.80725 118.593 8.21064
-8.49991 120.435 9.17797
15.5545 106.087 4.71282
10.6445 99.3743 -9.84194
-7.54173 108.774 -8.75944
-16.0925 121.766 5.65315
-16.9242 113.692 -7.90185
11.1207 108.399 5.24982
-21.5487 126.531 9.14851
-17.7019 120.974 3.23973
-3.41933 106.161 -9.50731
-16.3467 122.945 7.48002
-2.65041 105.236 -10.3268
23.6024 105.125 9.76021
2.64961 102.909 -9.87122
9.42281 110.386 7.40006
9.21355 110.684 7.73311
-3.48514 105.906 -9.70294
32.7578 95.0262 0.807364
-18.2077 121.002 3.19
-0.646255 104.239 -10.1444
-17.4837 119.648 1.63644
-17.5799 115.886 -4.42071
-16.2684 123.219 8.37219
-17.2233 119.581 1.83668
-14.9001 111.613 -9.07782
-18.6578 121.003 3.10213
29.6513 101.717 9.43389
-14.3044 119.847 4.64698
-17.5437 119.967 2.34958
-23.1648 123.349 3.47004
4.38563 102.282 -9.07611
24.5792 104.303 9.77718
0.956629 103.282 -10.0271
7.82877 100.572 -9.04511
12.8916 97.9012 -9.40036
-16.5294 117.364 -0.842415
-19.1997 120.891 2.77843
30.16 101.048 9.03679
-16.3313 120.075 3.71432
20.7202 104.541 7.47013
-18.61 124.675 9.45563
-16.408 120.051 3.76461
-16.7365 120.011 3.49013
-16.9388 121.052 5.0259
-17.8424 116.398 -3.10698
4.83873 113.218 9.33226
19.0907 104.479 6.31746
19.9459 104.439 6.92722
3.25023 113.95 9.38848
-8.41102 119.327 9.03487
-16.6432 122.387 7.6367
-17.8106 120.178 3.21748
19.227 96.1225 -6.80826
-16.4823 116.854 -1.05988
7.72777 111.207 8.61057
7.56778 100.339 -8.92962
9.16001 109.907 7.70956
33.6684 94.0167 1.11623
3.48308 102.017 -9.26136
-6.93648 107.3 -8.80077
-16.3695 121.817 7.26753
28.7735 101.639 9.73274
-12.653 109.732 -9.22822
-17.22 123.374 9.145
33.2504 98.1371 7.58596
4.90855 101.581 -8.74734
28.2612 94.2493 -2.40633
-17.8228 122.068 6.69136
6.91742 100.543 -8.71559
-18.4041 120.365 3.61189
-16.7498 122.13 7.72755
32.1604 99.0263 8.40052
4.48358 112.893 9.35366
31.3027 93.7513 -0.60276
33.875 96.9519 6.51958
26.2881 94.1869 -3.76986
-3.82765 104.633 -10.212
-22.8627 121.523 2.23279
0.933196 102.592 -9.78563
-17.4141 116.541 -1.54159
6.02072 100.979 -8.43505
-12.526 109.429 -9.1643
31.017 99.8363 9.09869
-19.7163 116.615 -3.09588
34.433 95.2349 4.38245
20.7119 95.2853 -6.11972
-16.5556 121.618 7.3981
-1.32149 114.919 8.44453
-9.87955 108.353 -8.65166
3.70431 101.561 -9.03476
-17.597 118.505 1.74199
-22.5092 119.325 -0.724674
-17.4887 119.88 4.10103
-17.9454 119.982 3.96896
-18.4474 114.194 -5.70067
-17.8349 115.642 -2.90133
-18.2638 114.429 -5.01981
-22.0751 125.183 9.30194
-20.4043 124.931 10.1874
34.5542 93.0605 1.52342
28.9348 100.847 9.70681
-20.2953 117.892 -0.904457
-21.9045 125.139 9.51241
-17.6512 123.156 9.64153
-23.3277 122.184 3.72479
-16.7629 111.624 -8.12327
-21.9795 119.12 -0.101006
-13.4478 109.386 -9.09285
-6.98625 106.352 -8.95521
-17.7429 117.482 0.63057
-18.0615 123.366 9.87476
-23.0988 123.324 5.98163
-11.9047 118.872 7.47528
17.6733 103.616 5.81938
-17.6617 117.63 1.09051
-20.5158 118.971 1.04851
-2.87727 103.745 -9.77624
-23.1153 121.088 2.44453
-19.9442 118.018 -0.0106418
30.0704 99.631 9.07923
-19.9805 118.37 0.548349
-0.620818 102.79 -9.4034
20.9554 94.5067 -6.04404
32.2004 92.8267 -0.0550852
23.9897 103.048 10.0457
-6.24516 116.374 8.112
30.8982 92.7452 -1.13898
-0.252447 102.552 -9.42995
32.8826 97.6178 8.23816
-6.64902 116.778 8.49478
34.5775 94.6075 4.74331
-16.6498 118.444 3.60433
19.5141 103.152 6.96265
-9.31609 106.905 -9.24633
23.3322 103.242 10.105
11.0638 96.9476 -9.43333
28.9032 100.068 9.44648
19.3935 94.8054 -6.32543
-11.6335 108.239 -8.61597
-6.20719 115.968 8.02737
-3.83604 114.781 7.98599
-20.41 118.983 1.94721
21.0923 103.001 8.38895
-18.4369 123.079 10.1261
6.29025 99.6472 -8.38557
33.5264 92.1663 0.658443
19.5549 102.861 7.08673
33.2188 92.1473 0.43578
-12.3383 118.252 7.25244
-2.23754 103.017 -9.30053
17.2554 95.0171 -7.06162
34.7343 94.1741 5.08457
-0.576428 113.036 8.22233
15.8831 103.234 5.21901
24.0465 102.34 10.091
-22.2793 118.842 0.844881
-17.469 115.075 -1.42085
-14.1204 108.685 -9.07042
29.845 92.123 -1.68484
-22.8244 123.84 8.58906
9.41813 107.487 7.22271
-18.9919 120.603 6.38164
-14.0125 108.57 -9.06967
-1.86918 102.698 -9.0878
-17.7338 115.581 -0.501605
-20.2005 123.655 10.5645
-20.0805 120.547 5.67726
-19.4425 120.482 6.09081
-6.55866 104.306 -9.91689
13.247 95.5923 -8.6158
33.9738 95.4872 7.22627
2.44537 111.549 8.73908
20.6245 93.6626 -5.93882
21.1376 102.488 8.68822
5.2565 110.442 9.21532
-10.3517 106.054 -9.85233
-16.0195 117.326 3.90849
19.5967 102.305 7.29478
-14.9092 108.589 -9.22789
-19.2595 121.042 7.44756
-18.0052 113.692 -3.34437
22.0694 92.92 -5.72169
-4.78605 103.541 -9.36133
22.495 102.403 9.89075
15.0681 95.0943 -7.54773
30.4174 91.5237 -1.40264
-23.1962 120.137 3.2314
-0.798008 112.248 7.90548
29.4794 91.629 -1.77786
-18.889 122.407 10.3126
33.0266 96.3079 8.48602
-19.8525 118.54 3.44739
12.6887 103.825 4.93958
-7.38746 104.302 -9.76664
6.87562 109.065 8.88416
-8.41701 116.635 9.2372
27.2072 91.9015 -2.96183
-21.7899 118.544 2.00764
-10.9228 106.097 -9.48431
-23.1938 119.271 2.2853
-14.2335 107.773 -9.23792
-3.75313 113.44 7.9468
-15.6932 116.9 4.34003
-13.567 117.131 6.37716
-6.34836 114.708 8.06188
1.34828 111.147 8.34956
-19.435 122.614 10.7324
-21.4769 119.37 3.9618
15.0482 102.718 5.43732
-15.0153 107.919 -9.35489
-19.6913 119.404 5.51933
-8.31547 104.614 -9.41962
-23.3676 121.862 6.75374
12.5856 103.465 4.97834
9.67908 96.0684 -9.11368
4.7709 109.764 9.10515
-15.4156 116.313 4.09617
28.5486 91.284 -2.12252
17.1261 101.781 6.02424
15.2852 94.2874 -7.38307
-11.7091 116.373 7.28848
21.456 101.702 9.34944
35.4132 92.5611 5.4659
24.7682 91.4518 -4.46065
-21.4303 119.476 4.89572
-19.3952 121.977 10.5064
18.1298 93.4705 -6.2615
-6.30896 103.304 -9.31916
22.7312 101.427 10.1689
-8.36848 104.236 -9.25535
-6.91375 103.449 -9.27543
-4.38462 113.002 8.02431
-17.2719 115.542 2.19315
17.8103 101.309 6.4868
-4.59378 113.026 8.0136
-18.1377 110.372 -6.67434
17.3209 101.338 6.23042
-17.7966 114.871 0.858998
33.2263 89.9549 0.237425
-6.49418 103.171 -9.18922
21.1038 101.351 9.21751
21.3613 101.361 9.43739
-21.5679 119.612 5.7467
-0.255641 100.354 -8.70375
35.5444 91.9387 5.4427
-11.525 115.255 6.59369
-15.708 107.841 -8.4439
22.5806 100.988 10.11
35.8221 90.9965 4.35491
10.5779 104.384 6.54271
13.7745 93.89 -7.78989
-23.2574 120.852 6.92029
30.8291 96.1779 9.15277
32.2659 89.5529 -0.355798
-19.4001 121.037 10.3169
-4.88407 112.65 8.07482
-5.61588 112.921 8.00283
27.9606 90.2974 -2.39608
3.57136 109.103 8.98256
15.9753 93.1917 -6.9592
-18.6775 113.09 -1.70711
35.2634 92.2804 6.56278
-12.6264 114.337 5.0227
13.8096 102.004 5.62943
8.65391 95.5061 -8.75043
-10.9371 114.218 6.18443
-6.9385 102.915 -8.84777
-11.0318 114.181 6.11588
35.6752 90.7437 4.55871
22.8424 100.442 10.2527
22.1354 100.57 9.9226
34.4186 89.0448 0.90457
-11.9472 114.183 5.55924
-3.70396 111.858 8.19787
-19.0361 111.228 -4.51325
-10.7238 104.097 -9.54067
-11.445 113.651 5.24944
8.76659 105.608 7.96574
-20.917 121.704 10.9261
-19.6806 120.382 9.78507
1.37392 109.443 8.48725
-13.1887 113.525 3.86666
18.3988 100.346 7.08344
-11.1461 113.652 5.68108
14.1907 93.1926 -7.60571
-12.4849 104.935 -9.24106
28.966 89.5607 -1.9197
-17.3729 113.582 0.886842
-17.2895 108.315 -7.49401
-15.4981 113.16 1.8172
-20.8409 120.189 8.99374
-18.9171 112.363 -2.07929
-2.64314 110.704 7.81943
-22.777 119.493 6.39516
14.1669 101.319 5.82871
19.3553 91.771 -5.48121
-18.6849 110.081 -5.43408
28.6089 96.5772 9.3841
19.3309 91.7282 -5.48112
-20.4867 117.61 5.33842
34.3366 88.4213 0.81853
34.8696 92.1528 7.28472
14.7807 92.5683 -7.37932
-2.45974 110.242 7.70027
10.4874 93.7252 -8.74923
35.3912 90.6665 5.6071
-20.9957 119.744 8.77631
24.7307 98.426 9.90595
10.2123 103.481 6.94872
21.6758 99.8541 9.98374
19.7072 91.2665 -5.31531
15.3627 100.295 5.82854
28.6036 89.0679 -1.96415
-20.2973 120.686 11.2876
-13.4159 111.901 2.52273
-22.7165 117.565 4.50592
29.2544 88.8055 -1.53908
18.4685 99.5668 7.45044
28.4622 95.9861 9.52333
13.0635 92.6095 -7.67663
36.2459 88.4694 3.64194
-9.59807 102.582 -9.05476
-2.8725 109.76 7.74617
-18.6413 111.431 -1.61134
-7.36156 112.331 8.56711
4.31671 96.9048 -7.17788
-11.4242 112.579 5.83351
13.9048 92.0931 -7.40373
-10.6992 102.674 -9.37975
19.1772 99.2328 8.1455
-14.62 111.547 1.83854
0.49393 98.6121 -7.22877
-13.8037 104.402 -8.92124
5.63588 95.8448 -7.64874
2.79707 107.357 8.7156
-8.11749 101.837 -8.54459
23.8532 97.9195 9.85718
-13.8924 104.363 -8.90131
-8.41634 101.864 -8.65434
-0.192181 98.7116 -7.36316
6.77963 105.15 8.35019
17.4405 91.048 -6.02271
4.37901 96.5821 -7.13636
-18.5945 108.35 -5.88392
2.32534 107.349 8.65486
-5.44469 100.787 -7.77597
-4.28493 110.257 8.32328
1.99891 97.6766 -6.94981
15.4864 99.3297 6.1194
-20.889 118.442 8.85904
28.0541 88.1596 -1.83051
-22.6117 118.192 7.28546
5.28121 95.5935 -7.44816
-12.7444 111.027 3.50602
-18.3595 110.818 -1.09038
-20.5163 116.679 6.69993
36.5683 86.7656 2.73979
-20.7648 117.126 7.24279
34.2658 91.4006 8.41441
23.0882 97.7788 10.0405
-13.4724 110.502 2.2794
-16.1344 105.383 -7.97493
36.1073 87.7731 4.11046
-22.2662 118.821 8.98771
22.9833 97.6626 10.0866
1.38568 97.477 -6.83368
21.7789 98.2361 10.2289
-5.67692 100.032 -8.03015
6.70898 104.184 8.19832
28.7253 94.505 9.65129
11.9243 91.6286 -7.89553
19.7575 98.3998 9.01512
-6.84997 100.347 -8.3753
-3.75173 99.4274 -7.45215
-14.2095 103.113 -9.55563
-24.1064 119.114 8.50004
-13.5926 109.932 1.9269
-23.8606 118.789 8.22749
-3.46081 99.1824 -7.49367
-11.4721 101.673 -9.64177
-7.00598 110.607 8.18841
9.35115 102.31 7.51108
35.7968 87.769 4.64579
-14.4778 103.144 -9.45628
8.15201 93.1226 -8.0649
-18.3146 109.921 -1.5106
-3.39702 108.431 7.87012
-13.2357 109.684 2.29718
26.7595 87.5903 -2.27599
-17.0845 110.125 0.0742222
36.0026 87.3188 4.45807
26.403 87.5902 -2.48207
-0.485463 97.8253 -6.78638
3.11794 105.531 8.36313
-23.0417 118.815 9.51203
-11.1153 110.961 6.28355
-8.87507 100.222 -9.21211
10.4466 91.4531 -8.34688
7.57899 103.195 8.34989
1.60221 106.031 8.29708
29.1131 87.0494 -0.939208
4.42127 104.65 8.2866
-20.7409 116.458 7.82633
-8.9374 111.407 8.85541
-9.46584 100.157 -9.5367
-17.2426 109.636 -0.298358
-8.50723 99.9473 -9.05968
-12.0865 101.206 -9.79186
0.334673 106.206 7.82143
24.8835 95.7924 10.122
-15.1429 109.273 0.893456
21.6407 88.3703 -4.27405
34.9585 88.4639 6.2159
-17.0693 109.456 -0.219251
-14.5837 102.441 -9.54841
-4.24122 108.518 8.23565
5.7987 103.747 8.33617
5.59025 103.834 8.33921
-22.6846 118.612 10.2443
8.38726 92.2775 -8.04329
4.51045 94.8059 -6.94346
4.31436 94.9383 -6.86056
13.3156 98.6691 6.09071
37.3453 85.974 4.28584
-1.87325 97.8669 -6.84521
25.7061 87.1599 -2.71576
-7.1449 99.1675 -8.75403
16.4947 89.5302 -5.9811
-14.3588 108.53 0.758682
20.1541 88.5014 -4.70649
2.64823 105.005 8.37703
-8.85027 110.828 8.86722
-7.01628 109.64 8.39056
-4.94251 98.7019 -7.51478
-17.3335 108.868 -0.741696
-8.35309 110.402 8.6529
-18.4065 108.147 -2.70563
29.8908 86.3334 -0.426587
-17.3815 105.068 -6.72576
-16.2993 108.429 -0.419794
1.52466 105.162 8.17436
3.90134 94.7548 -6.67815
-12.0613 109.884 5.34905
27.939 86.486 -1.27988
-7.51441 98.7538 -8.9418
-6.56709 98.5578 -8.46322
-14.5985 107.807 0.186294
25.085 86.8421 -2.82281
-13.0582 108.659 2.78115
29.2224 91.9529 8.61006
-12.3167 100.378 -9.89058
9.0497 91.2334 -8.05886
-6.355 108.93 8.57975
27.7025 92.7152 8.83584
26.2658 93.6664 9.27117
-16.3441 103.512 -7.77252
15.4121 97.1895 6.61373
19.174 96.8955 9.07573
33.1619 90.1003 9.04915
-13.3631 108.182 2.2409
21.102 87.5583 -4.26054
20.7344 96.7797 10.2976
19.0241 88.095 -4.86592
1.86312 104.44 8.18972
-16.3831 103.255 -7.75075
-5.43049 108.104 8.53789
-3.3808 106.601 7.80761
5.97913 102.542 8.54259
16.0258 96.695 6.92453
4.64423 103.109 8.50756
-9.93237 109.741 7.95215
25.5779 93.5195 9.33725
8.31215 91.0734 -7.84602
-15.4569 106.943 -0.696824
31.0016 85.1284 0.145708
-17.8192 106.865 -2.61116
24.9555 93.8166 9.53933
-5.73693 107.9 8.57313
27.9398 85.6793 -1.08762
16.422 88.3554 -5.67288
12.6049 97.4431 5.99448
19.1727 87.5359 -4.78458
-18.859 105.527 -5.20642
23.8074 94.335 9.75668
28.4398 85.5015 -0.835074
32.0364 84.6175 0.536364
-4.4991 106.93 8.1804
7.80863 100.773 7.84188
6.38397 92.138 -7.10669
34.2763 84.2163 1.72023
-10.7128 109.156 7.08315
14.2961 96.7348 6.47935
36.3134 86.7547 7.45672
31.2175 84.6119 0.267362
36.3393 86.6529 7.54217
38.4624 84.4547 5.71344
16.4731 96.0016 7.36105
25.9814 85.5914 -1.98871
3.90511 102.652 8.39694
-2.69042 96.573 -6.43859
21.2191 86.6055 -3.96624
30.777 89.9524 8.83761
-18.6551 105.467 -4.31198
30.4657 84.5019 0.00632664
9.72586 98.6098 6.65194
30.9599 84.3182 0.19808
1.46529 103.265 7.88478
-12.1154 98.9185 -9.4824
5.80302 101.589 8.65306
8.86114 89.8099 -7.82929
-16.3391 105.842 -1.53761
23.1515 85.9429 -2.92769
16.3788 87.6037 -5.48411
13.3877 96.4178 6.35312
26.4832 91.5437 8.65458
24.9069 85.4952 -2.20812
21.511 86.1604 -3.74075
29.4447 89.7737 8.18698
-16.4796 101.856 -7.81107
10.965 97.2145 5.93111
-6.56313 107.346 8.67159
-0.481554 95.189 -6.08684
22.4847 94.2971 10.2334
-15.5904 101.002 -8.35641
37.4061 83.5079 4.4621
-7.28898 96.9597 -8.31942
26.1532 84.9338 -1.72817
-17.6652 104.552 -3.98109
26.6139 90.9829 8.51014
11.5545 96.6455 5.99923
29.0722 89.5465 8.1976
-10.9616 97.9158 -9.22645
26.9931 84.5683 -1.25562
0.710702 94.0729 -6.06021
13.9889 95.6069 6.7642
-9.25222 96.7632 -9.28304
7.08441 90.2129 -7.13882
0.0210541 94.3055 -5.99466
1.91985 93.2485 -6.22057
27.1343 84.2922 -1.13067
33.9732 87.6174 9.59172
3.52636 101.398 8.21984
-10.5176 97.1438 -9.23476
15.3512 86.8904 -5.72986
30.2914 83.3423 0.119952
5.08063 91.269 -6.56999
4.94066 100.824 8.67418
15.2962 95.0095 7.33549
10.7717 96.3979 6.09106
17.467 94.6036 8.38298
10.6915 96.413 6.10241
14.2428 87.1283 -6.0399
19.1026 94.6689 9.82239
34.5028 86.9822 9.36816
-15.6336 105.49 0.394339
34.5795 82.889 2.89394
23.459 92.3514 9.50958
34.3788 82.8998 2.77981
12.4749 95.6558 6.35704
17.9315 86.061 -4.82396
20.9465 85.3174 -3.67745
34.3048 82.8793 2.75755
29.8747 83.2525 -0.0439414
-12.9166 106.747 4.65273
20.8451 85.3103 -3.6943
-10.7055 97.0049 -9.26385
-4.45437 104.853 8.22044
-18.7413 103.54 -4.86448
35.816 82.6741 3.77303
25.0573 90.9719 8.80684
24.349 84.5696 -2.00063
24.0264 84.6172 -2.08004
-7.50644 96.0441 -8.05318
19.9697 85.3686 -3.88578
36.1022 85.4081 8.64572
15.1084 94.7072 7.39469
2.96604 100.993 8.12612
-18.1281 101.679 -7.01061
-14.1176 105.932 2.91342
-17.1845 100.809 -7.60842
20.2883 85.1917 -3.75611
12.56 87.2533 -6.37382
-17.7818 103.381 -3.88396
16.6198 86.0472 -5.16004
5.63738 90.2791 -6.82828
-13.8905 98.1099 -9.28388
-15.3018 105.329 1.2221
8.62576 88.4168 -7.44374
20.5587 93.6443 10.1848
0.858315 93.05 -5.90653
-17.7555 101.132 -7.25188
7.818 97.8924 7.28954
-9.98789 106.04 6.77612
-10.7604 96.2283 -9.42112
18.6312 85.2564 -4.32923
-17.164 104.098 -1.69553
39.0131 81.7171 5.78467
23.805 84.1389 -2.04245
38.5951 82.0884 6.1365
21.5128 84.4496 -3.22787
2.8176 100.539 8.20836
-9.13965 95.5838 -8.92409
1.62659 92.0454 -6.16318
-12.6738 105.72 4.80608
-8.29477 95.4144 -8.28614
28.9992 82.5775 -0.109588
35.878 84.5235 8.37416
-16.3645 98.9071 -8.8168
-7.42614 95.2401 -7.75754
-12.5731 96.8777 -9.03534
-17.4354 99.7405 -8.15005
2.43786 100.354 8.18115
19.3382 93.4001 10.1195
-8.6377 105.278 7.67062
29.2523 82.2788 0.090005
-2.24786 102.036 7.51629
2.03248 100.343 8.10664
2.1525 100.286 8.14351
24.7064 89.7508 8.66134
5.08327 89.536 -6.78979
38.4278 81.885 6.70712
-12.4109 96.4733 -9.00083
5.67522 98.6949 8.52673
8.91297 87.1249 -7.43735
21.7779 83.8152 -2.75953
23.9718 89.9667 8.90264
16.7272 84.8252 -4.91998
35.2016 84.2097 8.37869
2.57542 90.8044 -6.19339
33.7193 85.0727 8.69674
-17.1949 102.403 -2.7158
15.3705 93.3978 7.98743
-3.50916 93.1889 -6.89219
37.1007 82.3815 7.15363
-7.09681 104.372 8.39776
9.52731 95.1663 6.45874
5.82011 98.1384 8.38364
-6.03912 94.1879 -7.05569
-12.0255 104.319 4.6602
29.9603 86.266 8.09145
12.3759 85.8362 -6.14793
24.9799 88.8314 8.40293
17.5558 92.7926 9.07302
10.3466 86.2091 -6.99768
10.1288 86.236 -7.09541
27.7513 87.0163 7.8362
-12.3679 104.091 4.36541
-7.57308 94.251 -7.70698
33.181 84.6061 8.33018
18.2417 92.5629 9.57844
-16.55 103.175 -0.222861
30.5527 81.2454 0.923713
36.2222 81.4092 5.59265
-11.3412 103.742 4.859
-18.9375 100.849 -5.61206
18.6672 92.4462 9.93195
-14.8687 103.652 2.20335
13.1638 93.2478 7.13346
-11.7502 103.595 4.55519
32.6367 81.0409 2.60372
10.5816 94.0792 6.54116
20.6621 91.4038 10.1276
8.88474 86.2788 -7.18114
10.2274 94.1029 6.54646
-16.9493 97.6412 -8.70027
18.6556 83.7125 -3.57031
1.16651 99.4252 8.1532
-8.19968 103.531 7.56359
-9.17059 93.9415 -8.49755
37.1384 80.8971 6.34812
19.4262 83.3117 -3.40913
-10.9046 94.0489 -9.54435
25.6931 81.8266 -0.923178
31.4415 84.5496 7.89031
2.85862 98.7075 8.61836
31.4898 84.4683 7.87619
6.96662 86.9317 -7.0682
-10.0248 102.924 5.70961
-16.1663 102.39 0.130648
-3.20446 91.8757 -6.74059
34.9807 82.2166 7.22858
-15.5229 102.572 0.957751
17.399 83.6267 -4.01821
28.6484 80.938 0.360728
28.5638 85.6314 7.8671
18.2879 91.8675 9.99206
19.8972 82.8334 -3.24154
18.2991 91.8546 10.0056
25.2227 87.301 8.08661
11.2454 85.0277 -6.33356
1.221 98.8743 8.24404
-8.50548 102.834 7.20133
0.363156 90.591 -5.58937
-11.9563 102.763 4.45172
15.8018 83.5767 -4.90796
-8.81316 93.2801 -8.27062
36.485 80.6668 6.43408
9.35662 85.4514 -6.79742
-9.10761 93.3128 -8.42328
32.25 80.3944 2.79343
7.49776 86.1772 -6.93121
11.7888 92.6566 6.78394
22.1264 89.2554 9.30203
29.9234 80.345 1.02038
13.6231 84.0231 -5.6143
23.2051 81.8934 -1.59668
-6.05681 102.036 8.16882
-5.23227 91.6371 -7.78093
-5.90821 101.894 8.16373
-12.2669 102.503 4.2578
17.5137 83.2012 -3.71732
21.8723 89.2664 9.38351
-11.8362 93.5711 -9.64139
-14.4473 102.22 2.31656
30.7804 80.0421 1.67209
-3.15481 91.0478 -6.83524
-8.70194 102.197 6.8069
-4.21046 100.971 8.3433
32.0976 83.091 7.70099
-0.618749 98.8647 7.94509
-17.3764 96.6413 -8.50527
3.20694 87.9913 -6.29475
-8.81912 92.5152 -8.27171
8.47818 85.21 -6.56947
10.3157 84.279 -6.54661
-16.4853 101.152 -0.0744617
19.6415 82.0101 -2.89575
10.8242 92.246 6.76894
-18.1747 97.3099 -7.45903
33.6393 81.4384 7.05214
-15.6291 101.18 0.750287
21.6651 88.5639 9.29242
-15.4775 101.057 0.926839
-9.91029 92.3 -8.81742
1.74509 88.6504 -5.58468
25.1067 80.5326 -0.558524
5.04645 95.8308 8.53649
-12.9652 101.569 3.86013
-15.4157 100.96 1.00854
-17.5551 100.347 -1.62513
-17.659 100.209 -1.91828
15.214 82.6711 -4.65638
-9.58654 101.09 5.78721
14.5921 82.7318 -4.91949
-1.6491 89.7699 -6.12285
23.3955 86.8027 8.45345
-3.85139 99.7289 8.26687
15.0318 91.0934 9.01934
27.4328 84.1345 7.58563
-3.91337 89.5834 -7.82592
-11.0335 100.966 4.98327
-13.0741 92.8615 -9.51504
-2.59255 89.5594 -6.58666
4.25732 86.3516 -6.41474
-3.19547 89.4548 -7.18048
23.4103 80.4414 -1.05772
27.5185 79.2289 0.185629
18.0556 89.7992 9.9167
33.3407 79.9129 5.94436
-18.303 98.4139 -4.19792
-5.49561 99.8131 8.03316
19.4078 88.9352 9.80967
-8.20357 90.3384 -9.23395
-12.1634 100.638 4.26333
-5.64611 89.4637 -8.63938
-6.6282 100.122 7.79262
28.2512 83.1479 7.49022
11.6974 82.7763 -5.84808
5.20362 85.5833 -6.34702
8.43332 84.0777 -6.25093
18.4465 89.2944 9.87637
25.8135 84.2052 7.4847
28.698 82.7361 7.44278
25.9397 84.0676 7.47508
10.8267 91.1274 7.15242
5.23515 85.4268 -6.28738
23.388 80.0345 -0.933228
23.8843 79.927 -0.715119
-3.39758 88.8451 -7.44435
-6.93963 89.3768 -9.26943
-3.23768 98.4039 8.10461
16.4345 89.9214 9.72884
-3.89084 98.7344 8.23917
27.3825 83.2045 7.44434
-15.9887 99.6546 0.442252
-18.5451 97.5013 -4.9287
-10.9711 91.0074 -9.4834
29.4387 82.0542 7.36498
19.0523 88.5045 9.77616
0.192756 88.0596 -5.47426
-18.3967 95.6574 -7.55146
12.5776 90.3849 7.95982
-3.20821 88.4756 -7.2291
31.517 80.0923 6.15555
-11.2047 99.7348 4.74913
16.8165 89.3085 9.66729
-12.8208 91.7274 -9.26146
-15.7493 93.3781 -8.84909
20.6845 87.1426 9.2521
18.2603 88.5876 9.71192
14.7943 90.1234 9.54728
31.0347 80.5652 6.76468
-8.77647 89.5932 -9.44474
27.1624 82.7787 7.3848
-15.4928 93.0937 -8.87499
4.00215 85.4583 -6.08558
28.997 78.1497 1.51186
-7.50951 99.1149 6.99573
-3.36437 88.1511 -7.31509
-7.18135 98.9361 7.11793
-2.2684 88.1147 -6.37513
26.7161 78.0226 -0.16442
7.27579 83.6004 -6.19408
25.5507 78.4937 -0.252512
12.8911 81.6868 -4.86557
-18.3952 97.2801 -3.86143
0.499848 95.7907 8.34179
19.4012 80.3273 -1.88363
5.41045 84.4932 -5.94191
16.0939 81.0943 -3.15253
-14.6347 99.0724 2.05056
-14.8788 98.9151 1.76296
-0.789945 87.3199 -5.91928
-11.5391 98.7729 4.19499
10.9303 90.0506 7.53145
17.2658 88.2397 9.5165
-18.6308 95.3809 -6.70324
30.0245 80.3828 6.79092
16.8038 88.4002 9.46053
18.877 87.385 9.5139
-18.4854 94.89 -7.07018
-7.79726 98.1444 6.44847
11.793 89.6342 7.91947
-8.23281 88.4296 -9.35757
10.4931 81.7698 -5.57283
-9.83654 89.3289 -9.07207
-4.24885 87.0917 -8.316
22.4621 84.4901 8.23637
5.85238 92.2587 7.97432
-12.4032 97.9658 3.09705
21.2791 85.2706 8.77924
4.88505 83.9333 -5.93448
-9.66466 97.5814 4.76017
-9.49932 97.5429 4.85019
8.89553 81.9107 -6.00063
-18.7893 95.1998 -6.01331
6.13559 91.9006 7.92492
-6.20006 87.5733 -8.498
11.8393 81.1561 -4.83913
-15.8066 92.1792 -8.46303
24.7085 77.8248 -0.18951
25.4786 82.1121 7.34897
-5.42927 87.0758 -8.49072
-12.1156 90.0561 -8.81898
-11.3117 89.6105 -8.80929
2.73918 93.6455 8.53686
23.5249 78.0866 -0.393466
24.8976 82.2918 7.41707
4.84045 92.2109 7.89077
4.85906 83.5402 -6.0069
11.4933 89.0876 8.05392
-18.2443 93.524 -7.71772
28.2708 80.3798 7.11453
-17.6456 96.158 -2.96717
-16.8405 96.6977 -1.46929
1.00136 85.4653 -5.61451
-7.32964 87.5076 -8.64464
-13.8004 97.4646 2.34282
23.3587 77.8848 -0.407193
10.395 89.1104 7.65247
0.146281 94.2561 8.07438
-10.9766 89.2273 -8.55693
-4.06569 86.1211 -8.15968
-14.7373 91.092 -8.38714
14.3216 88.0046 9.10289
8.97464 89.4839 7.36545
16.0299 87.0551 8.91501
-3.4566 86.2604 -7.36926
-18.3894 95.3228 -4.31442
-1.05158 94.5884 7.96674
-11.8224 89.5319 -8.40192
-11.4381 89.3346 -8.41052
-8.13401 95.8533 4.68052
-6.78547 95.8466 5.81207
9.23332 89.1838 7.47895
-4.34484 95.2483 6.7403
-12.3166 89.6682 -8.25061
-4.42517 95.0219 6.50467
3.42085 83.5807 -5.75486
19.0519 85.1535 8.91159
18.2424 85.6101 9.03204
-3.03816 95.1288 8.0399
0.205846 93.593 8.1476
-10.3297 95.1922 2.8751
16.7639 85.9062 8.90673
-10.7188 88.5878 -7.95779
23.3588 81.8252 7.48054
2.44969 92.3089 8.18733
19.8016 78.3161 -0.833857
-14.8208 96.1836 1.2255
7.11247 81.0664 -6.04388
-18.428 92.47 -7.44575
-13.5878 95.9683 1.97206
-10.6512 88.3116 -8.03251
17.0228 78.9179 -1.69756
-6.83697 94.1712 4.41268
-7.47719 86.6585 -8.07325
-15.8376 95.383 -0.512861
1.10087 84.073 -5.58998
7.00468 89.427 7.56261
-13.2896 89.6444 -7.67387
27.4684 78.5532 5.99818
22.4092 77.0883 -0.182178
-5.50187 94.0019 5.4479
23.396 81.342 7.42607
-6.99114 93.9022 4.14982
-9.32677 94.1335 2.73181
-11.7818 94.9228 2.11828
-8.11923 93.8857 3.34368
-15.6501 95.2548 -0.202201
11.6019 87.7353 8.75502
-5.29897 93.7616 5.3932
-7.47697 93.7376 3.7044
21.1116 77.4191 -0.392654
-13.1876 95.1999 1.72016
-5.5312 93.6928 5.24084
14.3903 79.1441 -2.69489
2.13739 83.1561 -5.66031
4.31188 90.4961 7.7983
-2.82372 93.6436 7.35185
9.03928 88.143 7.90016
-11.829 88.3566 -7.84398
-11.9575 88.4079 -7.79325
0.369386 92.4855 8.28184
9.22851 80.0347 -4.83531
-7.70065 93.2295 3.28307
6.10721 89.2435 7.54925
-10.3909 87.0662 -8.61199
14.8709 85.5867 8.51057
0.197828 84.0115 -5.33529
19.7709 77.3169 -0.596288
-11.8165 93.8662 1.6154
-11.0297 93.585 1.84447
-16.8655 93.677 -2.50581
-7.1033 92.6953 3.46691
8.58915 87.9662 7.99299
10.2916 87.2957 8.23281
-0.447152 92.4172 8.17592
-17.0132 93.2276 -3.16681
-0.428379 83.8135 -5.31539
-4.37163 92.4819 5.56581
16.4827 77.9475 -1.6074
-13.6991 88.989 -7.10683
2.1528 90.722 7.92985
-15.4766 94.1907 -0.0926804
-8.19941 85.8889 -7.77767
-4.69966 92.0077 4.79391
-3.93695 92.2817 5.84581
-17.7264 90.8799 -7.02589
1.63518 90.8183 7.88252
5.05663 89.0046 7.69545
-12.7276 93.2958 0.870167
-10.0328 92.576 1.8376
-6.62726 84.9028 -7.73955
-5.7104 84.2315 -8.10676
-11.5722 92.8402 1.24936
10.3438 79.0481 -3.94359
-6.69808 91.5443 3.13301
-14.4616 88.9811 -6.9615
-17.0559 92.2852 -3.58483
-11.1507 92.4924 1.30616
-3.78111 91.5293 5.46158
24.094 78.9718 6.8251
-11.0196 86.2155 -8.61375
9.21421 79.1308 -4.35199
16.9236 83.3844 8.43724
2.49497 90.0865 8.06541
10.975 78.7487 -3.57117
13.3884 84.8556 8.09045
22.8482 79.6261 7.07365
-0.42251 91.2611 7.85936
18.1465 82.3778 7.96264
-13.8215 87.9977 -7.53377
25.5942 77.2591 5.66794
-17.2889 89.8656 -7.09886
-6.56307 90.8141 2.77236
-15.7714 92.8883 -0.862298
11.4923 85.7523 8.7259
25.2932 77.1298 5.63225
-17.7897 91.287 -4.87282
10.9858 86.0518 8.97026
-9.08474 91.1357 1.75246
22.3855 79.299 7.03445
-18.7351 90.8673 -6.02008
21.098 80.0204 7.30906
3.63779 80.0362 -5.95467
0.0270409 81.6385 -6.13533
4.25448 88.3861 7.99815
-11.697 85.7508 -8.4336
11.0577 78.0996 -3.13206
-3.70793 89.806 4.28428
-14.7636 92.5763 0.236157
-5.16791 89.7098 3.1438
10.134 85.819 8.86356
-17.4276 89.0558 -7.17425
10.3465 78.0578 -3.36074
14.2834 83.2796 8.06116
14.8835 76.882 -1.71288
11.3716 77.8032 -2.85731
-2.35662 82.594 -5.75189
5.32187 87.6073 8.24664
0.472164 80.7189 -6.5106
-0.83785 89.6731 7.01287
7.6558 86.4031 8.32457
-3.40486 89.1478 4.22547
3.09235 88.2763 7.95365
4.90821 79.2486 -5.09339
17.2153 81.1998 7.53312
14.9875 82.4775 7.89711
14.2847 82.7984 7.96739
-14.1878 91.5041 0.0401679
-4.396 88.7118 3.29192
-13.419 91.0062 0.0381264
3.96167 87.6781 8.15778
-5.46017 88.7028 2.6154
-18.3711 90.0971 -5.06946
6.81405 86.0004 7.78917
5.12826 86.9613 8.04394
-4.11073 88.5125 3.42062
-13.3593 85.8522 -7.88978
7.92467 78.0177 -3.97604
-6.89581 88.6934 1.79373
1.16049 88.4352 7.64728
9.50754 84.6246 8.01364
-18.3937 88.5159 -7.21921
18.1041 79.9463 7.25398
-5.42229 82.0076 -7.57201
-1.72675 88.1975 5.27155
19.1546 79.312 7.14253
-1.34595 88.1392 5.50813
14.5972 81.6625 7.46528
-2.27055 81.5409 -5.7251
22.7607 76.5655 5.59979
7.11526 85.2546 7.51284
-8.16524 88.5977 1.11215
-4.59521 81.99 -6.61301
-12.3694 84.5881 -8.34329
3.74204 86.8659 7.77819
17.3004 79.907 7.18124
-18.0794 89.733 -4.32607
1.98065 87.3053 7.29722
21.2909 77.3201 6.23219
-18.1152 89.6682 -4.34369
5.55255 85.3423 7.26205
-3.00431 87.4567 4.0607
4.74732 85.7 7.29084
-7.41119 82.5832 -7.01784
-10.9317 88.9159 0.441781
-1.13149 79.941 -6.34391
19.3685 78.0909 6.83046
-17.8132 89.3078 -3.84744
-3.47985 80.9543 -6.11864
-15.1756 86.0067 -6.82968
-3.92481 86.7377 3.04455
-13.9109 84.6105 -7.83872
-18.1494 88.4391 -4.96332
12.8643 81.1599 7.33943
-0.839393 79.557 -5.71236
9.57029 82.4524 7.00989
2.63208 78.7186 -4.32666
-18.0137 86.9438 -7.01812
2.52673 85.7577 6.92968
11.0848 76.0601 -1.80121
-14.958 84.6296 -8.10434
12.8151 80.804 7.20246
-3.40265 80.1888 -6.29337
-9.47405 87.0839 0.205044
-1.548 86.2086 5.04319
-1.14121 86.1983 5.38606
1.45227 85.7702 6.84667
6.19537 77.0284 -3.32601
7.63472 76.485 -3.04387
-10.0997 82.0362 -7.74426
-10.7608 87.0919 -0.127294
-10.4517 82.2727 -7.60008
1.81143 78.4408 -4.04609
0.784501 85.1633 5.99622
-16.2829 84.3085 -8.49026
-1.6767 85.3207 4.40522
18.7827 76.8321 6.5692
-8.39854 81.2975 -7.22107
10.8265 80.8354 6.90637
-17.5483 87.5843 -4.05372
-17.7654 87.5785 -4.17166
-4.14554 85.3498 2.78818
-11.4479 86.8341 -0.402843
17.606 77.2649 6.67167
-3.96091 79.4504 -6.41546
11.8316 80.126 6.89436
7.27102 82.3768 7.03149
1.87787 78.1357 -3.8825
-16.8938 85.0443 -7.25326
1.3601 78.2866 -3.96654
-6.10757 85.3529 1.64848
14.6926 78.455 6.67051
3.06528 84.0791 6.73163
-3.85295 84.9573 2.94918
1.26478 84.17 5.64846
-12.504 83.1016 -6.64629
14.4308 78.4023 6.61162
12.4962 79.259 6.53179
-9.44651 81.2659 -7.15641
-13.8716 82.8752 -7.97012
-6.63403 79.864 -7.1495
0.517645 84.0532 5.1196
0.550176 83.9924 5.12104
16.5262 77.2676 6.66303
-15.8984 86.9466 -2.7374
-12.8519 83.0413 -6.53319
6.90306 81.9317 6.94278
1.82487 83.5796 5.68071
-15.6454 83.05 -8.64365
-8.28364 85.178 0.593172
-18.246 86.4346 -4.99734
2.10074 77.3018 -3.75303
0.62354 77.7421 -3.99402
-10.8099 81.3305 -7.02872
-8.36376 79.9609 -7.26621
-8.21583 84.7647 0.597631
-14.346 86.5424 -1.23377
-15.8874 83.3946 -7.40881
-17.3725 84.0864 -7.41558
-13.1011 81.5072 -8.25416
-12.4907 85.6426 -1.05217
-10.1776 80.801 -6.98649
-11.4354 85.4844 -0.393709
12.5593 77.9709 6.13619
-17.6515 84.0905 -7.22335
11.261 78.5294 6.20253
-9.89492 80.6242 -6.67484
-16.0487 83.317 -7.0382
-2.0586 78.315 -4.18184
-10.8173 80.1361 -7.97363
-1.66406 82.8967 3.73307
2.70773 76.2174 -3.60201
-13.5597 81.038 -8.37638
-10.0478 79.6403 -7.901
5.68732 80.7154 6.01416
5.63705 80.7257 6.00167
-15.3578 85.8632 -1.91984
-9.59284 80.117 -6.6413
-6.50671 79.6207 -4.97477
12.1338 77.4772 5.99134
-18.5503 84.2423 -6.7822
-15.9029 82.0095 -8.27919
-18.2815 84.6826 -5.80078
-18.4325 84.5065 -6.14513
-16.1247 83.0451 -6.51669
-16.3754 85.5498 -2.62493
-14.1704 81.1383 -7.95963
-18.307 83.9682 -6.57517
-17.7922 84.7102 -4.97084
-11.1911 80.1987 -7.0704
15.8246 75.6612 6.61299
-11.4454 79.55 -8.15581
1.12203 81.2283 4.25367
-5.40592 82.7973 1.7518
-14.2386 84.8366 -1.71578
-12.2567 84.4812 -0.687992
-15.3948 84.9998 -2.20664
-8.476 78.9407 -6.57632
0.961793 80.9217 4.03954
-11.4939 79.6476 -7.60998
-12.1804 79.9561 -7.55906
-11.0727 80.3012 -6.03542
-9.28192 78.6111 -7.28305
2.12839 80.1459 4.28237
2.90193 79.9658 4.61539
-4.59408 77.8588 -4.40128
-9.93303 78.5179 -7.40537
1.4474 80.0699 3.87841
13.7596 75.6418 6.35648
-2.24496 80.7627 2.3614
-13.8226 80.442 -7.03825
-4.60898 77.0773 -5.06171
-16.5413 84.1995 -2.81134
-7.81984 77.8068 -6.13219
-7.34753 81.6216 0.449259
8.61684 76.8198 5.18675
-5.66876 81.1245 1.13884
-8.20239 77.5584 -6.48036
10.9401 76.0071 5.8025
2.38403 78.8632 3.80681
-12.8518 79.9255 -6.19794
-1.91881 79.7955 2.1284
9.40742 76.1972 5.12935
1.80309 78.6704 3.40836
-16.6201 83.3966 -2.95087
8.93751 76.0471 5.00684
-12.0173 82.5626 -0.693955
8.02863 76.4177 4.96888
10.705 75.6298 5.80566
-16.6709 83.2107 -3.05493
-12.6726 78.8928 -6.88888
-13.0975 79.2821 -6.57437
-11.9534 82.3031 -0.71896
-11.0439 81.9207 -0.546583
-14.1884 80.0625 -5.91249
-14.8418 80.561 -5.42815
-12.8204 78.7629 -6.69233
-2.54441 79.0476 1.95516
-13.8879 79.1131 -6.31833
12.385 74.4537 6.50809
-9.55017 80.8097 -0.195806
0.634938 77.7622 2.87777
-12.4848 78.3214 -6.25858
-14.2897 79.2209 -6.17791
-13.1966 78.2991 -6.62806
-14.0313 78.7367 -6.43627
-6.63803 79.4524 0.468053
-12.4452 78.6949 -5.18606
-5.46957 79.104 1.05278
6.62074 75.3772 4.54791
-14.0842 78.9351 -5.71389
-10.0902 80.1774 -0.313402
