ply
format ascii 1.0
comment Created by Open3D
element vertex 1920
property double x
property double y
property double z
end_header
19.8085 140.578 2.84943
22.5605 145.98 -0.585157
14.3291 117.094 1.95174
18.7389 116.931 -8.83306
19.5541 123.752 -6.78268
9.01028 102.146 5.6842
20.2485 122.951 -8.93978
20.9958 143.7 1.62024
7.51097 95.9729 5.54921
23.4268 146.009 -2.98712
19.2954 139.463 3.03697
3.98555 83.6517 6.49942
3.62321 76.0337 2.7933
21.4796 145.158 1.0662
20.0018 124.069 -7.9883
19.604 129.984 -3.50618
18.2073 137.909 4.5544
23.8215 140.514 -7.50526
7.14316 95.5465 5.77147
11.9019 110.138 3.02149
7.71493 98.5687 6.10732
7.66627 98.4064 6.09347
20.372 142.836 2.01824
11.5521 87.1727 -10.1026
20.6695 143.81 1.7266
20.0557 142.261 2.26313
20.3359 125.268 -8.58252
4.11726 86.0693 6.98501
7.23339 96.4126 5.65069
4.24786 87.3096 7.37796
18.6623 121.701 -6.79227
20.7674 144.339 1.57489
3.35687 79.7408 4.8313
16.935 106.701 -11.8405
20.0592 128.002 -6.63866
20.5064 124.724 -9.67636
4.02106 86.4169 7.11079
19.6418 129.103 -5.08236
12.804 113.991 2.33384
9.07046 104.886 5.87754
3.24035 78.8128 4.2116
21.9895 146.72 -0.425554
11.6485 111.059 3.11104
7.94411 76.873 -8.56698
14.6436 98.6974 -11.6755
8.44816 104.392 6.59956
19.4194 129.278 -4.94124
16.9969 133.623 3.48199
20.4623 144.552 1.65087
9.50189 106.542 5.13583
21.8598 146.973 -0.456939
16.9118 134.988 4.11866
19.2011 130.488 -4.14231
21.2356 130.153 -9.24346
19.8468 143.528 2.08055
6.52945 96.7369 6.14712
19.7282 131.41 -4.93339
18.5128 140.917 3.66542
12.8936 115.984 2.18988
6.4497 96.7853 6.19872
19.1345 129.345 -5.02451
6.05014 95.8015 6.34372
18.0879 128.715 -2.99211
6.50288 97.8942 6.38648
4.97869 93.2643 7.22219
5.9233 95.7519 6.41418
2.87427 83.6233 6.38156
19.1242 125.553 -7.76285
13.6564 119.453 1.74544
11.5961 113.527 3.10652
19.6825 130.334 -6.31871
7.70556 79.7326 -7.75168
7.08662 78.2878 -7.16571
17.8186 120.534 -7.76415
18.5628 130.386 -3.6741
13.4474 119.01 1.81213
18.7512 126.012 -6.85244
22.8085 140.875 -7.74263
5.76249 96.045 6.46959
2.41932 80.9346 5.41442
7.48649 104.894 7.53066
15.8909 128.844 1.53068
12.9107 95.3095 -11.4187
16.6223 134.672 3.16445
20.7818 126.444 -11.8508
17.3712 114.689 -10.6914
15.777 106.958 -11.4867
7.0705 77.1334 -8.41081
17.4263 118.867 -8.39769
1.6196 73.7055 2.57137
7.3875 105.45 7.59811
8.78792 108.585 6.09114
9.37386 109.619 5.27604
22.6854 146.484 -4.74093
20.724 127.151 -11.5816
8.02846 80.7784 -8.7633
16.9818 137.884 3.80872
10.47 111.791 3.88518
9.24255 109.598 5.48318
7.35286 79.8106 -7.86091
14.5047 124.111 1.23284
19.7519 125.059 -10.905
16.2173 132.327 1.93873
7.33597 106.229 7.68798
3.51063 89.4756 6.88192
6.89762 76.8047 -8.87686
17.7761 116.602 -11.2951
20.1353 126.016 -11.4269
18.618 131.024 -4.90618
12.4544 95.1644 -11.5279
2.9082 88.1192 7.23052
9.84873 112.072 4.83467
1.9034 77.296 3.1762
14.9533 126.489 1.16092
16.0622 131.96 1.76049
12.1781 117.319 2.31642
20.2753 127.211 -11.4257
17.3673 140.865 3.71062
16.8337 114.396 -10.8702
1.81384 78.0308 3.54354
3.90027 92.5426 7.16278
18.6627 131.389 -5.19921
22.2361 146.994 -4.49239
12.7859 96.709 -11.8627
11.6218 116.308 2.65423
13.222 98.3894 -12.0152
8.99993 112.341 6.48265
11.5562 116.302 2.67843
11.9144 117.394 2.41654
17.7665 129.33 -4.54117
20.8057 133.732 -9.30159
15.6302 130.745 1.34278
18.3335 130.743 -5.19931
5.12761 98.5968 7.36136
1.80648 83.5844 6.34083
18.7188 125.94 -9.07186
6.66614 105.339 7.62997
14.6144 104.397 -12.0895
11.3159 116.083 2.76623
9.94018 113.724 4.64289
17.2863 129.088 -3.86618
16.1795 134.426 1.98113
15.2883 129.545 1.19123
18.784 125.76 -9.49321
17.0733 116.68 -10.8413
8.05319 82.3275 -9.66754
17.5271 123.707 -7.80975
21.9556 142.493 -7.26858
17.3783 121.671 -8.69851
21.6848 139.468 -8.53104
19.9029 128.944 -10.5359
17.1196 117.269 -10.831
19.8604 129.072 -10.4131
11.1664 116.634 2.96259
18.6478 145.676 2.2465
17.3129 121.223 -9.15764
7.1767 80.7839 -8.94884
13.9629 102.327 -12.415
17.8027 143.251 2.80396
20.9525 148.678 -1.59028
21.1463 148.821 -2.03741
15.7337 133.248 1.63436
18.2135 128.32 -7.37124
9.76179 88.4649 -10.8793
14.5722 108.276 -10.6879
19.4452 129.792 -9.62351
16.9505 129.27 -4.00062
21.543 143.086 -6.80699
20.7234 148.808 -1.47954
4.05012 97.1771 7.78339
16.7877 122.648 -7.68425
18.5069 146.084 2.17369
3.29809 94.1649 7.74033
12.5777 98.2014 -12.2204
21.1312 148.954 -2.48739
17.0357 129.321 -4.39637
10.3953 91.1552 -11.2576
2.54884 90.458 7.17725
14.0548 104.872 -11.9131
16.0366 137.284 2.51206
21.2852 140.984 -7.91495
17.8155 128.794 -6.84993
21.2865 142.28 -7.17628
7.97 84.3138 -9.78969
13.8473 126.159 1.01651
10.8035 92.8715 -11.5885
18.8111 147.086 1.53059
15.0689 131.455 1.1186
13.8918 104.966 -11.8894
18.9473 130.376 -8.89218
2.94465 93.83 7.76482
17.3442 126.919 -7.18977
17.7901 126.18 -8.7683
13.5045 103.159 -12.5816
14.9565 131.81 1.03605
0.654218 80.7206 4.89096
17.6711 126.473 -8.77177
4.69122 101.849 7.75317
10.4032 118.822 4.14018
11.0221 119.432 2.97691
17.3733 126.413 -8.20164
14.503 110.389 -10.9153
19.961 135.314 -9.26785
16.6788 143.202 3.31563
16.7572 124.392 -8.1577
17.4419 126.511 -8.63581
18.5069 128.536 -10.0431
0.392169 76.5377 2.48489
17.2388 126.474 -8.26583
8.35994 116.635 7.18836
10.6832 94.1683 -11.8529
3.15183 97.0363 7.98391
10.3558 119.711 4.17718
18.7681 148.593 0.916465
7.5093 114.583 7.58468
17.4671 129.389 -7.58459
18.4809 131.188 -8.97045
20.7234 148.421 -4.09641
4.97062 104.239 7.35718
5.29606 106.544 7.9427
16.1849 130.302 -4.21749
10.44 94.2895 -11.9648
17.23 129.129 -7.50177
20.4427 148.797 -3.51954
18.0236 148.254 1.92549
17.8779 129.491 -8.96592
2.85062 97.3766 7.9779
-0.0287555 77.2256 2.83865
-0.0940985 79.0819 4.00494
11.9001 124.827 2.4447
17.247 129.581 -7.62526
6.33286 112.108 8.20024
11.4917 98.2985 -12.4899
4.43685 103.43 7.5354
19.3724 135.37 -9.41743
15.9597 129.566 -4.7347
1.89612 94.0697 7.84991
4.13156 102.85 7.65546
18.8796 149.345 -0.0836022
12.6617 127.233 1.65673
9.8936 121.438 4.81775
9.00564 120.457 6.28645
16.8262 132.657 -5.29782
3.69967 101.592 7.72573
17.8937 148.891 1.71133
18.5836 132.897 -9.57463
15.6409 118.165 -11.2983
13.4208 110.52 -10.5459
16.4355 144.749 2.65401
11.2457 98.5375 -12.5172
10.4937 123.662 4.31187
12.3708 127.34 1.97332
-0.421867 78.7054 3.67245
3.79024 102.457 7.69192
7.0111 85.8134 -10.0302
-0.144969 82.4494 5.16231
16.5123 130.553 -6.19829
15.7072 118.888 -11.3334
11.5443 126.779 3.37658
9.63816 122.071 5.10895
16.2544 131.861 -4.98903
6.32583 113.967 8.21305
10.532 96.6593 -12.2653
18.1583 134.177 -8.20643
12.5825 104.562 -12.4956
11.7682 127.051 2.83216
16.7337 126.9 -9.25154
12.1363 127.526 2.18872
14.1242 114.256 -10.6075
-0.530673 80.4638 4.46519
-0.0920387 85.9935 6.63356
10.5245 125.411 4.61002
16.4982 128.806 -7.94242
15.8707 126.235 -8.00719
16.8976 130.908 -7.69351
17.9262 133.479 -8.63876
16.0053 121.964 -10.9128
10.1291 125.094 5.10295
-0.627658 80.9884 4.60532
10.2218 96.4511 -12.2979
8.25731 121.346 7.26792
10.4486 126.119 4.81507
14.5901 136.427 0.959919
16.7578 147.556 2.3716
13.3957 111.988 -10.8174
0.0450142 88.6655 7.34015
14.4192 118.043 -9.72872
17.479 132.584 -8.45704
12.8118 129.829 1.08627
11.1271 127.687 3.86159
15.4918 119.301 -11.6841
15.6665 125.031 -8.69331
19.0104 138.529 -8.70986
12.5602 109.949 -10.2701
12.2169 128.617 1.68255
15.7098 130.927 -5.36854
13.9 116.893 -9.40941
13.8708 133.269 0.436105
16.3638 133.194 -5.63256
4.84515 110.534 8.54593
10.3519 126.794 5.00492
15.7973 132.314 -4.84138
19.1458 143.9 -5.98912
8.7507 93.0157 -11.4309
10.5078 127.362 4.85184
3.74184 104.498 7.44117
11.0099 127.981 3.97672
10.8171 128.033 4.43538
4.0471 106.608 7.92247
1.21883 95.0951 7.82649
16.251 133.413 -5.50822
1.72441 97.2216 7.78745
15.5359 120.77 -11.4059
13.8386 117.587 -9.22631
6.90464 118.174 7.79949
19.1736 145.158 -5.62408
15.2346 118.95 -11.8272
15.004 118.996 -11.3483
16.7021 131.54 -7.96687
15.6023 126.668 -8.25966
8.45313 123.027 6.7771
9.05965 124.644 6.25166
8.33695 92.4518 -11.311
3.1984 76.7989 -8.35034
15.5683 121.739 -11.3312
17.539 135.816 -7.69488
12.6404 111.674 -10.3429
0.557853 93.4168 7.79141
-1.20435 75.4097 1.22619
4.82104 82.0313 -9.38428
18.4847 146.878 -3.52434
3.65554 106.008 7.72387
11.8122 129.373 2.0169
17.2292 137.565 -6.15164
17.2209 133.154 -8.83392
8.2788 93.0308 -11.3495
15.5101 131.157 -5.97415
0.120058 92.0852 7.724
8.77852 94.4908 -11.6871
-0.881599 85.4148 6.1333
17.4634 134.663 -8.61794
17.0874 136.273 -6.75764
12.0017 130.032 1.72637
11.1671 128.962 3.08666
2.65659 102.106 7.50711
17.5567 150.38 0.478852
17.748 136.37 -8.43712
14.4602 139.064 1.06971
15.8129 125.177 -10.5323
1.51242 98.2835 7.76598
15.5635 124.043 -10.6705
-0.68452 89.0505 7.46998
16.6421 130.912 -9.25034
7.78946 123.175 7.42359
18.3482 146.326 -4.18332
16.7109 135.179 -6.95872
15.8705 128.963 -8.68275
16.7907 134.98 -7.34315
13.7325 136.13 0.699803
3.71883 79.997 -8.77281
-0.9486 87.3132 6.80117
11.9862 110.938 -10.2459
10.9944 129.967 3.50119
4.70674 83.0391 -9.46506
4.83024 83.7111 -9.39489
11.5905 130.074 2.0223
-1.17514 84.0404 5.14581
10.703 101.649 -12.9561
1.06965 97.3763 7.68078
17.4957 135.266 -9.26908
18.0223 136.94 -9.55127
-0.633012 90.4613 7.56894
14.4664 120.728 -10.7004
15.6786 129.16 -8.5915
8.497 95.0804 -11.7067
2.31737 77.177 -7.54547
11.3864 130.146 2.15229
2.4354 103.171 7.55919
17.969 139.666 -8.03114
15.2295 130.468 -6.93789
15.0941 121.785 -11.8354
12.2838 132.194 1.0929
13.1368 134.799 0.498512
17.2679 137.253 -7.98931
17.4673 137.994 -8.03948
17.8737 148.271 -2.88597
16.621 136.462 -6.96246
11.3447 130.682 2.24679
11.5833 110.589 -10.3532
17.7943 139.066 -8.29222
14.9909 123.754 -10.7101
15.0726 129.42 -7.62617
15.0865 129.7 -7.53297
5.93948 88.3214 -10.2602
4.89514 85.4317 -9.52203
-2.3119 73.7077 0.76945
15.4041 131.006 -7.64661
8.41295 126.573 6.52504
17.286 141.234 -6.08521
17.4323 143.81 -4.96573
8.91257 97.5374 -12.1166
8.37939 126.628 6.54933
10.1495 131.264 5.05471
17.3161 141.144 -6.29568
17.7026 144.034 -5.54397
2.09146 76.4115 -8.44067
17.3845 138.785 -8.04145
15.2343 126.022 -10.5317
2.16017 103.709 7.47466
8.34616 127.14 6.56873
17.0598 140.23 -6.60142
17.0676 139.952 -6.82011
-2.19487 81.7165 4.69832
10.1695 101.979 -12.9866
0.105765 96.0797 7.71652
16.6878 140.116 -5.90653
14.3274 142.915 1.42864
10.3128 102.578 -13.0489
0.930134 99.3926 7.63015
16.4951 136.624 -7.5911
6.5949 122.116 7.54763
17.7063 150.178 -2.43239
-1.38166 88.2809 6.49403
16.4606 144.29 -2.99665
12.2303 113.951 -10.9897
15.6568 132.078 -8.50706
15.9925 136.144 -6.91153
1.80622 76.1651 -8.6511
11.3193 112.304 -10.0504
-2.48141 75.8597 1.38472
1.59786 102.353 7.3646
5.36995 88.3733 -10.1477
15.794 136.082 -6.78067
13.3211 138.724 0.723201
15.5268 129.503 -10.1803
15.6233 130.207 -10.0783
16.3971 146.426 -2.34126
15.9861 138.074 -6.34707
15.2604 127.446 -10.9565
5.51372 89.4803 -10.2011
2.52366 108.171 8.02021
12.0476 115.76 -10.422
15.2701 149.335 1.84041
16.4087 134.857 -9.56919
0.132425 98.2872 7.57573
3.01936 111.453 8.41661
14.8281 132.409 -7.49374
0.597052 100.073 7.42543
5.07923 88.8236 -10.1137
7.1017 126.162 7.29155
15.724 140.846 -4.70028
9.64654 102.471 -13.0357
13.211 121.655 -10.2345
12.7304 138.181 0.776112
16.342 148.178 -1.95998
6.64697 124.612 7.09261
9.28148 101.93 -12.849
3.19617 113.709 8.84312
14.2834 124.902 -11.2189
12.0371 119.169 -9.365
7.74098 128.589 6.57753
-3.26684 77.3806 2.46437
0.942803 76.8757 -7.98756
1.54812 105.455 7.61875
15.9933 145.586 -3.35994
-3.1693 80.3556 3.77257
15.869 144.329 -3.83131
9.31636 133.067 4.95592
7.22913 97.2469 -11.4623
-0.00231411 99.8381 7.42149
10.7342 134.413 2.2367
-2.47272 86.5943 5.43423
-3.44818 78.1551 2.69486
16.0751 138.512 -8.24012
15.7805 147.979 -1.88657
1.7754 108.304 7.94919
-2.48144 86.9121 5.38272
15.6171 143.971 -4.10893
4.92668 120.562 7.62117
0.5153 77.0963 -7.83066
6.64205 96.0752 -11.247
11.4947 136.247 0.924218
14.7828 129.923 -10.8051
15.7028 149.084 -1.5709
9.01831 133.941 5.3304
5.1884 92.9578 -9.98403
-3.79657 76.2355 1.5867
3.71999 87.7226 -9.73082
15.6808 147.142 -3.02461
5.88815 124.36 6.86417
9.10601 104.114 -13.0302
3.50679 87.2256 -9.64584
9.71317 135.573 4.29269
13.3634 124.476 -11.2256
14.8302 131.265 -10.7273
7.48108 100.173 -11.6567
0.207866 102.024 6.91397
15.8675 151.192 -1.45728
8.27204 102.339 -12.4018
8.23993 133.309 6.1864
12.1086 122.829 -9.48771
4.21606 90.717 -9.68726
9.88304 136.422 3.97572
9.90748 135.389 3.26112
15.4742 145.153 -4.32171
-4.14977 76.7065 1.97231
12.0004 140.864 1.35735
13.6715 148.529 1.89719
15.4624 145.398 -4.33001
-4.09159 75.1373 0.592541
-3.93781 80.8713 3.64908
11.7184 140.308 1.48186
-3.96979 79.5558 2.92626
14.1114 150.041 1.48395
1.53193 82.3181 -8.7451
14.2543 129.309 -11.3149
6.90972 99.663 -11.383
8.94206 108.086 -11.2845
11.2996 121.239 -9.20131
4.7401 93.7171 -9.97408
9.45569 137.043 4.53812
12.4429 143.294 1.05635
-4.00592 82.198 4.04493
5.81186 127.114 7.17604
6.76951 99.9804 -11.3547
-4.1565 81.7193 3.97878
13.1694 125.66 -11.5003
13.0441 125.23 -11.4644
-0.188956 102.59 6.8407
3.59495 90.664 -9.40518
12.0191 123.173 -10.2604
5.32658 95.8428 -10.617
5.42243 125.572 6.9038
1.06711 109.544 7.7935
11.6244 141.343 1.35521
-3.38748 86.73 4.77895
14.8472 149.832 -1.40678
15.1871 141.281 -7.35502
-4.40793 79.2035 2.63003
5.76685 97.6082 -10.9063
14.8766 149.515 -1.94721
15.2529 137.322 -10.1532
10.7993 120.615 -9.42999
8.23882 134.665 5.07468
-1.57327 99.145 7.23506
9.68482 115.836 -9.94721
14.3168 132.82 -11.0183
5.01129 124.976 6.69921
8.63644 136.301 4.63328
14.4434 152.13 0.10195
14.7256 142.281 -6.4816
14.7936 144.886 -5.10876
6.97186 102.325 -11.7422
15.0314 138.14 -9.82917
1.46057 115.231 8.91259
9.16581 138.112 3.99918
-2.13865 98.1328 7.24653
9.88817 122.074 -7.40339
14.8011 136.605 -10.578
3.95466 94.3441 -9.75755
-1.31414 77.6637 -7.0458
5.8552 129.908 6.8958
0.889589 111.391 7.78116
-3.4217 88.8997 4.59123
8.13089 109.274 -11.0879
9.84779 121.369 -8.03596
14.3988 143.446 -5.81288
-3.05404 95.1825 7.30397
11.7093 124.367 -10.8265
-4.92934 81.5512 3.57818
6.81492 103.079 -11.8315
12.8744 149.893 1.55295
0.320981 83.0355 -8.22919
6.89984 103.406 -11.9593
4.98396 98.1218 -10.5409
-4.01421 85.9463 3.7303
9.92086 139.274 1.78846
14.615 145.573 -5.87487
14.0288 134.567 -11.0796
1.87513 89.5948 -8.70266
9.56067 138.141 1.80698
5.07488 99.3996 -10.5791
8.19347 114.167 -9.46917
-0.832802 105.229 6.8946
-2.95624 97.1912 7.14133
-0.187484 83.3774 -7.98763
6.24631 133.164 6.23387
-5.21596 82.4703 3.48865
13.2553 152.06 0.600391
13.0627 131.292 -11.3606
-2.16909 77.2133 -7.0352
7.44603 105.871 -13.1
7.73101 113.107 -9.55282
8.57654 139.272 4.00204
13.7098 151.86 -0.848946
-4.27676 87.474 3.90389
8.90286 117.329 -9.99342
5.54528 101.983 -11.0951
0.800355 116.185 8.74268
4.62798 99.6099 -10.4062
8.19094 138.711 4.37954
10.6758 124.555 -10.1339
-5.62958 80.5845 2.82236
0.490956 115.466 8.83983
3.7709 97.3999 -9.87428
9.81072 140.921 1.59342
10.5615 124.599 -9.9794
1.60396 118.333 7.80258
-0.798982 81.1763 -8.69837
-6.7282 73.272 0.799604
1.43555 90.3868 -8.63942
-2.61666 100.005 6.86409
13.9738 148.211 -4.27055
-6.39089 74.5075 0.659275
0.39215 87.1801 -8.13423
13.373 151.228 -1.14576
-2.10494 102.079 6.66766
-0.757757 83.3399 -7.85888
1.2233 117.974 7.96527
7.07187 106.392 -13.0658
8.55438 122.347 -7.13114
11.4441 127.897 -10.8195
5.66887 133.11 6.14003
6.9602 135.519 4.36632
4.92562 130.955 6.47923
-4.40405 91.4917 5.34536
1.31811 118.653 7.76001
-1.33841 106.712 6.98559
11.7904 130.323 -10.565
5.12189 131.59 6.22813
-4.78199 86.5027 3.11705
7.8842 116.317 -9.63884
13.9054 142.692 -8.43086
-6.5643 77.8396 2.08467
2.30819 121.66 6.84272
3.00591 123.519 6.19417
-3.83551 97.8236 7.29048
-0.506935 85.9603 -8.0378
13.1104 150.641 -2.165
-4.91127 86.8349 3.02926
11.8364 131.275 -10.7313
-4.75625 88.0692 3.37342
6.81909 110.76 -10.9755
11.61 150.899 1.47224
8.63993 140.002 2.0817
3.12982 98.08 -9.72362
11.6852 131.157 -10.6054
8.84168 125.934 -6.91013
10.2494 126.876 -9.75266
-1.55069 107.38 6.95654
2.93384 97.7679 -9.63915
11.5418 131.064 -10.4885
-2.40008 79.1356 -8.03755
-6.56613 80.0485 2.51466
6.29801 106.461 -12.702
-0.490691 86.7051 -8.1698
12.8703 152.992 -0.729807
9.18464 141.896 1.48784
2.36637 96.2851 -9.42268
1.0268 91.8575 -8.85915
11.1359 130.489 -10.117
-5.11807 87.244 2.89546
9.60334 126.564 -9.08048
3.50662 99.8728 -10.4509
5.60339 134.581 5.24914
10.2034 146.637 1.37295
0.815295 91.9409 -8.76004
2.01044 95.8215 -9.32491
6.51692 110.241 -11.5597
1.9575 122.668 6.76874
7.45678 120.881 -7.56249
6.80382 138.648 4.60025
0.269101 91.0574 -8.19609
9.24416 143.36 1.33423
7.43572 121.825 -7.21814
3.76584 100.948 -10.8789
4.42175 102.843 -11.3272
2.61015 124.605 5.94197
-2.66853 104.873 6.79918
1.16215 121.696 7.58095
11.1837 132.083 -10.3667
7.48278 123.037 -6.8946
0.971347 121.383 7.78765
6.31625 109.75 -12.0568
7.63087 124.267 -6.55658
-6.95356 80.4725 2.36117
-6.42541 83.3894 2.78371
9.27685 144.331 1.33126
-5.0772 93.4564 5.43411
11.1706 133.649 -9.77188
9.14368 144.267 1.40284
8.75825 127.736 -7.57225
4.43958 103.608 -11.6127
12.2267 151.086 -2.03408
2.48278 125.141 5.91031
-0.978067 116.084 8.82025
-6.43811 83.9319 2.74527
-3.4065 102.927 6.77957
-7.61968 77.9226 1.93997
6.10487 113.675 -9.80189
12.7402 150 -4.10294
8.8431 128.006 -7.90145
-3.36994 103.413 6.80336
11.6083 153.469 0.602537
9.80074 128.947 -9.77929
6.58802 116.686 -9.4015
2.96194 100.242 -10.6076
-5.37468 92.3823 4.76111
-4.0154 101.888 7.16051
3.58512 101.809 -11.214
0.0198081 92.349 -8.33969
3.95873 103.049 -11.4508
-7.8587 77.0035 1.39291
-0.559844 118.253 8.47444
-7.83625 77.9846 1.89323
-3.63461 103.231 6.85946
7.52853 142.255 3.19576
7.46425 126.686 -6.11435
3.32342 130.414 6.0746
1.09423 96.2274 -9.01201
-3.12826 105.771 6.85453
5.17781 135.248 4.37255
-2.86962 82.3477 -7.88012
5.92718 115.855 -9.04064
1.46574 123.917 6.50946
11.5883 137.063 -10.0127
12.4204 144.242 -7.75029
5.68414 112.517 -10.5381
-1.80712 112.256 7.3348
2.55549 127.935 6.16828
7.08998 125.514 -6.22454
7.62751 128.093 -6.00456
-3.16484 81.3769 -8.01242
9.85481 131.843 -9.23575
4.51956 134.74 5.32348
-4.75821 101.144 7.52288
11.7577 151.297 -2.27155
0.713317 95.8455 -8.86913
1.7524 124.783 5.86121
-0.128377 121.288 8.28625
-1.78523 86.1772 -8.72338
5.66551 115.612 -9.19875
7.18209 142.592 3.13298
0.496999 123.154 7.57553
9.35708 148.535 1.36851
2.90418 101.466 -11.2411
7.82915 143.676 2.1099
0.563224 96.3041 -8.82052
-4.03574 104.482 7.0362
11.1787 152.859 -0.759222
3.91152 133.799 5.29676
-3.09423 83.444 -7.9527
6.13575 120.39 -8.09079
0.105748 95.2383 -8.62278
4.75484 107.402 -12.7933
1.39719 99.0253 -9.76014
-0.00452486 95.4781 -8.59096
-2.00285 87.766 -8.46078
-2.07162 115.503 8.27344
-6.01634 96.8438 6.60128
-0.987722 120.252 8.48334
11.2294 138.608 -9.96893
-8.92105 74.511 0.133044
11.9247 146.021 -7.38178
-4.6345 103.859 7.24665
3.15736 131.877 5.22172
8.27513 130.033 -8.21314
-3.58198 107.826 7.04994
5.0942 139.567 5.04093
6.08278 122.527 -7.53665
10.0522 136.357 -8.8635
4.68365 135.994 3.76558
-0.302497 95.4919 -8.48594
4.41715 107.302 -12.8221
7.01952 143.684 2.62681
9.81756 153.064 1.428
-5.40575 76.7602 -7.59272
10.4274 137.706 -9.31431
6.01634 124.635 -6.65257
-3.81582 82.9861 -7.87798
11.3448 151.136 -3.68623
7.65448 130.503 -7.13687
10.3638 154.249 0.483581
4.90528 137.246 3.44632
11.4569 142.287 -9.36868
-7.6225 84.4376 1.8556
1.87546 129.632 5.96593
-7.53642 84.7965 1.81584
-2.52258 116.357 8.56932
8.62489 149.904 1.75933
8.22119 148.362 1.72654
-6.99619 87.0277 1.68722
-3.14726 112.537 7.49724
5.55869 121.766 -7.98314
4.13526 108.885 -12.26
0.832429 99.5457 -9.9408
-0.430968 96.6908 -8.64615
-8.33726 82.3581 1.79735
0.662431 126.052 6.08176
-5.257 78.9961 -7.87036
-4.22572 108.656 7.35264
-9.57957 74.6552 -0.0843358
1.71116 129.927 5.73337
-0.831263 123.782 8.17955
-4.31553 108.65 7.39455
10.161 153.856 -0.445028
-6.7298 93.9376 4.31307
5.02253 139.244 3.08004
11.2565 148.816 -6.21015
4.567 140.559 4.90971
-2.50571 89.9359 -8.4177
-2.22108 119.149 8.23808
4.37354 112.684 -11.5223
10.1543 139.659 -9.33857
4.36012 114.855 -10.253
-5.13834 106.236 7.46095
5.14645 121.382 -8.27905
-6.85844 94.0334 4.26463
5.04607 141.185 3.74704
-0.240046 98.3199 -9.21768
8.85371 136.021 -8.66928
-3.17276 87.6085 -8.70796
-7.1118 97.9018 6.708
3.16259 108.449 -11.8426
-0.754421 125.191 7.583
10.6889 144.469 -8.51031
10.9274 148.362 -6.85488
-9.00176 81.949 1.35997
8.04628 134.877 -8.25829
0.808189 129.289 5.77846
5.28882 128.07 -5.75858
0.531101 128.446 5.89525
-1.73892 123.45 8.37027
0.791013 129.343 5.74404
3.14744 109.793 -11.6268
-1.19351 124.958 7.88525
0.267689 127.256 5.6353
-4.86037 83.3647 -8.25774
2.5711 134.569 4.41039
4.82211 124.533 -7.18134
-5.46287 108.347 7.87228
3.86608 114.962 -10.645
10.2932 143.925 -8.83579
4.00397 116.204 -10.2692
1.04264 130.355 5.27608
4.56728 140.817 3.01402
3.81252 113.902 -11.2764
9.82956 152.011 -3.12875
-4.38473 84.8305 -9.1384
-8.19252 86.5016 0.978224
3.74578 115.038 -10.7132
0.370032 101.085 -11.0504
-7.61042 99.0511 6.93885
-4.99126 83.8442 -8.48867
-3.13404 91.3508 -8.54651
-7.31868 101.477 7.56151
-8.68478 85.0091 0.933155
9.5746 152.24 -2.90293
10.2731 150.255 -5.80437
-4.22554 114.753 7.75488
-10.6436 76.4438 0.287011
7.36139 134.907 -8.14088
2.50023 109.989 -11.3359
-10.865 75.442 0.165166
8.9416 154.126 -0.506191
2.47845 136.004 4.18611
-8.81188 85.0189 0.859441
4.79797 129.658 -5.24671
2.33775 109.711 -11.3014
4.74162 128.678 -5.75276
3.99537 141.421 3.53565
0.280014 129.617 5.38834
3.56318 116.637 -10.2995
4.08264 142.192 3.71448
-2.56012 95.2747 -8.34802
3.86651 142.146 4.18871
1.11369 131.75 4.60131
9.76305 151.563 -4.42401
4.0158 120.844 -8.96536
7.83302 136.934 -8.53904
3.51418 142.099 4.92567
1.78831 107.167 -11.822
3.87625 140.168 2.83536
-7.87141 100.341 7.20439
8.83103 153.945 -0.984094
7.274 136.051 -7.93503
-8.54303 87.0789 0.747387
4.5268 130.384 -4.89041
3.65806 141.534 3.86082
2.63952 112.338 -11.1756
-3.02326 94.0878 -8.4586
3.07002 113.964 -11.304
-7.62179 77.3385 -7.48585
3.70973 140.273 2.79907
-4.04163 89.0386 -9.17707
3.5033 141.338 3.81436
4.47545 130.712 -4.8811
-8.15905 96.018 4.72157
-0.689632 100.474 -10.6127
7.78794 155.049 1.3905
8.20962 154.494 0.011383
-0.83681 100.405 -10.5678
4.26383 130.179 -5.09128
-9.58015 84.192 0.702572
-4.38781 88.562 -9.29308
-4.7118 87.1008 -9.53805
2.95468 116.708 -10.3576
0.95005 106.087 -11.8909
-7.0452 107.41 8.10915
8.45094 142.152 -8.44756
-3.94166 119.591 7.85195
2.81518 138.716 2.99387
-2.87759 96.6978 -8.49952
-9.63067 84.6742 0.550346
4.7769 133.049 -5.30259
-11.4637 75.4393 -0.650134
2.95649 118.115 -9.92186
-0.731768 128.729 5.27744
-8.512 91.2973 1.61909
4.56067 132.69 -5.17591
-0.207585 102.914 -11.6408
-4.6314 88.8953 -9.44178
-11.9258 75.8327 0.308124
8.25815 143.076 -8.09514
1.50574 110.966 -11.0587
-4.12797 91.6846 -9.02706
-0.424571 102.577 -11.4647
-8.32346 78.4848 -6.97059
-6.674 81.9791 -8.888
8.44403 153.101 -2.80365
-8.69831 99.5617 6.46025
3.14397 122.466 -8.42702
8.39812 144.75 -7.76408
7.14937 138.716 -8.36663
1.35542 135.416 3.61132
2.40545 115.636 -10.7565
1.37058 111.199 -10.9539
6.77586 138.14 -7.92087
3.63286 129.801 -5.34757
-8.94459 89.3009 0.611548
3.14192 123.494 -8.05261
-3.19886 124.407 7.67006
8.6031 147.044 -7.22606
-8.51903 77.2409 -7.80432
-4.58065 119.452 7.86571
0.738818 134.313 3.91651
2.53746 118.789 -9.7107
8.18341 145.232 -7.51118
-5.92032 85.0308 -9.56427
8.37507 152.739 -3.52191
-10.752 82.5372 0.519566
1.12806 135.488 3.49494
2.61035 140.426 2.61036
-1.29774 101.996 -10.9539
2.056 116.236 -10.5324
-1.27538 128.839 4.97892
-1.3581 128.606 5.00544
4.59439 135.495 -5.21689
-1.32305 128.782 4.97219
2.13113 117.753 -10.0252
-11.2493 81.5495 0.494301
-8.195 80.7055 -7.38451
7.23223 141.995 -7.89402
-10.1062 85.6507 0.131089
-9.31476 89.6897 0.573403
-2.91483 98.7696 -9.45598
-4.2137 123.583 8.48432
-6.2171 85.2108 -9.67899
3.62292 133.476 -4.53179
-10.1381 85.8016 0.0883757
-0.0760654 106.175 -12.0191
3.59306 133.564 -4.50706
3.00464 130.574 -4.93048
-6.09578 85.7697 -9.87424
-12.2015 77.8558 0.0914805
-1.1436 103.245 -11.393
6.43176 140.101 -7.6427
-8.86226 103.017 6.99516
-5.04733 90.9321 -9.52426
7.44329 145.412 -7.04316
-2.12345 101.205 -10.4393
4.52029 136.418 -5.43107
5.26923 137.85 -6.41012
5.58905 138.66 -6.69909
-0.0453234 133.972 4.00162
-5.17584 119.822 7.88478
-10.6464 84.7335 0.0800752
-9.29823 95.2693 3.06446
2.2984 125.689 -6.69257
-5.381 89.7043 -9.73665
-2.20198 128.425 5.74583
-8.97767 103.087 6.91277
-9.45112 99.5597 5.89168
-0.408386 105.7 -12.2154
6.70946 155.048 0.137888
2.14353 141.403 2.88797
-5.36225 90.1397 -9.691
-9.68301 89.3845 0.245351
-0.9454 131.804 4.51498
-3.58003 98.3257 -9.17953
-4.71772 94.8351 -8.60092
7.64472 149.356 -5.81609
-1.20366 131.074 4.538
-5.58807 119.088 7.91269
1.6509 119.825 -9.12854
-8.14652 81.8114 -8.36108
6.62901 143.146 -7.28798
-4.41486 96.5161 -8.60537
-5.74172 119.199 7.97175
-8.54922 108.673 8.41025
-13.11 76.6567 0.241992
-7.83999 83.4218 -8.43198
-9.70377 99.5149 5.66431
-0.632907 106.404 -12.0758
-1.61428 103.668 -11.3592
7.11513 153.386 -2.66416
-2.53849 128.781 5.83531
7.29188 152.974 -3.39773
-6.83668 114.636 7.67366
2.33059 130.45 -5.00593
-0.110565 110.329 -11.2326
5.33195 140.195 -6.57836
-12.1072 81.6792 0.407916
7.13258 153.08 -3.24074
-9.72439 94.7887 2.46551
-12.6612 79.9846 0.535351
-0.905876 133.395 4.11268
6.43445 154.75 -0.8783
-4.41678 97.756 -8.82346
6.50035 145.618 -6.54448
3.90357 137.597 -5.11695
0.941483 123.07 -6.68983
-5.33316 94.2243 -8.83989
-9.53255 102.757 6.36527
-0.364005 110.262 -11.2441
0.437734 137.147 2.85287
-7.80068 112.87 8.14159
-0.203437 112.078 -10.6786
0.44775 116.102 -9.89808
1.99036 130.685 -4.91507
-8.51013 110.173 8.09765
-5.73419 91.6511 -9.66278
4.6762 139.882 -5.91828
-4.79532 97.128 -8.70602
-10.7083 87.1569 -0.481815
-0.64913 110.02 -11.1273
-9.8692 80.8862 -6.48907
5.04584 141.292 -6.417
-11.8422 83.9027 -0.0749302
-0.12399 113.924 -10.3563
-9.81485 79.0694 -7.87929
-4.19028 125.959 6.60451
-8.18064 84.8655 -8.37181
-3.92076 100.086 -9.55025
-6.36038 120.837 8.62845
-9.62755 104.389 6.55818
-9.39489 81.3625 -7.76924
-4.71143 98.3905 -8.91266
5.71415 144.355 -6.5558
-10.1074 100.78 5.48003
-13.9085 75.4998 -0.576376
-11.4268 85.6508 -0.488186
6.49091 152.708 -3.60522
5.29023 142.894 -6.61576
-5.74584 95.1248 -8.61877
-0.500029 113.241 -10.425
-6.13893 91.6133 -9.78687
0.226581 138.128 2.59313
-0.959738 111.346 -10.5789
0.327562 124.126 -6.13133
-10.675 89.7173 -0.250639
-0.00856649 120.008 -7.8641
-8.89242 111.58 8.45695
4.31593 141.215 -5.64613
-0.417915 115.594 -9.61376
-8.89963 84.4998 -7.83618
-3.75771 128.518 6.03742
0.959741 142.09 2.77748
3.66438 139.692 -5.17215
-3.1329 102.942 -10.7822
0.8108 128.356 -5.11499
6.14187 151.374 -4.24631
-0.808616 135.627 3.0615
-7.14322 120.051 8.99367
1.23824 130.299 -5.09008
3.18329 139.018 -4.64041
-0.634495 116.748 -8.77164
-1.83135 106.212 -12.1891
5.89768 153.573 -2.48724
0.287343 126.094 -5.40913
-1.75773 109.61 -10.3836
-12.9393 81.8671 -0.103333
-0.442605 137.074 2.73013
-4.62977 126.345 6.39754
5.76655 148.36 -5.56857
-10.4442 80.874 -6.87935
-9.83079 105.896 6.57189
5.85822 149.722 -5.00802
-7.07973 88.3863 -10.5256
5.91275 152.137 -3.73275
-6.9938 88.6152 -10.6328
-2.09057 109.125 -10.22
-1.89268 110.514 -9.90223
-13.3156 80.8696 -0.124996
-3.86737 102.169 -10.1703
-5.26182 125.119 6.86846
-13.9106 78.8926 0.0222212
-0.673125 121.298 -6.53336
-10.8234 96.4829 2.98875
-0.805886 120.337 -6.91172
-10.9507 98.9554 4.687
-10.9045 78.2725 -7.88599
-4.52125 101.22 -9.57687
5.37507 154.696 -1.57122
-5.96265 96.7674 -8.91428
-12.9187 83.1794 -0.293129
0.922896 133.811 -3.43797
-7.66078 120.161 9.04481
-8.9506 114.745 8.90196
-12.6169 84.3661 -0.435721
-8.5077 86.5976 -9.05162
-1.7198 116.231 -7.69421
-13.1172 82.661 -0.340697
-9.21214 113.324 8.58138
-11.0812 97.3008 3.43728
-13.1492 82.743 -0.372007
-10.6168 102.345 5.2373
-11.0615 93.7381 1.1497
2.27208 139.05 -3.90567
-11.1003 96.2359 2.67625
-3.73976 103.269 -10.8675
-1.35409 120.844 -6.17173
-4.97646 126.931 6.13372
0.762822 134.363 -3.34867
-2.72722 106.547 -11.5789
-5.39702 99.7791 -9.32499
-7.38823 122.35 8.9129
-11.5237 80.409 -6.24827
-8.52818 87.0761 -9.48993
-7.18525 92.5616 -9.57211
1.17821 136.802 -3.29128
-11.6495 88.9872 -1.04556
-3.0108 106.157 -11.6193
4.88676 153.809 -2.18442
-6.21124 97.5605 -9.21741
-11.3907 93.5139 0.825322
-8.50864 119.244 9.25908
-10.2015 110.899 8.26376
-14.4939 76.5731 -1.98356
-1.96939 120.006 -6.22088
-8.40615 119.971 9.20132
-4.31727 103.233 -10.7033
-4.61518 102.717 -10.3056
-7.42038 92.9158 -9.42648
-4.93009 102.123 -9.95173
-9.78848 113.203 8.28659
4.60769 149.568 -4.659
-4.4943 130.018 5.43764
-13.8572 82.2607 -0.716955
4.60727 151.248 -3.95223
-3.56285 131.596 3.97222
-2.70395 116.786 -6.99432
-10.6958 107.545 6.72423
-2.10259 121.422 -5.70217
-9.42191 116.407 8.89629
-3.43816 111.35 -8.64962
3.62806 145.742 -5.1253
-8.61994 120.302 9.15446
-4.93353 128.82 5.33137
-1.11483 127.78 -4.52021
-5.61389 127.355 6.0189
0.516493 136.652 -3.18793
-6.05796 99.4556 -9.60022
2.13206 141.962 -3.96764
-11.81 92.7536 0.132509
3.98129 147.514 -5.17034
-3.80874 104.976 -11.8449
-1.76023 124.721 -4.98307
-10.8361 108.533 7.1887
-12.8676 80.0414 -4.98828
-6.79708 97.2686 -9.30849
4.35377 151.153 -3.95896
-10.4653 111.433 7.97223
-10.9312 105.658 5.55391
-3.44168 132.712 3.6729
-10.8843 107.73 6.65174
-4.6794 130.434 5.23642
-1.03205 129.287 -4.24025
-2.94837 117.416 -6.74284
4.09849 149.576 -4.50959
-15.4175 75.4755 -1.85548
-5.23185 102.685 -10.1763
-3.78585 131.896 3.80375
-3.31486 115.152 -7.37559
-15.5804 76.9162 -0.70986
-0.662611 131.911 -3.7846
-4.09473 107.089 -10.4027
-3.86408 111.541 -8.34208
-12.7299 80.5744 -5.51403
-3.65743 113.506 -7.78455
-3.11419 117.593 -6.65652
-2.69526 121.015 -5.63545
-10.257 85.7204 -8.54307
-7.04458 97.3155 -9.408
-3.88952 112.307 -8.05989
-3.54547 114.813 -7.45014
-3.20994 134.619 3.50371
-5.37807 129.016 5.35414
-12.1497 92.7683 -0.057736
-13.5363 78.8382 -5.05758
-4.13996 110.865 -8.60358
-13.719 84.8962 -1.07812
-10.1544 115.288 8.50648
2.86155 146.542 -4.52016
-4.12695 112.592 -8.02671
-11.7746 102.838 4.53292
0.233433 138.651 -3.07203
3.63011 150.847 -3.99167
-7.04895 98.2529 -9.74546
-4.62701 104.934 -11.6542
3.67215 152.116 -3.50641
2.84848 147.373 -4.41232
-11.5145 84.222 -7.61445
-3.77775 116.905 -6.77206
1.31368 142.942 -3.48103
-2.89113 137.257 3.2078
-12.52 80.8148 -7.36731
-12.5054 92.8124 -0.236904
0.629741 140.643 -3.31187
-12.8961 88.8559 -1.73055
-12.8338 79.7154 -7.53673
-4.52886 111.6 -8.50048
-4.82232 109.279 -9.21895
-8.41768 123.359 7.82662
-4.30058 114.24 -7.54206
-4.86047 105.096 -11.6954
-14.2476 79.9744 -4.11755
-13.1179 80.2173 -6.73424
-1.56624 131.866 -3.71928
1.05703 143.027 -3.3932
-8.85069 92.6362 -9.68991
0.545077 141.401 -3.22108
-4.42702 114.175 -7.59653
-16.3134 75.4289 -2.15069
-12.7633 91.7628 -1.02041
-4.40533 115.32 -7.19985
0.146587 140.705 -3.08316
-12.9259 91.0863 -1.36994
-13.9357 80.9379 -5.0841
-14.2736 79.5717 -5.11329
-5.17798 105.72 -11.41
-7.56842 126.397 6.69708
-4.4207 134.059 3.68271
-5.2486 105.992 -11.1094
-3.09946 124.946 -4.98089
-13.7592 81.0967 -5.82403
-5.2606 109.48 -9.39977
-6.53928 128.965 5.32279
-8.63101 95.7447 -9.52947
-10.9169 116.041 7.98994
-5.40529 131.626 4.03543
-0.121159 141.359 -2.94821
-15.739 78.968 -2.66883
1.68263 147.243 -3.84627
-2.47201 129.976 -4.25404
-12.4961 103.502 3.9748
-8.94612 95.4175 -9.5413
-5.15283 132.687 3.55721
-14.8509 79.0971 -5.16446
-13.2702 98.2536 2.40035
-15.0379 79.665 -4.48896
-11.5423 111.077 5.86096
-2.98684 128.222 -4.53354
-14.6123 79.7044 -5.61394
-3.21738 139.823 2.86941
-7.49296 101.763 -9.59757
-7.90768 98.9562 -10.3014
-12.047 109.336 5.84138
-5.38523 132.515 3.65004
2.44533 153.013 -3.01967
-12.1339 108.77 5.63561
-13.5951 90.7478 -1.64432
-12.4082 106.196 4.69808
-11.1092 87.9368 -9.42845
-5.56915 110.483 -9.29384
-4.64768 119.555 -6.11758
-14.937 79.4084 -5.38925
0.361054 145.067 -3.08179
-3.3194 140.512 2.97773
-16.7623 78.4069 -1.84139
-7.8876 100.857 -9.89128
-2.78411 142.07 2.41683
-2.12267 134.72 -3.57243
-14.847 85.3678 -2.4527
-14.914 79.7136 -5.69445
-10.8186 118.62 7.6825
-13.5235 81.2315 -8.17352
-9.01145 96.3592 -10.0181
-9.56099 94.859 -9.69521
-0.0933613 144.299 -2.95236
-7.49578 102.794 -9.94494
-13.7818 93.0269 -0.651282
1.64917 150.271 -3.65604
-5.15929 117.619 -6.79084
-7.13687 103.426 -10.5283
-8.50134 98.1253 -10.4119
-13.9573 91.0705 -1.52991
-4.36668 137.072 2.86862
-13.633 99.2204 2.53377
-3.8906 126.323 -5.00814
-11.1702 118.323 7.62049
-4.31805 123.588 -5.77041
-15.2003 79.7672 -5.78097
-15.0179 80.3566 -5.87447
-1.24412 140.432 -3.15702
-5.68959 134.235 3.72195
-2.91516 131.827 -4.40469
-3.46342 128.889 -4.86034
0.121942 146.39 -3.0516
-15.5881 79.4093 -5.27436
-8.18137 127.402 5.46525
-10.9547 120.902 8.20103
-1.44812 140.194 -3.22083
-17.5667 77.3736 -1.9933
-14.3374 90.3557 -2.00842
-18.0827 76.6503 -1.21288
-15.7501 83.8618 -2.53835
-4.90095 136.676 2.89123
-11.6913 116.231 7.0132
-5.3411 119.464 -6.34637
-6.95664 131.42 4.68539
-13.9407 99.9931 2.70862
-14.4331 81.0656 -7.42663
1.29409 151.43 -3.27445
-14.1416 97.9455 1.88506
-13.9427 100.682 2.99111
-11.631 114.394 5.59307
-12.5065 110.151 5.1473
-12.6111 109.357 4.9233
-10.8956 121.367 7.91521
-9.46608 96.603 -10.3621
-13.3531 104.423 3.64078
-4.36772 138.591 2.41878
-5.6276 118.221 -6.84565
-16.0558 79.1204 -5.27888
-8.23533 128.045 5.06556
-6.98062 107.839 -10.0487
-15.8007 80.0836 -5.46697
-14.5517 94.6358 0.128464
-12.5408 110.824 4.9106
-14.2826 98.894 1.92789
-4.72625 124.89 -5.6425
-17.9453 76.2316 -2.94598
-17.4846 79.9267 -1.87281
-13.6085 105.096 3.76035
-3.18213 144.306 2.05778
-6.63352 111.511 -9.31067
-10.0165 123.326 5.73324
-7.61791 131.599 4.86599
-14.941 80.4322 -8.10579
-13.4276 107.108 4.19344
-17.8357 76.5192 -3.53279
-7.15372 133.448 4.76081
-13.2633 108.167 4.3043
-15.9457 85.3597 -2.89565
-18.3719 76.1419 -2.58882
-14.5156 99.8094 2.19684
-9.67229 98.1071 -10.6432
-15.1187 91.6836 -1.39042
-4.59659 127.402 -5.468
-15.5084 79.9191 -7.76748
-16.1955 79.757 -6.27255
-7.98654 131.657 4.9722
-2.14677 141.678 -3.20829
-10.7007 122.989 6.11328
-3.25082 135.748 -4.28254
-18.079 79.3985 -2.32178
-16.8686 79.3379 -5.29521
-3.4754 134.966 -4.35809
-15.7803 80.2277 -7.47016
-12.1003 119.23 6.97943
0.14559 152.342 -2.80837
-12.2362 119.084 6.91527
-1.91997 144.539 -2.76912
-2.74954 139.934 -3.68514
-13.4678 108.108 3.06092
-11.9849 91.3278 -10.5613
-12.8085 115.38 5.67756
-6.97501 135.951 3.8898
-17.3156 79.1932 -5.19833
-6.70822 119.081 -7.01796
-18.2176 77.7484 -4.03053
-8.44526 107.752 -9.64607
-13.5542 89.1737 -8.45458
-16.0398 80.0767 -7.98744
-18.4724 79.3077 -2.59007
-15.6954 93.8068 -0.621565
-4.8212 129.092 -5.71809
-1.98969 145.556 -2.7142
-8.50639 107.412 -9.87857
-5.08406 141.936 2.47283
-12.9914 115.289 5.52513
-18.4157 78.4743 -3.48604
-11.285 123.273 6.09349
-14.5571 104.978 2.96846
-14.7068 85.637 -8.31683
-13.4645 108.71 2.48293
-15.2125 100.255 1.54447
-6.96503 119.51 -6.83847
-8.19711 109.747 -9.83178
-4.9023 129.812 -5.79214
-16.003 88.7878 -3.70539
-15.9611 89.2176 -3.56874
-6.66715 121.195 -6.84277
-0.797474 152.484 -2.36765
-18.4914 79.9152 -3.22136
-9.00989 132.14 5.09732
-17.1455 81.6927 -5.61838
-13.059 112.537 2.85687
-11.9269 123.01 6.36963
-13.5209 109.524 2.13871
-9.99442 127.75 4.51756
-9.84277 104.11 -9.99498
-10.3352 127.087 4.82122
-4.9128 131.792 -5.43008
-6.78531 121.968 -6.9119
-18.2301 79.4655 -4.97656
-15.9082 98.1081 0.572814
-7.26637 138.466 3.8655
-9.56545 132.782 5.96201
-15.1974 86.5722 -8.22278
-5.05174 144.517 1.98023
-6.3252 124.67 -6.87643
-3.87946 138.197 -4.69957
-9.8521 132.711 6.38845
-8.67913 135.519 5.10244
-7.08006 121.826 -6.95441
-13.9393 108.457 1.50237
-8.29353 113.513 -9.09452
-16.0588 82.6982 -8.87537
-16.1759 97.3722 0.124673
-8.75368 135.719 5.16485
-16.6243 89.7618 -3.4396
-17.9117 84.8883 -3.37481
-17.0479 83.0982 -6.58375
-16.5182 82.0098 -8.5225
-7.73292 138.74 4.21898
-10.1287 133.619 6.89784
-14.5806 90.0611 -8.57779
-8.16335 137.99 4.52826
-18.9365 81.7707 -3.29209
-10.9875 130.607 6.75453
-16.5931 94.4421 -1.37161
-17.9183 85.2954 -3.71946
-16.9738 90.6848 -2.79763
-14.1486 108.676 1.00679
-2.62338 149.405 -2.42911
-18.2732 81.601 -5.34842
-5.24632 133.708 -5.58575
-6.26125 128.504 -6.27723
-7.36172 140.699 3.58585
-3.62129 143.878 -3.54045
-7.95333 120.436 -7.13044
-2.23515 152.099 -2.01779
-7.1286 141.352 3.31478
-15.5321 104.553 1.5152
-6.20974 129.066 -6.38038
-11.6076 126.818 5.16731
-7.54262 141.342 3.75014
-4.00705 142.599 -4.06238
-4.4719 139.811 -4.67204
-5.82669 132.283 -5.9133
-11.8669 99.9286 -10.7441
-17.1399 83.2278 -8.08765
-8.48827 139.59 4.73126
-17.4699 90.3382 -3.25807
-13.878 119.205 5.30167
-2.65635 152.083 -2.06938
-11.6881 101.202 -10.7579
-13.1098 124.456 6.56543
-5.23749 136.127 -5.64487
-8.69598 117.679 -8.4932
-17.4702 92.0428 -2.75318
-18.9622 83.5277 -4.30965
-6.02888 132.739 -6.07672
-14.2728 113.19 2.04378
-18.8088 83.9667 -4.54305
-7.11623 143.952 3.07667
-17.4828 83.9952 -7.94993
-18.9649 82.8859 -5.06337
-15.1974 107.236 0.390909
-5.90187 133.57 -6.27032
-11.0758 134.962 6.99595
-7.19884 127.904 -6.57545
-14.0606 93.77 -10.4669
-15.0806 107.572 0.224735
-16.6388 88.3313 -7.54106
-17.4325 84.069 -8.17899
-8.9257 118.734 -8.00084
-8.65939 121.434 -7.09911
-13.2528 124.608 5.8486
-18.9772 83.8892 -4.76585
-9.81597 113.087 -9.45345
-6.47095 131.393 -6.63558
-17.8587 89.4604 -4.29962
-14.0249 123.678 6.91045
-10.5254 138.512 7.34677
-10.621 138.636 7.40328
-11.3362 105.578 -10.7012
-17.3539 87.0509 -7.3384
-15.242 107.628 -0.167742
-14.2563 123.782 7.06918
-13.2099 125.156 5.31505
-13.4817 123.905 5.17533
-13.4882 123.933 5.1722
-11.2948 135.981 7.02557
-10.3036 111.526 -9.9885
-14.2837 95.2998 -10.1567
-12.8998 125.951 4.80974
-5.72602 136.729 -6.05379
-14.726 93.4855 -10.2958
-13.5832 98.346 -10.1418
-11.8197 134.326 7.07406
-9.02815 142.19 4.99547
-13.5246 126.535 6.40287
-8.81776 123.484 -6.97938
-17.4543 97.357 -1.81644
-10.6705 139.565 7.05346
-10.3264 139.99 6.46854
-13.5347 128.643 7.27863
-6.15042 134.687 -6.92597
-12.2503 134.139 7.42299
-12.3261 133.992 7.48743
-18.9998 85.4004 -5.54552
-17.0091 101.756 -0.639594
-18.4555 90.5958 -3.9439
-14.8356 119.146 4.38739
-15.0024 125.188 8.39845
-9.60957 143.119 6.0198
-17.9241 92.699 -4.14016
-18.5775 90.4117 -3.949
-4.59281 147.366 -3.60411
-10.5736 112.956 -9.85926
-15.3813 114.203 2.46116
-7.28255 130.652 -7.25466
-11.8631 136.526 7.26342
-4.78504 146.395 -3.89865
-8.98019 144.177 4.81689
-17.6656 95.3323 -3.52267
-17.302 101.204 -0.902057
-16.8996 90.8888 -8.08645
-8.78984 124.801 -7.45623
-14.8445 96.1882 -9.99905
-14.745 96.6406 -9.97766
-11.8689 137.578 7.33317
-12.3558 107.797 -9.32536
-7.50771 147.968 2.9521
-16.6127 105.227 -0.726535
-12.6089 104.941 -10.6225
-5.42543 143.543 -4.85057
-13.3616 132.717 7.71959
-14.7171 127.636 7.91447
-15.4789 113.269 1.13118
-16.4601 105.852 -0.984808
-14.9623 120.115 3.90975
-12.8334 135.403 7.88658
-18.0892 92.8222 -4.94212
-15.7216 116.12 3.26598
-4.16972 154.416 -1.70307
-12.7694 135.746 7.83524
-11.5462 140.437 7.68717
-4.46022 152.346 -2.25841
-13.2483 102.68 -10.8266
-6.4359 136.175 -7.2106
-12.7917 107.096 -9.30257
-13.457 101.793 -10.8713
-7.17412 149.103 2.21338
-16.0472 109.296 -0.249084
-18.6672 91.1887 -4.83414
-8.25887 147.229 3.54735
-6.96113 134.336 -7.30124
-18.7225 86.686 -7.49649
-6.22329 138.534 -6.63675
-18.085 93.8281 -4.83083
-10.4017 143.712 6.44607
-18.0786 94.028 -4.78211
-13.0249 135.901 8.03861
-13.6406 132.593 7.45086
-18.5019 91.8524 -5.23031
-11.7422 141.205 7.94419
-18.0742 89.2002 -8.00054
-16.171 123.589 7.93731
-11.5694 111.803 -10.3096
-16.1356 114.905 2.53779
-7.54182 149.269 2.25146
-8.05988 130.511 -7.74498
-5.87485 143.891 -5.0871
-14.3093 100.777 -10.6145
-19.0548 90.9598 -5.2296
-19.6187 87.2604 -6.10777
-18.3345 96.7796 -3.54212
-6.50372 139.59 -6.52108
-17.8796 101.926 -1.67085
-16.3509 117.081 3.67764
-16.5467 106.686 -2.10432
-16.3812 116.956 3.59687
-14.7436 99.8845 -10.5633
-8.96994 128.041 -7.64369
-19.6874 86.7567 -6.56579
-16.4952 122.645 7.04735
-6.52237 141.075 -5.97373
-16.5839 122.387 7.06569
-15.0443 129.358 7.51754
-12.8362 139.026 7.81413
-15.9368 127.092 8.08433
-6.74045 140.677 -6.2367
-16.5285 114.511 1.58719
-16.9717 121.668 6.93093
-16.5054 116.632 2.78813
-5.75467 147.987 -4.36007
-19.7586 86.5438 -7.49414
-14.2034 135.657 8.45202
-16.904 110.146 -0.29709
-9.73014 146.848 4.28584
-5.71237 152.773 -1.91494
-16.6441 115.873 2.29725
-16.6095 115.988 2.25763
-5.86028 148.543 -4.17643
-17.1484 121.562 6.83054
-16.9337 106.667 -2.77747
-5.68308 152.139 -2.72854
-19.3396 88.4075 -7.95119
-13.5319 137.849 7.62128
-18.9778 92.8748 -6.25729
-5.85695 150.67 -3.30832
-18.837 98.0714 -3.56773
-13.9882 107.395 -9.6977
-7.60112 136.488 -7.78093
-16.5452 121.044 4.52075
-16.3736 121.109 4.12331
-17.8722 122.651 8.55002
-6.99686 153.396 0.704357
-18.0764 102.045 -3.36559
-12.4642 142.863 7.49372
-6.69437 144.243 -5.58319
-14.8761 104.912 -9.54329
-16.2755 123.232 4.71611
-13.9987 108.584 -9.71921
-18.1361 122.738 8.70362
-7.96084 136.274 -7.75499
-16.5877 97.8291 -9.97535
-18.0035 93.5207 -9.14778
-6.7904 144.831 -5.56443
-11.084 146.048 5.46787
-16.8243 120.879 4.18916
-18.005 121.573 7.41785
-19.2875 94.1576 -5.94933
-12.3123 117.175 -9.0239
-15.2385 132.655 7.27547
-6.29671 151.399 -3.16152
-11.4884 145.582 5.81893
-6.81589 153.668 -0.612084
-17.4476 95.7142 -9.66611
-11.4898 122.608 -7.95703
-7.58729 140.673 -6.58023
-17.0969 114.072 0.385307
-18.2892 102.262 -3.80631
-18.4403 123.174 9.04419
-17.8661 104.391 -3.57831
-12.6966 115.999 -9.09898
-17.5898 108.826 -1.61122
-16.966 120.434 3.79867
-17.0239 116.698 1.63789
-19.3451 95.4964 -5.45504
-17.8825 120.225 5.80354
-12.9296 143.018 7.47826
-16.0132 102.182 -9.53243
-15.3863 133.523 7.61916
-16.028 130.043 7.04673
-9.80931 128.718 -8.7407
-18.9962 99.5175 -4.11611
-17.4505 112.488 -0.0872082
-7.65677 141.496 -6.34146
-18.755 92.9867 -8.63345
-8.18568 138.308 -7.02724
-17.6612 106.786 -3.18568
-17.7848 122.594 6.52217
-15.6286 134.247 8.25594
-14.8344 107.026 -10.024
-7.34717 153.903 -0.0687714
-8.7242 137.09 -6.8081
-18.2373 120.526 6.15091
-11.7604 145.813 5.66649
-7.70078 153.411 0.421113
-7.91408 140.727 -6.65277
-17.2976 97.9097 -9.70495
-14.0014 140.86 8.01152
-18.7801 93.7278 -8.74716
-7.63329 143.534 -5.94627
-17.948 109.566 -1.45072
-19.0786 98.779 -5.22869
-18.6213 102.443 -4.20671
-19.165 123.145 9.40163
-17.9897 125.198 7.79411
-7.13186 151.309 -2.75796
-17.8907 119.953 4.39403
-9.75643 133.066 -7.35728
-10.3498 128.116 -8.91099
-17.3982 116.908 1.30394
-7.92332 142.56 -6.20196
-12.3755 120.803 -8.55974
-8.13279 141.283 -6.54897
-18.0181 107.232 -3.10784
-7.69341 152.735 -0.849428
-16.4952 130.386 6.97796
-19.698 95.7963 -6.05735
-17.2665 120.766 2.96518
-13.5089 115.353 -9.35745
-19.6203 122.381 9.4342
-19.9787 92.4676 -7.59608
-7.39095 150.598 -3.22112
-9.43003 136.696 -6.63291
-17.7791 98.4229 -9.47916
-12.0442 146.344 5.3429
-8.955 138.763 -6.67445
-10.2308 129.695 -9.03615
-19.5535 120.851 8.1199
-7.59974 148.191 -4.41798
-18.0446 126.159 7.52409
-19.2131 120.942 7.20959
-8.21508 143.588 -5.77569
-9.50603 137.329 -6.42102
-19.1825 101.177 -4.77795
-9.62185 150.394 1.59321
-9.84039 149.952 1.85203
-12.3256 123.708 -7.91874
-8.24573 144.193 -5.59674
-9.83828 136.172 -6.65368
-17.9874 98.9748 -9.31704
-13.2711 144.532 6.53809
-18.4373 109.791 -1.8073
-13.1086 120.093 -8.48877
-18.4406 119.268 3.70406
-17.99 99.716 -9.161
-18.3854 126.308 7.61374
-17.8195 128.013 7.17913
-13.3203 120.047 -8.42491
-14.0081 117.022 -8.68732
-14.0172 116.934 -8.72018
-14.3714 113.794 -9.82599
-19.2269 124.947 8.48367
-14.2098 115.59 -9.22086
-18.9612 121.417 5.60087
-11.9766 131.239 -5.42839
-15.795 121.176 -2.32084
-12.1556 130.099 -5.89225
-16.0035 120.631 -2.30512
-19.363 120.353 5.60249
-8.24915 148.765 -4.20949
-16.3749 108.146 -8.94494
-17.4997 117.467 -0.673787
-11.0786 129.616 -8.87839
-17.7641 121.038 2.071
-14.1986 117.742 -8.51778
-12.0677 130.455 -6.04967
-9.79849 139.278 -6.28931
-19.4984 120.257 5.66593
-18.8031 106.63 -4.17395
-19.1621 125.794 8.0639
-18.0612 116.519 -0.167767
-19.8863 120.854 6.81702
-21.4449 120.393 10.2817
-18.5385 119.462 2.72234
-17.0812 107.297 -8.09377
-19.0181 120.771 4.56254
-8.46014 148.493 -4.28912
-17.3966 132.941 7.89256
-21.6745 118.7 9.65329
-17.8 119.756 0.861018
-18.9149 119.96 3.66089
-18.8309 109.135 -3.0486
-10.0233 139.35 -6.2022
-12.643 131.866 -4.41863
-17.7004 106.116 -7.64295
-11.9757 129.399 -7.53682
-18.646 119.942 2.8673
-12.8283 125.151 -8.0731
-11.9904 133.696 -5.00787
-17.899 105.802 -7.50945
-9.15207 144.674 -5.35054
-16.3869 120.877 -2.16939
-21.7247 119.518 9.84043
-9.81603 151.581 0.319411
-17.5298 134.501 8.66321
-19.0105 120.314 3.40729
-16.6021 118.287 -3.64649
-11.887 134.441 -5.37122
-20.3254 120.765 6.76897
-19.4041 126.374 7.89062
-17.074 119.328 -1.96318
-16.9189 120.057 -1.90193
-19.1984 107.223 -4.19524
-16.802 119.454 -2.68637
-19.7939 125.989 8.32021
-17.308 117.175 -2.9357
-15.708 122.711 -3.50724
-21.797 118.414 8.57642
-15.2732 142.416 7.1184
-21.7091 120.189 9.25295
-19.4482 104.232 -5.74643
-21.938 120.002 9.66729
-18.4982 114.687 -1.90754
-19.4551 102.824 -6.72153
-15.933 112.332 -9.56365
-9.90995 144.19 -5.04373
-15.859 125.081 -2.14772
-12.1393 135.964 -4.62262
-18.5689 114.487 -1.99027
-14.9936 122.877 -5.58396
-16.6351 118.155 -4.4669
-18.9061 114.105 -1.43646
-12.8175 144.096 1.81973
-19.3284 101.979 -7.68337
-16.3529 119.848 -4.17794
-18.6852 114.61 -1.73018
-13.5204 124.157 -8.46855
-20.2785 120.839 5.80451
-16.6888 119.997 -3.35325
-18.4165 120.867 1.20379
-15.993 125.545 -1.89815
-18.1942 120.921 0.623227
-18.7572 129.55 7.10274
-12.8167 141.818 0.120746
-15.9109 121.118 -4.82973
-19.1922 121.05 3.00457
-15.6677 126.202 -2.41154
-17.576 120.41 -1.29202
-10.2153 144.311 -4.7296
-16.3604 121.264 -3.74583
-14.3803 122.063 -8.06398
-15.7864 127.465 -1.46798
-19.6319 104.284 -6.08214
-17.4852 120.881 -1.3458
-19.5279 105.761 -5.51437
-18.8605 120.14 1.43484
-12.6081 143.02 0.00648768
-15.2978 122.996 -5.51397
-19.3126 128.331 7.32725
-15.5241 127.931 -2.05094
-9.76098 147.662 -4.14494
-12.8287 147.526 3.14811
-14.9689 124.345 -5.55755
-18.5899 120.179 0.65189
-11.93 148.672 1.63946
-18.0827 115.33 -3.47811
-14.1914 128.064 -5.24491
-13.41 127.111 -7.73191
-13.3937 146.05 3.53396
-11.5344 140.535 -4.33014
-11.7683 139.672 -4.29212
-15.1314 119.473 -8.29513
-17.2136 121.062 -2.36627
-10.0897 146.674 -4.28148
-14.2845 125.814 -6.66189
-14.9091 130.427 -2.4082
-13.2895 136.289 -2.85119
-13.8218 136.786 -1.31012
-13.7811 130.543 -5.16326
-17.3346 119.905 -2.96753
-13.3055 138.544 -1.53393
-13.3961 127.48 -7.9469
-17.2944 118.488 -3.9453
-15.007 131.037 -1.95972
-17.7179 118.397 -3.02942
-10.2891 146.605 -4.06324
-17.5051 120.337 -2.4278
-12.4507 144.991 0.0919851
-12.8316 142.658 -0.390618
-15.1078 126.357 -4.65892
-13.8835 128.359 -6.41899
-16.2234 119.762 -5.94939
-19.4031 129.038 7.24402
-15.2712 128.033 -3.30562
-14.0589 135.447 -1.8083
-13.6106 143.363 1.82848
-14.0162 130.513 -4.88284
-14.3513 126.55 -6.44567
-14.1041 126.358 -7.18353
-13.0109 139.071 -2.25498
-20.6093 120.392 4.86965
-15.5883 129.204 -1.95478
-14.6345 125.187 -6.66444
-14.8877 144.479 5.40591
-15.5468 127.751 -3.01174
-19.2596 107.796 -6.02688
-21.8775 123.551 9.68158
-16.0396 125.079 -3.4865
-15.8494 126.672 -3.00932
-15.9631 116.148 -9.04354
-19.343 106.208 -6.84865
-18.9482 120.444 0.708804
-14.7818 133.123 -1.75499
-10.461 148.169 -3.17667
-15.8738 126.77 -2.94061
-11.2859 149.619 -0.341753
-11.3315 142.76 -4.34203
-16.2137 120.885 -5.66404
-17.0808 139.684 7.64086
-16.9108 122.481 -3.06293
-18.5021 121.231 0.0160434
-15.2197 132.047 -1.42507
-11.9605 142.961 -2.77364
-14.5306 134.582 -1.61725
-16.8837 122.785 -3.01671
-17.7873 109.752 -8.6453
-17.2186 119.19 -4.46329
-15.7687 122.415 -6.03011
-14.772 125.975 -6.30847
-11.9333 143.566 -2.65237
-14.047 126.259 -7.92559
