ply
format ascii 1.0
comment Created by Open3D
element vertex 1813
property double x
property double y
property double z
end_header
11.4691 110.379 4.81721
1.52542 117.38 8.57276
-28.7405 140.656 7.56407
8.85124 112.903 0.855035
-33.1716 144.294 5.52778
-14.3006 128.942 11.8064
6.03569 115.956 -5.7361
-32.9169 144.446 2.90085
-0.79042 119.035 8.10095
-23.9187 136.868 6.81393
10.4952 111.259 2.011
-26.6044 139.862 -0.0410923
-24.7942 137.407 6.91496
10.5536 111.054 2.08698
-1.43947 121.357 -5.68982
-19.2594 132.388 11.6569
-5.59928 124.516 -6.12703
-29.7097 141.786 1.58465
-19.4059 134.303 -1.17566
-24.1574 137.642 0.754446
-27.8687 140.539 0.230796
11.054 110.381 2.9515
8.2631 113.085 -0.998664
-23.7535 136.23 7.33648
-14.1252 130.046 -0.964129
-1.37351 120.996 -5.75572
4.65516 116.975 -9.88454
-20.6144 133.158 11.3892
-29.2634 141.182 1.35922
6.86234 115.026 -8.61829
-19.2708 131.973 12.0018
-3.63195 122.617 -5.8446
-30.3005 140.985 7.59438
-35.0258 145.08 4.28304
-0.441462 118.064 8.25072
5.88316 112.563 12.7785
-6.10881 122.177 9.02496
-6.34239 124.629 -6.54473
-1.76156 120.989 -5.77565
7.29982 113.647 -3.02552
6.34361 114.779 -6.12692
-0.807229 120.394 -7.19998
-19.2688 133.796 -2.39013
5.04573 116.136 -8.74673
-11.4595 127.943 -3.33806
-29.4239 140.941 1.29909
4.69747 116.34 -8.84
-5.08961 121.185 8.82856
3.46695 117.133 -8.33972
-16.7792 131.512 -0.943531
-33.3208 143.571 2.87361
-25.5445 138.141 -0.730649
-24.4204 137.187 -0.167089
-21.8194 133.657 10.22
-18.3673 130.688 12.1634
6.90796 114.323 -8.25981
10.9031 109.687 2.51388
-2.98363 121.528 -5.93954
-24.3224 137.112 -1.22394
-23.3215 135 7.81263
-4.32731 120.282 8.73116
-32.6725 142.229 6.57164
-26.6696 138.687 -0.731832
-2.54792 120.969 -5.96909
-19.3152 133.25 -3.01434
4.95247 115.47 -8.31067
9.22589 111.442 -3.1848
-7.05316 121.999 9.42046
-23.0188 135.664 -0.660619
-2.44402 120.758 -6.26642
5.38687 111.979 12.649
3.11474 116.741 -8.00205
11.2619 108.447 5.31719
-0.0109702 116.561 8.66443
6.29384 111.095 12.882
-19.2747 132.949 -3.04605
-19.5008 133.076 -2.80111
-17.635 131.459 -1.59222
11.1337 108.482 4.99968
8.47935 109.675 10.5249
0.143039 118.825 -8.46309
-16.3762 128.406 12.2552
-33.5404 142.891 2.91884
10.7168 109.014 3.08649
-11.3586 124.536 12.2395
-23.5296 134.353 7.69743
-10.8507 124.04 11.9397
-24.7893 136.283 0.801667
-11.9528 127.101 -3.54287
10.5307 108.248 7.7543
-28.2698 139.143 -0.835021
-4.69553 121.92 -6.41675
-19.2128 130.283 12.1073
7.69265 112.351 -5.82861
-33.2321 142.361 2.70721
-2.13452 117.734 8.5569
-14.4008 126.592 11.8825
8.8864 109.056 10.0444
-9.61759 122.924 11.3632
-10.316 125.932 -5.5577
-28.6597 138.107 7.00233
7.45776 109.732 12.132
-5.7594 122.549 -6.89659
6.06191 110.567 12.9976
3.58225 115.532 -8.01669
-34.3947 142.84 3.31281
-5.07192 121.852 -6.69385
-3.29323 120.513 -6.851
-26.1152 135.991 6.07571
2.69387 115.987 -7.72547
9.57834 109.752 -1.29843
9.53818 108.266 9.02068
7.74654 111.702 -5.11383
-34.2193 142.546 3.18461
1.98905 113.918 9.6757
-20.0371 132.317 -1.09411
5.54547 113.857 -8.60057
10.3803 108.361 2.57706
-5.36183 119.447 9.01269
-23.8554 133.333 10.352
-7.34709 123.29 -7.25084
6.72486 112.559 -7.57978
-13.1056 127.042 -3.03046
-26.0236 135.552 5.99528
7.30441 111.903 -6.51925
-32.3871 140.026 7.88541
-21.0007 132.641 -1.2745
-25.3553 135.694 0.267814
-27.6553 136.419 7.22006
-25.4824 135.746 0.410282
-19.8299 129.69 11.9867
-30.2252 138.186 8.03794
-19.3841 131.201 -0.876739
-25.4359 135.673 0.159375
9.22456 107.705 9.61321
-33.8092 140.886 7.51811
-25.4314 135.603 -0.13109
10.9463 106.878 5.9945
-20.0059 129.639 11.9729
0.18124 117.254 -9.02873
7.22664 108.689 12.5332
-0.942111 115.378 9.03137
-34.9186 142.199 3.10755
-32.0864 140.198 1.78927
-36.7598 142.94 7.06498
-5.94319 119.049 9.22108
-20.9175 131.988 -1.17301
7.5542 110.789 -5.09156
-8.20193 123.167 -7.45804
-23.7922 134.019 -0.512473
-10.021 124.361 -6.45494
-34.8976 141.96 2.95807
3.90564 114.097 -9.41354
-23.2811 133.555 -0.677896
-15.8631 125.972 12.1456
-11.6949 125.276 -4.85893
-6.53677 119.222 9.45184
0.732011 116.388 -9.14708
-29.4594 138.26 -0.953831
-27.5912 136.889 -1.34369
-23.9887 132.231 11.3458
-2.86531 118.926 -8.11422
-8.48129 120.428 10.7847
-8.24183 120.265 10.5914
-37.6391 143.258 6.82567
-21.8989 132.363 -1.05259
-24.3362 132.537 10.2344
-23.7562 131.731 12.4503
9.57828 107.874 1.0492
-28.9267 137.609 -1.19178
-10.8308 124.456 -5.90715
-24.1219 133.814 -0.513061
-19.4931 128.429 12.073
1.59049 115.379 -8.84542
-27.1768 136.003 0.403942
-36.9419 142.431 7.25467
-25.0137 133.275 7.51395
2.27585 114.748 -8.41355
-16.3857 125.925 12.2547
-9.37733 123.44 -7.3401
-16.093 125.623 12.3036
-26.7916 135.582 -0.0457234
-27.6378 135.198 6.88612
7.11223 107.744 12.7015
-6.43821 118.542 9.46939
-26.4789 135.345 -0.904249
9.88189 107.05 2.49609
-4.27523 119.382 -7.88687
6.84562 110.732 -6.86819
-18.0655 126.902 12.5014
-31.822 138.071 7.93299
-23.8322 131.224 12.5796
-29.9557 137.887 -0.950314
-28.3083 136.516 -0.372083
-36.6958 142.233 3.80917
-29.6194 137.509 -1.08999
0.515418 115.721 -9.60786
-28.8136 135.679 7.09488
-9.72963 120.418 11.6937
-24.6462 133.58 -0.495271
-11.6748 121.715 12.4152
-6.97234 121.068 -7.76361
-22.257 131.748 -1.08151
-3.28387 118.281 -8.51403
7.04529 109.954 -5.57501
-23.4515 130.564 12.7485
9.84839 106.494 3.24896
6.56777 107.553 13.0966
-9.88 123.087 -7.26473
-30.1223 137.605 -0.983154
10.6102 105.465 5.65478
7.9539 106.617 11.2288
-5.37811 116.998 9.44917
9.263 105.83 9.08596
-32.2714 138.761 0.726215
-37.4241 141.649 7.47956
-2.56618 117.414 -8.95365
-12.3905 121.712 12.7293
-16.3581 126.855 -1.84126
-27.8876 134.373 6.95855
-19.4824 129.155 -1.38991
-22.6937 131.49 -0.715791
-10.405 122.99 -6.99506
-37.8306 142.266 4.08508
-24.8681 131.074 12.5752
-4.01486 115.597 9.34861
-13.7982 125.014 -3.88685
-36.8955 141.489 3.53858
0.962356 114.526 -9.95365
6.91146 106.677 12.5599
-11.5824 123.499 -5.87719
9.3762 106.287 2.1701
-11.2102 123.214 -6.33209
1.44929 111.037 10.4956
-12.824 124.203 -4.97117
-34.2794 138.68 7.99088
-32.715 138.534 0.769833
-18.64 128.114 -1.56351
-25.7918 131.805 10.4721
8.44106 107.203 -0.395633
-32.2299 138.214 0.0216405
-27.6352 133.719 6.65356
-19.1105 126.291 12.6963
-25.3417 131.154 11.8527
-20.1445 129.159 -1.81529
-9.35688 121.805 -8.15868
8.95161 106.236 1.51912
-14.2424 124.726 -3.76345
2.21548 109.912 11.4724
4.51965 107.865 13.2973
1.55609 113.552 -10.089
2.57205 112.798 -10.2644
-31.2195 137.093 -0.0854355
-26.8366 133.616 0.402307
-22.5676 130.685 -1.86167
7.22585 108.27 -4.34434
-7.22434 117.048 10.1252
-2.29656 116.102 -9.12443
-5.06681 118.031 -7.84482
-34.4666 138.987 1.72477
-18.9798 127.67 -1.85894
-22.6183 128.309 12.6592
-40.324 142.736 6.51964
-32.8468 136.767 7.61321
2.03956 109.497 11.5977
-28.1513 134.225 0.0860107
2.43233 109.081 12.1054
-27.1416 133.334 0.557649
-30.6698 135.026 7.20731
-15.1261 122.263 12.9603
-31.1878 136.372 0.178755
-12.6333 123.002 -5.6149
6.95089 107.846 -4.44315
-27.716 133.635 0.286209
-29.0355 133.734 6.45984
-24.066 130.967 -0.708662
8.71434 105.602 1.34201
-24.1042 131.082 -1.40483
-24.5461 129.255 13.2541
-27.7149 133.556 0.314986
-30.1145 134.462 6.58722
-30.2823 135.613 -0.588188
-14.7149 124.176 -3.79521
-9.84009 121.108 -8.33093
-30.6525 134.717 7.14633
9.18327 104.948 2.49006
-31.2467 136.116 0.359799
-19.0531 124.906 13.1621
-23.6709 130.603 -1.72218
-10.0784 118.121 12.231
-8.05845 116.796 10.6225
-26.1042 130.339 12.1275
-29.57 133.742 6.79517
-39.9179 141.883 5.15598
-26.99 131.08 11.3045
-39.8137 141.446 7.25072
7.9094 104.377 11.2132
-11.3278 121.719 -7.17865
-40.2351 141.926 5.57619
-5.3381 114.561 9.88496
6.46863 108.043 -7.30964
-34.5431 138.124 1.26449
-36.8725 139.704 2.62462
-11.5013 118.743 12.9136
1.65743 108.699 11.7613
8.93013 103.498 9.28583
-14.784 121.038 13.2582
-7.16192 115.623 10.3317
-14.046 120.396 13.4968
9.30537 104.212 2.15403
1.97878 111.553 -10.0893
7.53136 106.017 -1.50854
-32.5824 136.235 1.42453
-13.3619 122.536 -5.34911
-19.3767 124.425 13.107
-11.4303 121.313 -7.29171
4.80995 109.034 -8.20732
-16.1908 124.31 -3.17385
-24.7452 130.617 -1.84445
10.0319 102.592 7.67864
-23.192 129.436 -2.7379
-32.413 135.046 7.05667
-12.7548 119.076 13.4981
-25.2137 130.811 -1.81669
7.44927 103.855 11.6809
-29.9967 134.003 0.780536
-24.3893 130.168 -2.29609
4.21958 106.021 13.2448
6.64703 106.948 -5.79984
9.77042 103.268 2.53395
-28.7731 131.636 9.09411
8.40176 104.519 0.027753
-14.8941 120.308 13.3881
-9.77663 119.674 -8.96598
-38.7041 139.283 7.71508
3.24045 106.468 12.6807
6.6922 103.816 12.3667
9.95832 102.126 6.76685
-40.9019 141.193 5.39392
-36.1516 137.981 2.51154
-14.4014 119.715 13.5128
2.06297 107.284 12.2185
-25.5412 130.431 -1.98337
-12.4345 121.07 -6.49717
10.0113 101.842 7.62235
-25.2726 130.044 -0.883623
-25.2191 130.114 -1.8477
4.02576 108.723 -8.43391
-28.538 130.925 9.57291
-11.9316 120.644 -7.16858
-27.6265 131.473 0.749784
5.47997 104.301 13.2508
8.77443 102.308 9.63482
-5.12327 112.76 10.085
-30.643 132.965 5.23887
-26.1988 128.441 12.7754
-22.1752 125.269 13.1451
-11.391 120.095 -8.19364
-30.4097 132.468 6.44266
3.28652 108.912 -8.64636
-21.4769 124.63 13.1815
-5.18421 115.363 -8.61145
-22.6675 125.536 13.0747
-15.521 120.02 13.3366
-15.5723 120.028 13.3353
-35.7242 136.309 7.22381
-35.4021 136.673 3.00524
1.87039 106.843 12.1618
-31.8533 133.549 5.59287
-2.72822 113.555 -10.4132
-34.782 135.494 6.93373
3.01942 108.856 -8.7528
5.57873 106.803 -8.18139
3.3209 108.582 -8.64328
-40.7192 139.871 7.41184
7.76366 104.038 -0.957721
-39.4927 138.916 7.41819
-13.4736 120.962 -5.75547
-41.959 141.04 5.69079
-17.9154 123.958 -3.23936
-30.5284 132.152 6.43072
-11.6188 119.808 -8.12596
-40.2561 139.79 4.80622
3.3727 108.387 -8.68016
-30.5713 132.293 5.00635
-11.4065 119.594 -8.52741
-9.62261 115.215 11.9903
-36.9492 136.778 7.05325
-28.3486 131.037 1.33482
0.751618 107.259 11.7345
-40.0232 139.069 7.3061
-41.0408 139.821 7.4303
9.59047 101.415 5.39844
9.64964 101.594 3.31811
-30.7394 132.012 6.35762
-7.16789 116.241 -8.96251
8.91682 101.274 9.23307
-8.25659 117.096 -9.17544
-30.8989 132.124 6.25132
-43.0416 141.351 6.4809
-19.3489 122.257 13.1032
-39.0776 138.189 7.15671
-12.239 119.803 -7.39559
-38.1506 137.477 7.10014
9.50139 101.799 1.91326
-38.1398 137.799 4.34588
-21.7421 126.335 -3.61094
-29.4206 131.517 0.983997
-0.862821 108.215 11.0549
-41.1381 139.596 6.86596
-10.7536 118.727 -9.21381
-29.3174 131.437 0.846121
-28.641 130.854 1.19781
-18.0399 123.47 -3.70685
-19.8503 124.839 -3.6361
-34.3049 134.434 6.09767
-2.1098 109.131 10.8501
-3.7779 113.418 -9.68987
-30.8946 132.524 1.26647
-28.3628 129.155 10.9879
-16.5978 122.382 -4.22898
-27.5599 130.196 -0.385296
-42.7509 140.499 7.73564
8.29272 101.028 10.8625
-38.6193 137.762 4.73778
-17.0487 122.548 -4.11534
-14.6532 118.055 14.0276
-35.5902 135.582 3.61669
-31.4696 132.186 5.21001
-42.9922 140.729 7.00157
-3.93193 113.284 -9.65322
-43.0332 140.614 7.69748
-19.3701 121.691 13.2242
9.65262 100.226 8.0685
4.92583 106.197 -8.44224
-29.828 131.281 1.39312
-12.3442 116.129 13.5545
-31.9557 132.25 5.73225
-31.3789 131.858 5.1505
-35.911 135.134 6.10342
-37.0787 135.975 6.35794
-41.9894 139.578 7.27647
-32.2603 132.416 5.30781
-5.37057 113.988 -9.21179
-29.88 131.151 1.28075
4.10594 103.316 13.8888
-14.2161 120.188 -5.74249
-31.7569 132.287 3.09182
-4.48311 113.25 -9.35772
-31.2107 131.448 5.76916
-42.6106 139.869 7.69832
-41.0357 138.981 5.41538
-29.3991 129.4 9.32354
-30.098 130.781 3.29009
-29.6025 130.496 2.19189
-38.2725 136.496 6.37792
-30.4875 131.129 2.35721
8.98916 99.9083 9.41734
-16.1938 118.518 13.7103
-6.95717 111.828 10.8047
-30.5417 131.059 2.47051
-29.7604 130.526 1.98605
-29.2713 130.324 0.699468
5.22866 105.243 -8.1774
-14.0453 116.626 14.2847
-28.8148 129.931 0.349065
7.16583 102.726 -1.66538
-32.7798 131.987 6.81161
-37.2472 135.741 4.41188
4.59883 102.422 13.508
-10.9998 117.705 -9.57727
6.4204 103.454 -3.22151
-39.5706 137.286 5.59573
-27.0792 128.801 -1.77979
-29.5374 128.998 9.60849
-13.0157 118.813 -7.10325
4.27827 105.804 -8.71503
-31.8798 131.479 4.62697
-34.5415 133.182 6.81097
-20.5825 124.115 -4.16297
-28.5988 129.455 1.10544
-10.4236 117.152 -9.93812
-20.4527 123.959 -4.18394
-21.0268 124.37 -4.18213
0.318849 108.86 -9.66593
-26.3415 128.181 -2.64637
4.18701 102.45 13.662
-42.3409 138.948 7.23198
-28.5272 129.464 -0.193324
-5.14929 112.961 -9.49976
-31.3482 131.158 2.8695
-40.0789 137.263 6.6219
6.20845 103.412 -3.81731
-11.5055 114.423 13.4107
-33.5531 132.413 5.45008
-22.8912 123.05 13.4819
-28.2864 128.992 1.03904
-31.5254 131.521 0.49588
-28.221 129.009 0.217075
-14.5933 119.493 -5.96667
-29.5368 129.817 1.51023
-7.49543 111.55 11.0508
-13.2598 115.494 14.1246
-32.2635 131.311 5.1915
-13.6504 115.703 14.2616
-27.7286 128.823 -1.83961
-30.4195 129.566 7.08639
-36.1358 134.126 5.77949
-0.394502 105.908 11.8596
-31.7424 131.446 0.691142
-29.52 129.58 1.82723
-24.5405 124.019 13.6708
0.285235 108.455 -9.58584
-27.2112 128.28 -1.50589
-21.4137 124.258 -4.30623
-16.1358 117.531 13.9831
9.12864 98.883 9.199
-36.0526 133.981 5.30878
-0.776482 109.247 -9.93703
-39.2073 136.352 5.50404
-12.1432 117.769 -9.0005
4.59281 104.901 -8.47691
-7.6211 111.349 11.1333
-29.9816 128.723 9.14971
6.634 100.298 12.1526
-19.0688 122.424 -4.90777
-29.8176 128.479 9.78784
-7.88521 111.378 11.2355
-13.0482 114.871 14.1563
3.75672 105.412 -8.95902
-30.0452 129.655 1.64641
-9.0293 112.125 11.5842
-29.3665 127.765 10.7911
-6.60858 110.311 10.9861
-29.5884 129.311 1.12104
-25.4831 126.879 -3.73596
-25.5851 126.955 -3.73437
2.09655 106.63 -9.44418
-14.159 115.526 14.5432
-4.51131 108.618 11.1862
-32.0024 130.466 5.42527
-8.90929 115.102 -10.232
9.29367 98.7505 6.15262
-17.6534 121.052 -5.56505
-33.3719 131.467 5.31917
-29.9259 128.141 10.0073
-39.3775 135.933 6.10647
-18.649 118.974 13.6792
-1.62808 109.521 -10.6143
-5.32609 112.203 -9.87049
-8.2369 111.302 11.3898
7.81496 99.0911 10.7203
-29.6459 128.91 2.51288
-27.5791 127.795 -1.07246
-38.2303 134.766 6.45506
-31.7723 130.479 1.92082
-40.9602 136.598 8.01799
-38.2412 134.629 7.20145
-30.8743 128.966 6.95786
-39.9785 135.977 6.49908
9.10064 98.0913 9.03301
-34.903 132.24 5.35316
-3.32414 110.504 -11.0524
-12.9723 117.421 -8.16946
-20.4928 122.668 -4.77447
-33.9694 131.483 5.31127
-31.8545 130.159 3.30323
-29.3973 128.863 -1.1402
-32.5791 130.432 4.54736
-39.4655 135.479 5.92812
-3.61403 110.539 -10.8951
-29.6872 129.015 -1.31
-30.0653 127.664 9.68186
-34.3192 132.258 0.448274
-29.4816 128.805 -1.26344
-15.7716 115.991 14.4723
-18.4572 118.094 13.9936
-26.0191 126.484 -3.92611
-29.6024 128.721 -0.630161
3.90369 100.977 13.4134
4.65579 100.404 13.2073
-32.4058 130.319 2.26565
6.4614 101.263 -2.50287
9.65708 97.7161 4.72579
-33.3748 131.087 1.24801
-30.264 128.649 1.58943
5.93172 101.77 -3.95475
-19.2391 118.361 13.9548
3.61253 104.257 -9.03714
0.238485 106.921 -9.81047
-36.6874 132.876 5.61485
-32.5735 130.127 2.9135
-15.1003 118.136 -6.71091
-4.10452 107.029 11.6393
-30.6315 128.88 0.716321
7.08318 100.368 -1.42219
-28.5555 125.6 11.9348
-28.1033 125.074 13.1523
-29.9614 126.968 9.7792
-36.7929 132.806 5.51023
-33.223 130.596 1.97129
-23.4595 124.061 -4.41591
0.186503 103.152 13.9631
-24.4081 121.864 14.3484
-39.698 134.811 5.67685
-25.9596 125.723 -4.10598
-28.1176 126.825 -0.498171
-35.5633 132.084 2.25911
-11.745 112.185 13.5484
5.09966 102.298 -6.99693
-34.5789 131.743 -1.05274
-22.6394 120.365 14.2656
-13.8712 116.853 -7.77564
-20.6372 121.645 -5.19955
-0.765543 107.131 -10.1079
8.61743 98.3154 1.08149
-35.649 132.15 0.923212
6.63761 100.314 -2.36962
-2.06231 104.805 12.3355
7.40187 99.5207 -0.961251
-9.66904 113.932 -10.4468
2.52899 101.042 13.8733
-10.2858 110.935 12.5541
-17.69 119.342 -6.29001
-19.7251 120.76 -5.60057
-28.661 125.097 11.296
-32.2284 128.961 3.44655
-32.0561 128.536 5.42747
-14.9419 117.327 -7.40382
-9.23198 110.108 11.9639
-32.0139 128.525 5.09064
-0.665783 106.784 -10.1018
1.99959 101.189 14.0991
-40.1197 134.628 5.43072
9.61563 96.6195 5.15366
-18.3787 119.685 -6.27819
2.02324 104.59 -9.79996
-13.7995 116.415 -8.05132
9.51204 96.8877 3.56908
0.527167 105.693 -10.0905
-16.4772 118.141 -6.45962
-10.2624 110.541 12.5761
-40.5071 134.786 4.78368
7.30347 97.3396 10.8887
8.24291 96.709 9.89922
0.700683 101.769 14.6486
5.21368 101.244 -5.62368
-17.421 115.526 14.9049
-30.2632 126.135 9.06779
9.47004 96.1053 6.61259
-13.7727 116.067 -8.40837
-36.0508 131.761 0.442432
-39.4401 133.64 4.91855
-22.9985 119.652 14.5082
-22.2909 119.126 14.3872
8.73193 96.2979 8.34425
-24.6123 120.864 14.4334
-37.0404 132.02 2.91863
-26.0296 121.804 14.1513
-2.80271 104.265 12.4765
-4.69798 109.144 -11.0213
-21.6225 118.342 14.4473
-16.8977 114.594 15.0721
-20.9188 120.646 -5.73224
-10.2864 113.211 -10.5264
2.84185 102.991 -9.34442
-11.8421 114.32 -10.1556
-29.0688 124.532 9.90167
2.43186 99.8312 14.0383
-22.5868 118.872 14.5238
3.57376 102.252 -8.75781
-28.7762 123.775 12.9409
-28.7469 125.986 -2.51756
7.8799 96.0495 10.3973
-15.5637 113.248 14.9608
-29.1579 124.413 9.5982
-8.77799 111.875 -11.2645
7.07516 98.4265 -2.24961
-12.0565 114.191 -10.222
-29.0657 124.265 9.55224
-1.36148 102.439 13.8443
6.86899 98.5623 -2.70036
-28.8338 125.846 -2.70699
-13.8822 115.324 -8.88216
-0.0930577 104.889 -10.2118
-13.1436 111.208 14.6099
-30.2535 126.355 -0.141365
-31.9245 126.777 5.68873
9.4168 95.2443 4.87343
-21.5914 120.515 -5.93462
-23.8076 119.155 14.7694
-28.8955 123.266 13.1492
-28.8186 123.656 9.98016
-28.9175 123.799 9.28439
9.13913 95.752 2.0256
-10.0634 112.282 -10.8433
-0.551286 101.22 14.8244
-8.03725 107.224 12.2463
-37.4069 131.251 0.935116
-26.342 120.835 14.2074
-4.19469 104.109 12.4764
-18.0538 114.304 15.1057
-15.2985 115.549 -7.9944
1.43779 99.425 14.3975
-32.1684 126.599 4.06321
-1.98325 101.991 14.0115
-22.1448 117.27 14.635
-31.6817 126.357 2.22075
-2.37579 102.273 13.6622
7.6218 96.8062 -1.47566
-22.1643 120.132 -6.24946
-13.0041 113.743 -10.4608
-6.64571 105.555 12.0298
-9.08391 110.859 -11.5477
-19.2693 114.675 15.1122
-29.4117 122.923 11.5436
-7.38103 109.524 -11.9941
-20.6958 115.641 15.2783
-5.15219 104.132 12.5358
-26.4935 120.16 14.4618
4.01679 100.089 -7.71678
-6.38941 105.088 12.1896
8.0771 95.7889 -0.140003
-1.84057 104.922 -11.1379
8.93203 94.7316 2.04204
7.54226 96.177 -1.32444
-11.9858 108.809 14.0282
-22.6362 119.901 -6.31941
-29.6322 122.78 10.4966
-22.9352 117.008 14.7768
-0.587323 103.666 -10.7068
-13.4075 109.654 14.9365
-7.09547 108.793 -12.2314
-20.7856 118.43 -6.68271
7.85769 93.9474 10.3139
-19.8292 114.373 15.2175
-15.7555 111.295 14.895
1.30357 101.86 -9.77291
-9.4044 110.32 -11.6634
-22.7714 116.616 14.8339
-2.37642 104.871 -11.6091
-21.4594 115.491 15.3592
-1.30778 100.116 14.9989
8.14899 95.0161 0.441587
-25.4375 121.582 -5.69934
6.9518 96.3099 -2.4292
3.28537 99.8842 -7.97452
-31.1017 124.897 0.207047
-12.6542 112.395 -10.9756
-29.816 122.564 9.07566
-1.76823 100.253 14.9643
-18.6429 113.118 15.0733
6.75045 94.1818 11.6366
-28.705 123.532 -4.22497
-31.1111 124.714 0.00941607
5.28823 97.7094 -5.68499
8.11525 93.2994 9.2156
6.3868 94.0625 12.0396
-3.39864 101.237 14.0459
-29.416 121.343 12.2804
-3.62672 105.211 -12.4937
-14.9229 113.31 -9.27809
-25.7028 117.911 15.26
7.4492 94.9083 -0.840583
5.30247 97.1269 -5.42966
-29.739 121.988 7.63441
-6.61801 107.261 -12.5273
-0.974304 98.8631 15.1738
-28.7618 120.213 14.339
-10.7117 110.196 -11.4644
6.19998 93.7673 12.1603
-14.0197 112.53 -10.4449
-14.4132 112.741 -10.0116
-22.2583 118.244 -6.89817
-17.3622 114.578 -7.96164
8.12589 92.6747 8.55214
-30.506 123.654 -1.44609
5.19673 96.9454 -5.55828
6.82966 93.1798 11.5036
-17.811 114.818 -8.01103
-0.369981 98.126 14.8682
-26.3251 120.987 -5.87169
-6.32124 102.9 12.9138
8.15657 93.5532 1.12778
1.1757 96.9451 14.2145
-21.614 117.386 -7.17881
-12.68 107.393 14.3621
-27.8373 118.886 14.8423
-10.8043 106.044 13.4971
-30.881 123.453 -0.594189
-18.7915 111.859 15.1499
0.389741 100.921 -10.2628
-28.037 121.839 -4.87934
-28.3844 122.051 -4.67016
8.45521 92.119 7.43042
5.67093 93.5132 12.323
-32.3041 123.763 3.87123
2.35076 99.0266 -8.16153
-17.719 114.327 -8.04521
-25.5703 116.812 15.3921
-16.1032 109.424 15.5296
-12.087 106.543 13.9698
8.87198 92.1397 2.74876
-30.8842 122.106 5.31664
-24.0405 115.351 15.6651
-3.82435 103.985 -12.5686
-17.9332 110.668 15.3523
-6.54346 102.274 13.1163
9.2008 91.448 4.81357
7.10579 93.8743 -0.824235
-27.6234 121.067 -5.28167
-28.108 118.41 14.9676
-0.217827 97.1424 14.5872
7.83418 93.0159 0.708193
-32.7817 123.945 1.24645
-29.894 120.858 6.78163
1.19897 99.3451 -9.14462
-8.28913 106.978 -12.1994
-15.7612 108.584 15.7195
3.13355 97.5683 -7.70342
-30.1011 120.002 12.4046
7.78092 92.7661 0.621333
-2.70881 102.643 -12.0642
-28.7495 118.642 14.4146
-28.6519 121.368 -4.72028
-30.4426 120.532 10.1017
-7.30917 102.404 13.1016
3.91123 96.7378 -7.03357
-0.288134 100.359 -10.8009
4.31579 96.1477 -6.19663
-28.0277 117.705 15.0881
-25.5855 119.014 -6.6177
4.27541 96.117 -6.22638
-13.2961 110.261 -11.1787
-8.18432 102.743 13.1395
-31.182 121.489 5.15161
-19.9272 114.806 -8.1685
-9.99751 107.77 -12.075
-20.9234 115.485 -7.8005
-1.08003 96.9055 14.9375
-3.44943 98.5861 15.6309
-29.3389 121.246 -4.14997
6.04799 91.8079 12.0551
-16.6048 112.234 -9.25888
-12.5953 105.687 14.2857
-28.6316 120.742 -4.89403
-29.3545 118.523 13.9733
-31.8128 122.557 -0.73312
1.0297 95.2469 14.1087
-0.278368 99.8361 -10.6642
-8.75921 102.664 13.3552
8.17202 90.6171 7.03655
5.13436 94.5814 -4.24936
-17.7648 109.131 15.8176
-6.60292 104.738 -12.5693
5.8324 93.7295 -2.83954
-28.0386 119.99 -5.4268
-32.037 121.638 4.08726
-6.22662 100.432 13.9212
-23.8866 117.038 -7.30408
-5.73327 99.9285 14.2438
-30.6902 121.476 -3.07292
-18.0015 112.575 -8.53567
-1.93362 96.7536 15.3982
-22.0983 112.072 15.2565
-9.01971 102.321 13.5179
-14.4608 110.027 -11.2932
7.89405 90.0812 7.31885
-10.1236 102.848 13.8343
8.78601 89.5577 5.47788
-12.5623 104.535 14.6031
-21.5866 111.312 15.3027
-33.1156 122.228 0.702375
7.85865 89.8857 7.29312
-31.8251 121.593 -2.14149
-11.4396 103.542 14.4355
4.84783 91.34 12.6923
1.12815 93.9405 14.3362
7.52385 89.8111 9.15108
-15.4633 106.411 15.4845
-32.9034 121.554 2.5187
-0.618956 98.6343 -10.7314
-32.1248 120.51 4.21256
-17.0274 107.153 15.9304
-27.3062 118.252 -6.20567
-3.91148 101.281 -12.5056
5.12295 90.7117 12.428
-29.161 119.419 -4.80059
-21.2045 110.359 15.3662
-31.2019 120.639 -2.73801
-22.9726 111.673 15.3843
-29.0289 119.283 -4.95544
4.80377 93.2596 -3.87302
8.63537 89.1182 4.38163
-6.37081 103.065 -12.6339
-9.57788 105.431 -12.1696
-21.6067 110.523 15.3673
1.54818 96.2691 -8.52483
-9.20182 104.95 -12.1564
7.5541 89.0599 8.40836
-25.3504 116.413 -6.87651
-7.1558 99.3792 14.355
-18.4097 107.696 16.2861
-6.6202 98.9187 14.6439
-19.5 108.544 15.8776
-30.0093 119.48 -4.05962
7.84847 89.5447 2.64014
-30.4052 117.186 13.4281
-17.1856 106.655 16.03
-0.375167 93.9061 14.7166
3.82594 93.6878 -5.97679
-8.87547 100.436 13.9403
-2.85595 99.6224 -11.931
3.71658 90.9198 13.1458
0.562548 93.157 14.3205
-30.3879 116.912 13.5705
-0.262041 97.0998 -10.1226
-15.9905 105.319 15.6691
-10.617 105.215 -12.1584
5.85757 91.1167 -1.90018
-26.2746 113.026 16.1326
-17.9765 110.538 -10.2564
-0.694317 93.6536 14.7431
-28.8015 117.996 -5.42035
-31.4089 117.623 10.5743
-14.8191 104.197 15.5782
-23.0279 113.857 -7.53413
-31.5637 117.813 9.86731
7.49318 89.2316 0.874477
-33.0916 120.169 1.1271
-27.6315 113.823 15.7703
-7.98058 102.864 -12.3945
-13.5436 107.044 -12.0277
-31.2579 118.168 4.29033
-23.4267 113.883 -7.47846
-18.0896 110.232 -10.4829
-13.1778 102.727 15.0915
-32.5985 119.909 -1.02915
3.82924 92.7568 -5.72184
3.82559 92.7357 -5.72958
3.41307 93.1559 -6.5519
-1.39603 93.6741 14.964
-32.7457 119.869 -0.587446
-18.7914 106.659 16.5071
-10.3169 104.35 -12.133
6.79533 87.9483 10.3485
-8.59915 103.021 -12.3223
3.93375 92.4073 -5.42562
1.71046 91.2672 13.894
-25.7403 111.894 16.023
-13.8759 106.932 -11.9901
8.22507 87.7 3.71418
-31.6955 119.095 -2.50582
-4.82581 100.031 -12.5736
-22.0509 109.011 15.8719
-31.7865 117.3 9.76746
2.32517 93.8088 -7.82883
-1.62536 93.3927 15.0228
8.27549 87.4283 3.98006
6.495 87.7749 10.7603
-1.235 93.062 14.833
-8.0249 102.214 -12.4853
7.33837 88.527 0.771542
-16.3245 108.351 -11.3633
-27.1494 115.86 -6.35876
-1.83513 97.1816 -10.9596
8.33946 87.1337 4.29571
-7.02806 97.2364 15.4367
1.13474 91.171 13.9737
-20.861 111.335 -8.95471
-31.3418 117.194 5.67254
-30.5784 115.469 13.3745
-30.5463 115.405 13.6292
2.91174 92.7347 -6.88812
-23.8235 113.256 -7.71575
-23.3013 109.297 15.9256
-31.5918 117.013 6.37769
-0.486551 95.6391 -10.2047
7.79059 87.3919 2.83614
-29.5605 114.166 14.9028
-23.7453 113.031 -7.82499
-31.8092 118.416 -2.59822
-31.902 116.826 8.67181
-9.63196 102.856 -12.2464
-3.86094 98.3691 -12.0851
-0.0157846 91.5734 14.1635
-2.82517 97.4691 -11.4219
1.86225 90.1897 13.7714
-28.1994 112.862 15.7363
-0.69986 91.9721 14.4647
-28.3386 115.995 -5.99799
-32.6983 118.515 -0.739543
3.81416 91.3146 -5.64806
-11.4655 103.934 -12.1344
7.31575 87.5527 1.26362
-22.4999 108.115 16.2439
-7.44345 100.854 -12.7795
-26.0259 114.089 -6.35232
-18.6488 104.966 16.898
-25.9148 110.618 16.1606
-31.4505 116.653 3.79449
-2.94731 97.0698 -11.4721
-13.3238 101.073 15.0337
-30.7426 114.674 12.9845
-32.2205 116.308 9.41718
-32.8155 118.141 -0.194684
1.53809 89.8014 13.8298
-13.3864 100.969 15.0489
-7.19428 96.032 16.1457
-10.1797 98.4794 14.9188
3.10225 88.5181 13.0406
5.70679 88.6848 -1.86531
-31.4974 117.214 -3.13657
-5.82541 94.715 16.4617
-21.3762 106.521 16.6897
-3.665 97.1449 -11.8361
-27.8893 114.814 -6.33038
-8.43477 100.86 -12.6837
-9.12213 97.2387 15.2641
-31.3711 116.961 -3.3118
-20.9064 109.872 -9.64516
5.33436 88.7286 -2.28101
6.46813 87.5509 -0.507072
-2.36222 95.7911 -11.1527
-32.3007 115.985 6.6653
-17.1117 102.954 16.0889
-3.20683 92.3625 15.6029
-16.2814 106.33 -11.517
-16.1094 102.163 15.9006
-16.7789 102.635 16.0088
-16.644 106.531 -11.3284
-32.3432 115.931 6.31839
-31.4152 114.578 10.2512
-31.9537 116.222 1.82439
-27.108 113.691 -6.24319
-9.78829 97.2431 15.3791
-25.945 112.823 -6.67515
-32.5207 115.575 8.57586
-31.3352 114.382 10.3785
-28.8115 111.603 15.8001
-18.6497 107.666 -10.5111
7.50841 85.1193 6.5735
-13.3084 99.7511 15.2485
4.15743 89.1771 -3.74444
-21.9592 109.919 -9.18936
-5.91475 98.1264 -12.6204
-32.9559 116.948 -0.359198
4.058 89.1614 -3.87525
0.184476 89.4512 14.0478
-11.5741 102.269 -12.078
-20.343 108.591 -9.87467
-23.5933 107.158 16.7756
-24.5068 111.431 -7.88404
1.86445 91.2462 -7.70849
1.03674 91.9861 -8.45451
-14.1313 100.052 15.3951
-20.4067 108.523 -9.85791
-32.5503 115.409 6.11271
4.63246 86.1134 12.0842
-2.13917 90.8351 14.8542
-1.08127 93.6237 -10.1637
-27.7545 110.08 16.4951
-12.5463 98.5827 15.3625
-0.229479 92.7672 -9.45876
-22.6852 109.805 -8.70959
-23.0165 106.269 17.0478
6.53683 86.1437 0.233539
7.03309 85.4919 2.06129
-31.5149 113.58 11.3995
7.59631 84.7684 3.93249
-32.6753 114.909 7.41191
-29.4791 114.262 -4.86987
-18.3286 106.572 -10.5509
-20.8414 104.336 17.5359
-15.6318 100.592 15.8923
-19.994 107.714 -10.0252
-4.23314 95.9512 -11.9827
-10.948 96.9748 15.6932
-1.55504 93.6101 -10.3962
-3.27071 91.0549 15.2362
-16.7771 101.189 16.4154
-4.92687 96.3278 -12.2421
-32.7156 115.001 5.24387
-28.562 110.223 16.0509
-30.0917 111.578 14.7581
-23.3973 109.817 -8.22444
-4.33871 91.7023 15.8704
-6.48504 93.2038 16.7758
1.27654 87.7194 13.626
-10.8942 96.6757 15.8049
-24.9098 107.208 16.8922
-1.34122 93.1672 -10.1978
-11.5124 97.1388 15.691
-7.5641 93.8103 17.0087
-13.1088 102.261 -12.0221
-8.06633 94.0366 16.9148
-22.2801 108.633 -8.90797
-32.9632 115.489 -0.476139
-23.1058 108.944 -8.38338
6.80311 84.5185 2.27889
-32.9449 114.118 7.3837
3.08783 88.3917 -5.04026
2.20344 89.4178 -7.69212
2.95659 88.4373 -5.52416
-22.2451 108.078 -8.87107
-32.6025 114.451 1.62661
-27.5816 111.762 -6.36075
-27.0611 107.861 16.8674
-32.4636 114.444 0.0690398
6.51263 84.4373 1.46932
6.56224 84.3657 1.69101
-33.0083 114.213 4.36181
6.61772 83.0895 9.83191
-5.37545 95.4179 -12.1602
0.0519767 87.3494 13.9642
-13.7662 101.695 -11.8767
0.941726 86.6183 13.5884
6.00895 83.1981 10.4593
-27.3626 107.72 16.9146
-11.007 95.2484 16.5301
-32.8242 113.239 7.48745
-8.29513 93.0799 17.105
0.695611 89.9611 -8.71104
-10.6491 94.8904 16.7165
-28.7628 112.014 -5.76752
6.62777 82.7187 9.29684
-4.63539 94.4127 -11.8317
-29.6037 109.467 15.4364
-12.4822 96.2708 16.135
-6.4823 95.8716 -12.4367
3.32355 84.7489 12.0614
-6.90064 96.1633 -12.552
7.13213 83.1817 2.50384
-32.6054 114.262 -2.36073
-7.02233 96.1405 -12.5625
6.41296 83.7592 1.82597
-31.3829 110.885 13.4397
7.05542 83.0953 2.37598
-5.68066 90.7955 16.0986
6.02324 84.1286 0.390778
-33.0983 113.706 2.53321
4.82744 83.3942 11.2682
3.62028 84.2142 11.7119
-3.33766 92.912 -11.4627
-21.7161 102.612 18.0618
-32.2487 111.991 8.93027
-0.624303 87.058 14.1216
-11.3935 99.1562 -12.6704
-14.5079 101.327 -11.7161
5.68787 84.2455 -0.54648
-6.18493 94.9826 -12.2665
-25.463 109.031 -7.6849
-21.9843 102.583 18.1122
-29.8294 108.925 15.2443
1.23242 85.3695 13.2642
4.25512 83.3167 11.3214
-28.2722 110.772 -6.57182
-16.6953 102.564 -11.0234
1.78471 84.9209 12.9759
-29.1444 108.09 15.8047
-29.1567 108.091 15.7923
-23.6778 107.458 -8.46249
-27.3985 110.081 -7.17743
7.24922 81.7662 5.09018
-33.0913 112.349 6.67935
-30.2711 111.823 -4.84415
-4.65617 89.2672 15.1555
-1.8698 90.7621 -10.3122
-17.1285 98.398 17.0719
-18.1473 99.0985 17.4907
-25.934 104.942 17.476
-32.6293 111.161 9.85592
-16.3125 101.714 -11.0604
-10.7531 97.7106 -12.8312
-21.8067 101.582 18.1435
5.83887 81.5753 10.3838
2.8516 86.0909 -5.16107
-21.7522 105.507 -9.40877
6.29825 81.1833 10.1272
-32.6333 111.106 8.87094
-33.5731 112.346 5.28334
-29.4063 110.801 -6.08492
5.13464 83.673 -1.15988
6.56702 80.9615 9.75306
-8.53624 95.7617 -12.6839
-9.41032 92.048 17.1236
-22.3961 101.772 18.2856
4.28228 84.4065 -2.73386
4.32206 84.349 -2.64463
-16.9907 97.7447 17.0351
-7.19068 94.5668 -12.4402
-33.0667 112.597 -0.673282
-33.1048 112.709 -2.04592
-31.2473 108.97 13.7199
5.10846 83.2932 -1.04591
-31.4493 108.966 13.4503
-20.4752 99.7667 17.9438
-18.2897 98.0578 17.6068
-17.826 101.811 -10.6169
1.50731 83.588 12.7565
6.67096 80.6966 5.45382
5.78688 82.0876 0.454695
-26.4284 104.162 17.6825
-31.7957 108.802 12.9876
-5.80903 92.5682 -11.868
-31.2147 108.223 13.768
-5.37538 88.275 15.1328
-2.04503 89.4142 -10.1723
3.15104 82.2771 11.3179
-8.23288 90.1684 16.7284
5.3543 82.2371 -0.102118
4.58206 81.2743 10.3988
5.58954 81.9818 0.133062
-32.8976 109.693 11.5106
3.19099 82.1404 11.2414
-20.9076 99.5167 18.0273
-18.5919 101.912 -10.4878
-3.71861 90.6114 -11.3112
-25.82 103.188 17.979
-3.10629 90.0462 -10.9488
-33.9432 111.347 4.44454
-33.1191 111.711 -2.5635
-15.1527 99.3273 -11.937
-3.77036 90.5336 -11.3181
-29.2275 106.042 15.5134
-28.7016 105.55 15.8486
-5.9867 88.2485 15.4073
-33.2062 111.613 -2.22931
-19.5711 98.1998 18.1015
-20.0672 102.738 -10.3486
-15.6867 95.1914 17.3403
-34.0348 111.162 3.97476
-22.5901 100.295 18.2676
1.54279 85.4906 -6.75095
-2.74211 85.6778 14.2052
-33.5525 111.214 0.334963
1.85915 85.1235 -6.33909
-13.0481 97.3887 -12.5183
-28.3346 104.788 16.2014
-33.152 111.207 -2.78622
-29.4083 108.673 -5.79894
-17.331 95.9633 17.7604
6.23687 79.1427 9.33409
-5.40861 87.1735 14.8793
-23.8213 104.756 -9.30314
-32.5763 110.542 -3.16107
-12.7194 92.3216 17.2627
-24.2571 104.992 -9.13066
-6.80666 92.03 -11.9798
-22.8921 99.7884 18.3995
-9.10776 93.7664 -12.5045
-25.9333 106.01 -8.37961
-27.4053 103.314 17.6684
-33.2914 109.543 5.85404
-33.0585 110.586 -2.96868
2.78398 81.0073 11.1169
-25.8064 105.579 -8.50063
6.72079 78.4088 7.16454
-29.619 108.001 -5.66643
-13.7597 92.4391 17.616
6.27174 79.6094 0.633268
-8.82266 88.7787 16.6149
7.49748 77.9037 4.79258
-34.161 110.087 2.27283
-33.9087 110.048 0.866354
-7.5803 91.8263 -12.101
-33.5605 108.378 10.2473
-23.0295 103.189 -9.35193
-0.0734161 82.3216 12.8415
-3.77211 84.9187 14.2683
-8.61272 92.5057 -12.3018
-22.5135 102.702 -9.48334
-24.2496 103.967 -9.2014
7.05442 78.2506 2.73455
-3.06271 87.7845 -10.4645
-29.8101 107.451 -5.57001
-32.0006 108.877 -3.92943
-34.2679 109.436 3.59341
0.0877177 84.858 -8.05313
7.19106 77.6594 3.9365
-31.3221 105.778 12.875
-25.7822 104.67 -8.55757
-5.27933 89.4367 -11.7685
-19.5119 95.8544 18.5304
-13.153 91.1915 17.0461
-21.6306 101.588 -9.70617
-18.5728 95.0645 18.4182
4.85447 78.3131 10.4678
-33.1081 109.316 -3.16407
3.63869 81.1677 -3.34477
-23.13 102.479 -9.16915
-30.0533 104.254 14.6266
-1.8469 86.2192 -9.65685
-31.493 108.122 -4.65294
-26.8177 101.195 18.157
7.21547 77.2118 4.30093
5.06055 77.9422 10.547
-33.9212 107.682 10.4065
-11.8838 94.2169 -12.6226
-4.68359 88.4616 -11.4764
-16.3525 97.4304 -12.0557
-33.8131 109.234 -2.07356
6.11895 78.2919 0.794528
-5.02992 88.6014 -11.5812
0.246552 83.9715 -7.57564
-1.35949 82.1222 13.3335
-6.39176 85.6991 14.8308
-30.978 107.326 -4.90884
-31.5181 107.59 -4.62769
-17.2215 97.6866 -11.8117
-11.6083 93.503 -12.7023
6.05977 76.637 10.1574
4.53064 77.6627 10.9046
-8.96598 87.1749 16.1776
7.2324 76.1134 7.04218
-1.39341 85.0428 -9.3386
-33.9036 108.655 -1.12037
-17.5304 97.6182 -11.6933
-31.9789 107.476 -4.2322
-13.9602 94.8837 -12.4212
-9.37284 87.1286 16.2224
-10.4219 87.8469 16.5502
-2.20789 81.9535 13.5794
-15.4653 95.87 -12.3202
-15.7756 96.0969 -12.2614
-23.6019 97.4874 19.0227
1.31106 82.0852 -5.8633
-7.38482 89.5577 -12.0226
-23.8983 101.675 -8.71161
-31.5541 106.867 -4.44084
-33.8982 108.133 -0.968301
7.20755 75.3109 8.36002
2.62383 80.757 -4.90006
-32.4011 105.181 11.0617
0.984063 82.194 -6.22941
-33.505 106.949 4.54642
3.61914 79.7106 -3.30308
-32.5379 105.26 10.8946
0.00991653 80.0763 12.5358
-29.9319 102.678 14.2499
-17.0651 96.6754 -11.9443
-4.48258 83.1147 14.3492
-16.6936 91.8669 18.0729
4.9896 76.3697 10.7278
-12.1027 92.8399 -12.6862
-0.774902 83.5326 -8.5122
-25.4927 102.36 -8.55491
-34.4034 106.565 8.63782
-1.05293 83.6359 -8.86283
-29.3833 104.801 -5.83771
4.62118 76.3055 10.9112
-9.21603 90.2323 -12.2006
-15.1626 90.4486 17.0498
-13.8382 93.761 -12.54
-6.33612 87.911 -11.7961
-11.816 92.2043 -12.6773
-34.1317 105.948 9.74884
-30.514 102.691 13.0799
-19.3583 97.6649 -10.8728
7.37858 74.6813 6.41271
-0.0850975 79.4727 12.6075
2.51651 77.5698 11.6157
-34.1624 107.467 -1.1493
-9.39626 86.032 15.8419
-14.8079 89.9358 16.9759
-15.2471 94.5807 -12.4446
-15.8016 94.999 -12.4132
7.37456 74.5532 6.17219
-31.846 106.027 -4.10012
6.31856 75.7827 2.88968
-30.908 105.388 -5.07861
-7.4833 88.4589 -12.0146
-30.9166 105.3 -5.09233
-19.5021 93.0967 18.4804
-33.8866 106.058 4.87639
-17.0751 91.2652 17.8691
-18.1146 91.9884 18.3164
1.24871 78.0858 11.9243
-28.5666 100.228 15.9009
-2.35697 83.9225 -9.70543
-19.1696 96.9369 -10.8985
-0.366041 81.9925 -7.73244
-34.4978 105.549 9.34422
-4.24005 81.6456 14.3701
1.33837 80.3586 -6.02791
3.29714 78.5109 -3.71923
-16.9349 95.1956 -12.162
-16.6899 94.9593 -12.3444
-22.7108 94.9834 18.8204
-33.9507 104.845 10.012
-15.9108 90.0276 17.0242
-29.2248 100.436 14.6162
0.0118834 81.259 -6.98089
-6.06888 86.5708 -11.5717
-3.42189 80.7526 13.9207
-34.3954 105.042 9.60585
-19.159 96.3397 -10.8528
-23.7372 95.4474 18.9994
3.33434 78.0558 -3.53561
6.4859 74.5009 4.27424
-18.1609 95.5753 -11.3439
-5.32898 81.9541 14.4766
-34.6395 106.211 1.47259
-0.741847 81.6493 -8.20492
-14.327 92.6575 -12.5547
-30.164 100.899 13.7078
-32.3783 102.957 11.1234
-25.4776 100.447 -8.16148
0.252301 77.6996 12.5487
-34.3075 105.668 1.87597
-8.68948 84.1435 15.0628
-12.6737 86.9278 16.5721
-24.0799 99.3221 -8.60011
-10.1861 85.1103 15.6066
-32.6511 102.942 11.056
-27.4249 97.9619 17.3753
3.44742 77.2341 -2.57493
-25.6981 96.1851 19.1551
-11.2439 89.7559 -12.5241
-34.521 104.295 9.27681
-1.61941 78.5366 13.286
-34.8365 105.007 5.5106
-3.34086 83.1333 -10.1044
-0.936363 81.0076 -8.22296
3.76691 76.3404 -1.42622
-34.1271 104.752 1.59655
-27.7487 97.5538 17.4271
-9.89137 88.1761 -12.1952
0.155108 76.8037 12.6596
-31.8311 101.378 11.5936
-34.4507 103.789 8.73414
-26.4913 96.1196 19.3639
-5.30644 80.5746 14.4572
-35.0125 104.628 5.1819
-34.5216 104.498 3.44473
-18.5875 94.4879 -11.4277
-16.3666 88.6327 16.8144
-8.87073 87.0834 -12.0208
-5.62728 80.6283 14.4886
-14.3917 91.2742 -12.5349
-27.7072 96.9591 18.0742
-22.538 96.9462 -9.65314
-7.19318 85.4766 -11.5268
-28.381 100.996 -7.58135
-35.008 104.274 4.37737
-4.20161 82.8585 -10.5618
-27.4693 96.3096 18.8745
-19.5104 90.384 17.7062
-32.1162 103.298 -4.76222
-4.40702 79.341 14.1001
0.686514 78.4148 -6.1939
-0.681146 79.4207 -7.19876
-26.8295 99.5106 -8.17535
-30.5675 99.1026 14.0577
-19.9318 94.5558 -11.2472
-31.1286 99.4501 13.5068
-23.3953 92.7787 18.6288
-10.9651 87.7648 -12.3074
-17.1087 92.4363 -12.1771
-34.9334 103.341 6.04784
-29.1138 100.822 -7.14835
-20.6937 90.7268 17.7983
-32.6447 100.747 11.5635
-23.2852 92.5535 18.6396
0.963095 77.5137 -5.75407
-11.7871 88.2081 -12.4247
-29.6501 97.7516 15.4565
-31.2012 102.009 -5.58196
-20.4583 90.3277 17.7216
-34.5577 103.971 -1.88101
-2.61223 77.226 13.6269
-17.1001 87.7989 16.788
-24.0663 96.8768 -9.2702
-7.70183 80.8487 14.7307
-7.24181 84.3482 -11.6015
-7.74799 84.7296 -11.6737
-34.899 102.815 6.24282
-7.05002 80.2482 14.6432
-16.7266 87.2683 16.6783
-21.8983 90.9521 18.2582
-30.7882 101.3 -6.0153
-32.2077 99.723 11.9243
-33.6733 103.052 -3.39764
-35.2856 103.824 -0.486123
-28.3323 99.5502 -7.64446
-15.6202 90.4903 -12.2337
-3.3198 80.7004 -9.75633
-7.07663 83.8073 -11.6057
-8.40582 84.8458 -11.7916
1.15166 76.527 -4.9736
-34.2045 101.367 9.62443
-24.1889 92.2791 18.9307
1.35055 76.1354 -4.09005
-2.05078 76.1336 13.4741
-9.97813 85.9437 -12.122
-0.908661 78.3033 -7.38321
-13.5803 84.4033 15.9028
-15.1845 89.6533 -12.2476
-22.6185 90.7617 18.536
-34.5933 101.321 8.36088
-2.3145 79.1356 -8.58026
-6.49156 82.6496 -11.3463
-12.8428 83.4139 15.7267
-27.5763 94.232 18.6512
-35.1277 101.906 5.49287
-32.4491 98.7378 12.2567
-35.0552 101.583 6.40005
-24.8797 96.0844 -9.24386
-25.747 96.6917 -8.87195
0.873991 75.5697 -3.93912
0.907654 75.4935 -3.77038
-35.1648 101.662 5.67243
-14.8342 84.489 16.1198
-30.7593 96.8034 15.1171
-4.27614 80.2426 -10.1623
-35.0094 102.263 -0.209721
-26.8252 97.2237 -8.52351
-3.81995 76.3555 13.7321
-17.1991 90.298 -12.0548
-35.2021 101.832 2.55841
-8.74349 83.6534 -11.9506
-29.8478 99.0008 -6.72146
-34.5536 99.9357 10.8937
0.69632 75.0728 -3.45395
-8.70078 79.5568 14.8945
-21.88 89.0953 18.2047
-32.3747 97.8372 12.8657
0.391061 75.1176 -3.99543
-27.8365 97.2719 -8.14761
-34.5694 101.583 -2.58428
-29.8678 94.9727 17.856
-24.7323 90.8617 19.1121
-28.499 93.7972 18.328
-9.95509 80.0739 15.2493
-23.935 94.4318 -9.87877
-11.1612 80.9035 15.5903
-13.3144 82.4893 15.8177
-10.6239 84.491 -12.2768
-7.4325 81.9125 -11.3543
-35.3401 100.233 9.13703
-10.7332 84.5296 -12.2952
-4.4845 79.4192 -10.146
-35.5626 101.226 2.87833
-0.0954284 75.2648 -4.97419
-18.4195 90.2367 -12.0266
-35.2912 101.596 -1.73581
-20.4017 87.3524 17.7331
-32.6385 97.4276 12.784
-12.3613 85.5374 -12.1987
-25.9603 95.4746 -9.09804
-31.5771 96.1936 15.2239
-11.7185 80.9439 15.6884
-35.2076 100.918 1.82091
-21.0812 92.0284 -11.1965
-28.1962 93.0442 18.4268
-29.4229 94.0124 18.2148
-13.6906 86.2573 -12.0947
-14.7669 86.9483 -12.1616
-19.3429 90.3271 -11.8575
-22.5256 92.5317 -10.5437
-11.391 84.2438 -12.3435
-16.4285 87.9548 -12.2165
-35.976 100.117 5.90977
-31.4305 95.0498 16.6912
-22.5298 87.9364 18.5081
-35.1766 100.371 -0.380448
-7.90434 77.3807 14.1828
-29.9294 97.2053 -6.57494
-4.08088 77.8757 -9.49494
-17.4969 84.2742 16.4927
-30.8397 97.6814 -5.69827
-3.9562 77.6311 -9.32828
-23.8411 88.669 18.7396
-31.299 94.5831 17.2697
-36.0993 99.5129 8.49101
-29.5325 96.7404 -6.86587
-30.41 97.2864 -6.03419
-36.093 99.7153 6.95881
-17.2679 88.1176 -12.2212
-16.6483 87.6382 -12.2156
-21.7291 87.0543 18.1694
-29.8731 93.2164 18.2804
-31.2392 94.3819 17.4522
-8.82718 77.5442 14.4592
-28.3366 95.7031 -7.71905
-30.6814 97.0546 -5.60184
-14.1771 81.1835 16.1576
-24.2453 92.7201 -10.1243
-32.8178 95.5436 15.1544
-24.8184 88.8563 18.944
-36.1878 99.338 6.68756
-11.0744 78.8771 15.3233
-34.5887 99.435 -2.41042
-29.0989 92.1357 18.4858
-24.955 88.885 18.9629
-27.7097 94.9536 -8.25877
-11.3753 78.9376 15.396
-26.4068 89.8572 18.9164
-1.92058 74.9536 -7.82997
-35.0997 99.4522 -2.00796
-34.4104 98.9808 -2.55823
-17.9265 87.7862 -12.1591
-16.0471 82.1135 16.5943
-2.54208 75.4285 -8.2509
-15.6995 81.7519 16.6251
-24.9055 92.6044 -10.0447
-19.4654 84.407 17.3185
-33.9308 96.0428 13.1525
-32.1955 97.1221 -3.72297
-34.7732 98.8764 -2.27486
-10.7655 81.9431 -12.1525
-20.0736 88.9625 -11.806
-28.7825 91.1862 18.3538
-11.8481 78.5894 15.4386
-27.7931 94.2134 -8.06547
-31.6693 96.5732 -4.19498
-22.1694 90.201 -11.2195
-36.0088 98.5123 4.17893
-15.7663 81.05 16.8634
-16.5234 81.4424 16.8096
-35.9207 97.1264 10.8987
-35.4249 96.5518 11.7971
-16.0522 80.9735 16.9535
-29.0108 94.2688 -6.80955
-23.2564 86.1194 18.2907
-36.8008 97.8254 8.66349
-15.3396 84.4432 -12.2468
-16.8016 85.5201 -12.1066
-22.8338 89.8666 -10.9713
-23.7316 86.2356 18.3185
-28.5417 93.6418 -7.36122
-12.2778 81.9449 -12.4068
-36.9902 97.63 9.17439
-29.8743 94.4242 -6.07922
-7.23704 77.8128 -10.8271
-14.7897 79.4464 16.2292
-5.00683 75.6696 -9.7677
-27.1249 88.3444 18.7746
-26.2502 91.7256 -9.02357
-21.1575 88.0648 -11.6243
-12.9166 81.8747 -12.3996
-23.8069 89.793 -10.6247
-36.3153 95.9981 11.9012
-34.0044 93.5586 16.2936
-20.4085 82.8937 17.1479
-14.3791 82.5946 -12.376
-33.67 93.03 16.9393
-21.948 83.9926 17.314
-32.2316 91.7824 17.5362
-36.5608 96.918 4.76417
-28.7918 88.9529 18.4603
-21.5424 87.6555 -11.4409
-37.0156 96.147 10.6012
-27.8701 91.7288 -7.72014
-16.2756 79.2209 16.5097
-35.185 93.8551 15.2164
-36.6324 95.3951 11.882
-21.4698 83.0111 17.2099
-21.593 87.2946 -11.5035
-16.5121 83.5158 -12.445
-18.3941 80.4848 17.4144
-36.7166 96.7127 1.29743
-36.7918 96.448 3.45641
-37.5995 96.1209 9.40338
-36.9164 96.0677 4.80627
-33.6678 94.5897 -2.57788
-7.79178 75.9502 -10.7996
-8.67864 76.6262 -11.3537
-32.5462 90.521 17.3234
-24.9316 88.6391 -9.93812
-23.7646 83.6733 17.443
-22.4328 86.7817 -11.2356
-23.3497 87.3703 -10.6052
-8.85306 76.3844 -11.4367
-33.7175 94.0667 -2.53554
-15.7758 81.8221 -12.5488
-22.0516 82.1322 17.8829
-22.2789 82.2965 17.8815
-32.5493 90.1935 17.4466
-29.8982 91.6243 -6.49541
-37.4769 95.2163 7.02936
-30.408 87.9607 18.1345
-36.9469 93.6592 12.6371
-35.6733 94.5961 -0.96336
-16.3743 81.493 -12.6401
-11.7167 77.8399 -12.1728
-26.36 88.6371 -9.53971
-23.1465 86.2233 -10.977
-24.5024 83.1028 17.3534
-28.3563 85.8914 18.1088
-12.7491 78.4016 -12.4058
-28.8711 89.9253 -7.0356
-36.961 94.8312 1.47618
-37.2433 93.4411 12.2824
-36.5958 92.6773 13.5981
-31.1023 87.686 18.0975
-35.9367 91.5774 16.3023
-25.1555 83.1333 17.4959
-11.5648 77.0873 -12.1483
-37.643 94.2631 6.60179
-34.0816 92.8777 -2.52942
-36.1994 94.0022 -0.564974
-30.8527 90.6785 -5.85113
-29.4278 86.0355 18.2613
-24.0669 81.6678 18.6071
-27.5126 84.2873 18.6696
-30.4348 86.5606 18.365
-13.9903 78.3616 -12.6244
-19.8882 82.6462 -12.0491
-11.7435 76.4393 -12.2019
-32.2428 87.6709 17.9786
-35.7373 93.1529 -1.19498
-19.9553 82.6583 -12.0448
-38.0175 93.4927 8.08964
-25.8041 86.7597 -9.72018
-26.5522 83.0323 19.4135
-28.3972 84.3481 19.8913
-22.7333 84.5166 -11.393
-37.6016 93.3643 5.16871
-13.7064 77.575 -12.577
-28.698 88.2736 -7.49482
-37.3365 91.7974 13.4305
-18.4817 80.8688 -12.2505
-38.0625 92.2624 12.0904
-36.4081 90.2927 16.863
-34.1431 88.4148 17.6489
-18.4044 80.7677 -12.2726
-31.301 85.9318 19.1128
-36.2601 92.5004 -0.60706
-26.1579 85.9958 -9.49748
-21.6532 82.8861 -11.7927
-27.3275 86.6406 -9.03325
-33.6273 87.2849 18.7974
-37.7704 92.5868 4.08395
-36.7485 92.2398 0.20262
-16.2326 78.4654 -12.8664
-23.9405 84.0726 -10.9646
-32.2324 89.3508 -4.19465
-34.4175 87.8 17.6931
-37.8349 92.3513 3.7576
-33.1505 89.7296 -3.58081
-37.9358 90.8799 13.3796
-33.4477 89.8911 -3.38169
-33.9624 87.0338 18.5818
-32.5592 89.1998 -3.88789
-18.7595 79.7864 -12.2708
-38.4692 91.5981 9.04347
-38.1576 91.8553 5.48497
-17.1674 78.4709 -12.9201
-35.4276 87.7771 18.0711
-31.6485 84.8944 17.9118
-32.7643 85.6976 17.9953
-34.0728 86.5864 17.9627
-38.642 91.2 9.46408
-21.9417 81.5385 -11.6923
-22.5647 81.8866 -11.417
-31.4305 87.8137 -5.7186
-36 87.881 17.6314
-29.9365 86.9038 -7.43943
-34.3024 86.2845 17.9899
-24.3726 82.7765 -10.5797
-38.6245 90.8283 8.25763
-17.137 77.5114 -12.9995
-38.7838 90.6483 9.29544
-35.5572 89.5248 -1.41183
-25.5397 82.9956 -9.91484
-20.6197 79.4936 -12.3278
-38.3439 90.6007 3.88388
-38.6736 90.5136 6.00892
-38.1837 90.5606 2.98665
-36.7718 87.3078 16.6659
-37.382 87.7533 16.372
-19.9699 78.437 -12.6245
-36.3667 89.1032 -0.343242
-35.2136 88.3031 -1.49437
-26.3486 82.4743 -9.31886
-35.1021 87.9659 -1.46283
-31.503 85.8046 -5.90743
-20.5591 78.301 -12.6033
-37.5719 89.1805 1.7187
-39.3628 88.4222 10.8334
-36.383 87.6232 -0.389119
-39.4269 88.3658 9.3286
-33.7513 85.3611 -3.51258
-39.4974 87.8596 9.18915
-38.7963 88.0014 4.06566
-38.0294 87.6345 2.20788
-38.0983 87.4208 2.30045
-35.8778 84.7876 5.82719
-39.0282 87.2764 5.06553
-29.9743 81.9925 -6.39695
-37.0158 86.2557 0.56963
-35.2203 85.1448 -1.26862
-28.3208 80.9933 -9.00479
-35.7495 84.7123 3.98536
-36.1604 85.0141 3.65776
-38.9945 87.1199 3.8838
-38.2137 86.479 3.86477
-33.4999 83.9253 -4.11125
-37.6863 85.7333 5.36148
-36.9638 85.6713 1.97892
-33.9441 84.1349 -3.5209
-37.4868 84.4875 11.8794
-39.0834 86.4042 6.28914
-33.9844 83.3438 -0.150849
-35.7984 84.2892 2.75243
-37.7228 84.8915 6.45513
-35.6284 84.1183 -0.415796
-32.4127 81.8524 -2.93239
-37.4695 83.9862 7.57051
-33.2179 82.2091 -2.55838
-38.8683 85.037 7.04626
-39.3418 84.3027 10.1074
