ply
format ascii 1.0
comment Created by Open3D
element vertex 1915
property double x
property double y
property double z
end_header
-13.5789 138.664 5.09968
-18.0368 142.382 4.56389
10.412 111.399 -4.94712
10.9258 111.574 -3.76938
-25.2452 145.843 -0.773291
-17.1501 136.382 -4.63023
10.6472 117.121 5.96202
-19.9725 144.457 5.46566
8.1016 110.646 -9.79107
-12.3772 137.921 6.14077
8.7703 114.417 -1.79074
-5.52134 133.048 8.64114
0.847347 115.889 -11.9239
1.45883 124.123 3.92722
1.24036 115.518 -11.871
-8.6182 135.059 7.61189
-5.62496 122.821 -9.5511
-8.99543 128.214 -5.24493
-8.64631 135.025 7.63177
10.3163 112.616 -1.89761
-4.26012 120.538 -11.3215
-14.6368 139.057 5.20431
-9.93471 128.83 -5.58439
-4.30694 131.592 8.60744
-17.8665 136.721 -4.20699
9.64653 109.754 -7.98905
4.912 122.683 7.6525
-4.99401 121.503 -10.572
-24.3646 143.798 -1.83497
-11.6669 136.894 6.52507
-7.89827 126.85 -5.42608
6.99684 110.556 -10.3937
3.10516 122.349 4.62852
-23.9824 146.025 3.44891
9.94244 118.548 9.1682
-15.6472 139.338 5.03832
-15.1225 138.794 4.92133
11.7782 110.512 -2.1344
-21.2275 139.875 -2.89849
11.3302 115.593 6.40669
-2.37044 118.091 -11.3962
-23.9693 145.837 3.49205
-24.0131 145.807 3.4906
-5.32329 121.003 -10.7368
-19.7125 138.208 -3.13185
-8.78062 127.108 -5.27416
-24.64 143.275 -1.92139
-23.8821 145.663 3.62033
10.5994 113.986 2.63945
-22.4975 140.591 -3.25984
-13.6012 130.586 -6.76007
5.7806 110.667 -11.1038
-15.0711 138.414 5.17536
-11.1426 135.753 6.88122
-26.4968 145.449 -0.603475
-22.1464 140.032 -3.27198
-6.30631 122.283 -9.45033
-8.02747 133.756 8.52671
0.361792 114.86 -11.8548
-6.38773 122.383 -9.26045
-21.4241 143.716 4.75529
-5.311 131.528 9.01641
-22.1733 139.931 -3.25955
-14.0601 130.529 -6.94973
-20.5261 138.551 -2.97037
-13.0067 136.907 6.42074
11.0749 114.208 4.73209
11.3411 109.835 -2.64983
8.84227 108.754 -8.59743
-16.8745 133.028 -6.64462
-22.9999 144.702 4.46919
11.4283 110.88 -0.333713
3.58457 121.225 5.56618
10.5802 109.51 -4.13269
-0.611737 124.148 4.06322
-0.602907 124.073 4.07418
7.38939 109.258 -9.5142
4.24894 110.847 -11.6706
10.9573 115.353 7.39683
9.98006 109.246 -5.08325
10.9294 111.799 1.16428
9.11609 118.234 9.82694
-4.76397 118.796 -11.7071
-18.3974 135.038 -4.6101
9.70226 113.288 1.98975
-3.51871 117.522 -11.8471
-19.7618 137.247 -2.6472
-15.1823 130.276 -7.7028
11.2744 111.403 1.38205
-26.0821 146.009 2.99423
0.968803 122.205 4.20278
11.4627 111.109 1.30896
-14.2578 136.988 6.11882
9.89283 108.991 -5.0355
-7.20369 122.945 -7.69186
-7.58215 123.801 -6.75117
-27.5126 145.627 0.177506
-20.7797 137.528 -3.44791
-25.085 142.133 -2.11062
-13.136 136.15 6.58482
-7.70461 123.8 -6.6588
0.446623 122.373 4.1236
9.38341 117.354 9.67281
2.95169 120.61 5.07987
9.64716 108.139 -6.50538
-25.644 142.719 -1.59074
7.72103 108.428 -8.96393
-22.9533 138.97 -3.80694
-15.3457 129.904 -7.70286
4.12696 120.672 7.36631
-16.9484 131.02 -8.26905
-12.0356 135.077 7.08611
-13.0766 135.773 6.69126
-1.37338 114.917 -11.7916
9.54191 108.589 -5.40851
-17.227 132.392 -5.91026
-7.05246 121.372 -9.2037
1.89405 111.228 -12.9279
-24.4119 144.49 4.2653
11.3131 112.512 4.78263
-19.738 140.978 5.5626
-24.6013 144.578 4.1727
0.908074 112.028 -12.9754
0.625148 121.718 4.24891
-22.8686 138.176 -4.32265
-16.2797 137.883 5.91128
-4.3355 117.085 -12.1461
0.836722 121.538 4.3402
-15.6823 137.399 6.07523
-14.4954 136.568 6.55127
-1.85285 123.948 4.38876
-22.4868 137.578 -4.6061
0.223049 112.64 -12.5748
-20.355 136.127 -3.67121
-25.0726 140.98 -2.48818
-14.5755 136.559 6.64038
0.726756 121.456 4.32489
11.7971 112.425 6.08349
-5.52615 118.156 -11.7615
-9.40008 132.854 8.44216
-11.3815 126.329 -6.33741
-17.4211 131.584 -6.68032
-3.69982 116.016 -12.3351
-26.8911 143.294 -0.894605
7.87838 118.176 10.5017
11.9949 111.391 4.99693
-4.91811 117.187 -12.0649
7.99546 117.912 10.4388
2.0218 120.225 4.89536
-25.7944 141.318 -2.19932
-20.1146 140.459 5.51215
-24.9575 139.835 -3.42139
0.625266 111.369 -13.0259
-17.4163 131.344 -6.35392
-12.9057 134.706 7.08369
11.6299 109.924 2.41498
-25.1367 139.954 -3.26903
1.18837 110.604 -13.2574
-21.5461 135.965 -4.53075
-15.7793 136.754 6.30181
-7.74656 121.39 -8.3204
6.77226 118.784 10.6287
3.44887 119.52 6.63623
2.63234 119.486 5.38473
-27.5577 145.202 2.61548
6.39794 118.995 10.6444
-3.14 114.792 -12.4224
11.3323 108.827 0.420562
-9.59822 132.186 8.48349
-28.4643 145.027 0.962108
-12.4849 126.345 -6.69958
-14.5359 127.937 -7.16299
11.6429 111.744 6.42927
-21.8997 141.31 5.15222
-21.2034 135.433 -4.24611
4.93424 108.168 -10.8086
11.8249 109.592 3.00986
-5.72022 128.879 9.37386
3.97362 119.409 8.0789
8.10709 106.127 -8.9823
5.94365 107.5 -9.9493
4.38034 119.402 9.13329
-11.1186 124.723 -6.47312
-28.3038 144.901 1.98662
0.938532 119.964 4.64713
1.41455 109.422 -13.4692
-14.8237 135.783 7.6885
-22.0214 135.665 -4.18961
-7.14765 118.364 -11.127
-11.0749 124.471 -6.47531
-8.80166 122.268 -6.74643
-19.0857 131.799 -6.28832
-18.9255 138.277 5.69355
-20.4872 139.405 5.40996
-23.1938 141.558 4.8957
-24.2946 142.431 4.68952
-28.8165 143.867 -0.0404649
-10.8383 124.105 -6.39654
-8.27764 120.851 -8.07322
2.435 108.854 -12.2607
9.51103 114.333 9.16866
-26.9441 140.794 -2.33827
-24.7638 137.86 -3.97995
-3.07207 113.513 -12.5407
-22.0344 140.538 5.38902
9.15421 105.378 -7.18844
-9.49075 130.976 8.65322
11.3544 108.295 1.71649
11.6679 109.024 3.54481
-19.8521 132.86 -4.76537
9.32838 105.374 -6.55802
-8.21282 129.998 9.35532
-0.865114 120.551 4.28651
11.5145 108.646 3.15054
-5.33133 127.368 9.48911
11.8024 109.252 4.7166
-28.7231 142.943 -0.395985
-28.1703 141.962 -1.24503
5.57666 118.048 10.6534
-22.6489 140.531 5.26472
-24.934 141.931 4.09462
-26.4849 139.146 -3.44364
-5.01593 114.47 -12.9455
5.91631 106.095 -10.2432
-12.4239 132.775 8.11642
11.032 111.35 7.68838
10.5489 107.448 -0.129902
-21.9639 139.854 5.55642
11.7962 109.305 5.51243
-22.7645 140.36 5.30475
-15.734 135.121 7.56943
-8.27217 118.823 -9.65387
-23.5116 135.878 -3.65149
-18.9025 130.377 -6.06498
2.16903 117.815 5.76494
9.75653 112.623 8.79891
9.26007 105.191 -5.37024
-11.6426 123.466 -6.42661
3.3953 117.592 7.47909
3.41799 107.063 -11.4667
-4.22481 124.94 8.34595
-1.09815 110.263 -13.0265
-23.3908 135.511 -3.62448
-3.67805 123.93 7.65598
-5.93243 127.031 9.64411
-26.8266 138.9 -2.94791
-4.1632 112.667 -13.2703
-8.42644 118.457 -9.75839
-19.2093 130.219 -5.99399
-21.8507 133.384 -4.56036
-21.0879 133.471 -3.12282
8.45132 113.888 9.70099
10.2432 106.894 0.0273587
-29.1912 142.511 0.0978085
-25.8711 137.584 -3.3171
9.25136 105.101 -4.66088
-0.639997 119.071 4.49127
6.60905 104.431 -10.0592
-28.3639 143.219 2.95494
2.5774 117.073 6.2758
-9.95963 121.257 -6.54865
-18.8764 129.747 -5.75285
-4.19235 112.221 -13.4302
-2.83472 111.004 -13.3789
-5.04889 125.518 9.19814
8.44333 103.619 -8.22781
11.096 107.544 3.19409
-27.7833 139.907 -1.73703
5.8342 116.557 10.9037
-21.9578 133.028 -4.55038
-9.56277 120.298 -7.28532
-8.14016 128.513 9.85226
4.32904 117.27 9.91534
5.88463 104.492 -10.5284
-0.663368 108.751 -13.4446
-6.0857 126.527 9.8023
9.26488 104.691 -4.50863
6.70632 103.975 -9.9653
2.56879 106.434 -12.2161
-1.34033 109.175 -13.5828
-20.4051 131.07 -5.13454
-20.407 130.923 -5.29317
1.1569 117.36 5.41059
-27.137 138.562 -2.23935
-20.9154 137.22 5.49855
-10.261 129.402 8.90307
-8.40059 116.536 -11.2473
-8.0063 115.952 -11.657
0.365136 107.128 -13.9155
-16.469 126.502 -6.32714
-24.1475 139.261 4.20562
8.8317 103.386 -6.75972
-7.48693 115.117 -12.1737
10.3266 110.284 8.15207
10.3571 106.542 1.4782
10.5363 109.963 8.00729
-1.81396 119.128 4.44455
-10.6032 121.029 -6.4091
-24.1632 134.025 -4.98767
2.95614 105.687 -11.8324
8.72073 103.175 -6.96436
-21.7177 137.332 5.20853
-18.189 127.551 -6.67248
-30.1378 142.959 1.79189
4.48507 104.4 -11.26
8.90715 103.577 -5.48444
2.50286 116.005 6.63404
-19.2123 128.765 -5.59912
11.4232 107.615 6.16214
9.65068 105.868 0.158032
-14.8648 124.444 -6.24243
-19.0232 135.133 6.31763
-28.0505 141.262 2.67505
-28.4798 139.519 -1.08112
-4.5847 110.892 -13.8034
-19.7808 129.367 -5.19473
-15.5913 124.956 -6.25096
9.63336 105.537 -0.191518
-27.3925 137.9 -2.08549
-21.6343 131.961 -3.31686
-9.89802 118.836 -7.83457
11.1376 107.201 5.45703
-19.9052 129.315 -5.19611
-22.0998 137.045 5.18065
-23.9971 132.895 -5.13331
-15.3465 132.772 8.99558
-27.0662 136.921 -2.5701
-12.8724 130.928 9.78842
5.71533 102.794 -10.6331
2.2267 104.706 -12.7652
-13.3838 122.32 -6.35691
-20.4263 129.105 -5.54726
-5.31426 123.643 9.28457
1.65531 104.779 -13.3076
-5.33316 123.577 9.2866
-6.45575 112.333 -12.7437
-12.7659 121.416 -6.54966
-30.9806 142.11 1.14783
-2.57364 107.786 -14.4553
-17.4452 125.435 -6.7877
6.16126 102.22 -10.1806
10.9587 106.645 5.65037
9.56466 104.237 -0.923674
-21.945 131.948 -2.1665
-9.30197 115.919 -10.4848
1.73071 104.358 -13.3715
-27.1647 139.355 2.70884
-16.3119 124.51 -6.35626
-21.9121 131.186 -3.33995
0.0374712 105.247 -14.3818
-1.0205 116.807 4.75612
9.12569 104.008 -1.80403
8.76719 110.474 9.28022
4.90488 102.637 -11.1102
-11.4835 128.844 9.50111
-26.6095 138.955 3.21827
-27.1932 136.143 -2.77091
5.72391 102.126 -10.4886
-20.5088 128.42 -5.76539
-11.3677 119.508 -6.93287
-24.8121 137.824 4.23244
3.35438 115.007 8.95253
-20.5706 134.815 5.72157
-9.96961 117.285 -8.54514
-7.52988 125.595 10.4349
-22.701 136.374 5.1829
-20.6474 128.835 -5.06556
-31.2938 141.918 1.19829
-6.99282 112.368 -12.5212
-14.3708 122.346 -6.4914
-12.1381 120.17 -6.76973
4.02133 102.868 -11.5367
-29.3387 138.669 -1.26323
-24.2597 132.446 -4.12908
-18.0209 133.491 7.93421
5.77108 101.87 -10.3029
-5.86023 123.525 9.82763
-16.5137 123.982 -6.67492
-26.8667 135.27 -3.0916
3.49021 102.871 -12.0796
-27.9253 139.353 2.59947
-21.1308 134.627 5.16523
3.72439 102.726 -11.8756
-30.8388 140.314 -0.208771
8.62907 102.548 -4.01061
-30.1077 140.619 1.62936
-7.13504 112.001 -12.5501
-17.3736 132.69 8.19927
-28.4315 136.808 -2.35571
-4.76372 108.833 -14.2651
-25.2883 132.476 -5.02511
10.5911 105.221 4.27087
-11.3709 118.53 -7.36369
7.20137 100.814 -8.96154
-28.4932 136.686 -2.37956
-19.2936 133.921 7.61699
-17.0325 123.677 -7.08376
-6.53291 110.822 -13.0535
-3.29098 117.764 4.76002
-21.6657 128.748 -5.27752
-3.1294 106.773 -14.66
3.94752 101.934 -11.852
-9.41093 126.159 10.1517
-10.1109 116.084 -9.15203
-21.6062 128.592 -5.29553
-22.2302 130.76 -2.30759
-21.0632 134.088 5.61001
-10.8305 117.217 -8.1516
-23.3721 135.742 4.92271
-15.0901 121.752 -6.79833
-19.582 133.441 7.01442
9.94091 107.408 8.13945
-10.0057 115.484 -9.67615
-3.68449 107.093 -14.4917
10.0157 102.811 0.193823
-4.21168 118.435 5.26678
6.37178 100.711 -9.45944
-1.64484 115.867 4.83597
-10.5945 126.623 9.67849
9.27793 108.121 8.68224
-13.9571 120.085 -7.4595
-24.4649 136.236 4.6716
10.1999 106.709 7.88828
10.5552 103.412 2.55745
-4.48442 107.566 -14.3305
-22.451 134.155 4.41044
-19.1059 133.144 8.07971
10.7561 103.955 4.06161
-22.6385 130.614 -2.18542
-6.83211 123.288 10.3507
-22.6083 130.51 -2.18542
-22.4562 130.388 -2.15173
-24.0154 131.298 -3.0006
3.60367 101.225 -12.1554
-23.8936 131.125 -2.85291
10.8699 104.41 5.62348
-7.85383 124.138 10.7271
-7.14322 123.326 10.4966
-22.5191 128.854 -4.52271
-22.8339 133.991 4.24112
5.35532 100.589 -10.0714
-4.81661 107.395 -14.2286
9.54144 106.941 8.33503
-4.99299 107.528 -14.2433
6.47329 111.411 11.4626
-4.8471 118.362 5.61791
-32.0372 139.654 -0.22689
8.82912 107.926 9.12502
-28.5183 134.977 -2.78995
-3.31006 116.403 4.85406
-14.3935 129.675 10.7701
-9.08387 124.831 10.7205
0.183629 113.874 6.06983
-9.05541 124.753 10.7463
-3.24517 105.455 -14.5636
2.67293 101.088 -12.7719
-22.7911 129.934 -2.2076
-3.89169 106.124 -14.3575
-11.8354 126.826 10.1103
-15.789 120.378 -7.88384
-24.0651 134.936 4.93412
-25.1637 135.932 4.96901
8.61752 107.879 9.45845
0.637099 113.351 6.46219
9.10735 101.138 -1.73166
2.13253 101.087 -13.1808
-23.7599 134.602 5.25135
-24.5455 130.353 -3.69053
9.79573 105.897 8.13031
4.82507 100.092 -10.4339
-18.257 122.343 -7.79558
-22.9432 133.021 3.91189
0.81739 113.02 6.66084
-11.3376 115.434 -8.77388
-22.2692 126.9 -5.86374
-1.41609 114.242 5.34119
-5.53165 107.09 -14.1953
-25.1729 130.3 -4.28944
-24.8581 130.097 -4.12322
-2.32918 114.752 4.94057
-3.3605 115.675 4.944
-23.6509 134.156 5.23954
8.59324 107.283 9.27737
-32.6703 139.3 -0.0823317
-31.9788 139.427 1.30911
4.67047 112.135 11.7838
10.6493 102.042 3.34269
-8.38218 110.079 -13.142
7.21546 108.992 10.3787
8.50461 99.2822 -5.02643
-15.8453 129.883 10.5561
-9.22034 110.786 -13.0373
6.2216 110.547 11.7232
-8.73194 110.251 -13.1293
-30.5212 136.292 -1.61974
-17.6365 131.01 9.86946
8.72438 100.311 -2.56306
-24.6197 134.59 4.99483
-22.7016 128.76 -2.38406
-3.28466 115.297 4.95557
8.33241 98.5954 -6.22221
-5.90532 119.789 8.83737
1.62407 100.55 -13.5553
-23.9789 129.608 -2.73436
5.36875 99.2833 -9.5831
5.05576 99.3461 -9.93207
-1.05787 102.058 -14.9817
9.98848 100.64 0.452295
0.780913 112.467 6.82238
-19.166 131.493 8.69371
-23.0102 128.634 -2.57561
-6.2786 120.342 9.76205
-22.6664 126.972 -4.91771
-8.46328 123.068 11.1753
7.68113 98.1795 -7.38053
-29.1501 133.343 -3.9118
-25.0931 129.577 -4.07421
-20.3201 123.355 -7.49489
-7.29403 108.132 -13.6646
-31.3616 138.286 1.62339
-22.9231 128.376 -2.48945
-10.4114 124.33 10.5939
-5.54178 106.218 -14.0891
3.75364 99.1759 -11.6284
-30.2844 135.313 -1.85163
8.86619 99.2596 -3.12666
10.6097 101.174 3.30255
-14.4004 128.004 10.9869
-25.6912 134.696 4.76484
-2.69725 114.028 5.04132
-29.5988 133.666 -3.27297
-12.4406 115.269 -8.50231
-14.3829 117.136 -8.21593
-29.7402 133.858 -3.05003
-16.9731 119.385 -8.30686
-7.74499 121.618 10.8071
-28.6493 132.119 -4.25189
10.3716 100.205 1.7795
-4.41685 104.763 -14.0646
-23.4949 127.456 -4.11731
-4.90952 105.19 -14.0128
-30.6786 135.232 -1.74955
-22.7457 125.697 -6.01169
-1.88156 101.897 -14.8742
-6.03203 118.455 8.35731
-31.4966 136.138 -1.08644
-5.32111 116.25 5.86965
0.527379 111.598 7.04591
-18.0244 119.61 -8.56842
-23.2676 127.441 -2.91953
1.96161 111.017 8.55502
-32.474 137.032 -0.577162
-27.6037 135.712 4.99327
8.15311 96.9923 -6.50109
2.4253 110.897 9.29394
4.9516 110.118 12.0279
3.8743 110.771 11.4929
-25.2208 133.517 5.29797
-6.24276 105.674 -13.9806
-11.0198 111.344 -11.5064
-16.0225 128.25 10.8804
1.32641 98.8873 -13.61
10.0489 101.365 5.11951
-21.2241 131.115 7.87223
-28.7389 135.758 4.05498
-22.9391 126.874 -2.52036
-31.4048 134.656 -2.13959
-9.17444 122.137 11.534
-11.8488 112.497 -10.1874
-13.9188 126.105 11.1169
-11.3599 123.579 10.8822
-23.1775 127.106 -1.96549
2.48294 98.0767 -12.453
-0.0977456 99.1835 -14.5416
-23.7021 126.249 -4.15059
-13.5475 114.361 -9.03038
10.5018 99.6896 3.69202
-30.6408 132.584 -3.95173
-24.7641 131.845 4.30565
-24.1533 127.53 -2.25271
5.03392 97.0538 -9.61515
-28.1726 130.306 -3.63209
-6.46388 116.799 7.37636
8.86153 96.5969 -4.10124
-5.07562 114.357 5.26908
-14.8594 126.515 11.3581
1.93207 97.9397 -12.8231
10.5711 99.0632 3.35587
-10.9869 122.865 11.2063
2.77285 110.143 10.6861
-14.4264 126.043 11.358
9.81521 98.2776 0.773818
8.69367 96.2852 -4.59848
-13.3546 113.583 -9.25072
4.56762 96.9313 -10.0851
-27.8512 129.8 -3.54248
-24.0386 131.043 4.93207
-34.0901 137.474 0.190537
5.14718 108.683 12.1615
-13.9345 125.349 11.2193
6.24126 96.1856 -8.49304
-23.6086 123.863 -7.13523
9.73262 102.191 8.07188
-6.01241 104.237 -13.8305
5.4072 108.314 12.186
-13.8958 125.165 11.233
-22.5001 122.542 -7.44573
-9.82008 121.701 11.6995
-0.672091 110.668 6.72903
-5.13678 113.896 5.32678
-1.98289 111.413 6.00062
-2.91454 111.972 5.53971
-12.2868 111.555 -10.3762
10.0671 97.8623 1.39628
10.4473 98.8698 4.03524
-32.7912 134.379 -2.30688
-9.15203 106.769 -13.612
-33.6276 137.325 1.83658
-23.5731 124.051 -5.70253
9.27505 102.135 8.42129
-18.3767 117.374 -9.11322
-30.2222 131.154 -3.50875
8.7724 95.6031 -4.11629
-25.6537 127.027 -3.43146
-26.1228 131.783 4.42994
-23.9615 123.565 -6.67086
-9.51598 106.673 -13.5958
-14.164 113.052 -9.64589
-25.7486 131.039 4.04741
-4.72347 102.051 -13.8887
-22.041 121.038 -7.82894
-1.25658 110.268 6.64057
9.38996 101.53 8.26921
-4.24677 112.162 5.25006
6.13514 106.156 11.3858
-26.7119 131.383 3.41846
1.75897 109.138 9.71303
-19.0346 117.269 -9.36535
-9.78234 120.648 11.8031
0.121222 109.348 7.63432
-10.1186 106.802 -13.6021
2.76766 96.1786 -11.7487
-1.52618 98.1236 -15.178
-25.8347 126.689 -3.23595
-30.8713 131.136 -3.34251
-33.3817 136.665 2.60422
-1.17702 97.839 -14.9786
-23.7792 123.493 -5.50849
-29.7237 133.963 3.7952
10.4037 96.635 1.83606
-32.5984 132.578 -3.35269
-12.8348 110.62 -10.5316
-32.6129 135.902 2.88227
9.80141 95.6994 -0.502289
-6.9626 114.932 6.95022
3.98595 95.3139 -10.6021
-15.1563 124.99 11.7811
-4.50017 100.954 -14.2117
8.80512 94.7793 -3.5837
-33.5557 133.614 -2.50951
-29.0324 129.042 -3.32144
-23.3834 121.406 -7.86353
-16.998 126.148 11.0959
-31.952 135.138 2.98963
-24.5328 125.659 -1.94621
-18.9019 127.642 10.8584
-25.689 126.924 -1.4247
-25.7471 126.894 -1.40832
2.67297 108.249 11.2574
-33.7445 136.34 2.62607
-25.3465 126.301 -1.76236
-24.9735 125.29 -2.94324
-25.3462 124.92 -4.17001
-24.5644 125.525 -1.7523
-13.4065 110.724 -10.2483
-0.610141 108.909 7.35673
2.42871 108.166 10.9658
1.83224 108.311 10.2687
-32.7703 132.044 -3.26418
-25.4161 125.448 -3.16598
-34.1245 133.826 -2.23048
-17.6331 114.882 -9.50919
-24.08 122.919 -5.50965
-27.7699 127.999 -2.2793
9.41741 99.9073 7.70833
-7.79323 103.559 -13.7308
-27.5048 127.639 -2.38143
-26.5846 127.034 -1.85947
-2.06551 97.4101 -15.3244
-25.3462 125.972 -1.60489
-25.5237 125.918 -1.92153
10.3374 95.6741 1.99081
-7.37782 115.951 9.73743
-20.4264 117.075 -9.43929
3.66054 107.385 12.3299
-26.4619 126.477 -2.28466
-2.07709 109.342 6.6282
-27.8425 131.33 4.33376
-24.0432 129.442 7.13402
9.40053 98.8629 6.46169
-27.9511 131.225 4.09711
8.97822 94.307 -2.30836
-29.3249 132.783 4.73181
-8.0562 116.791 10.5403
-22.7697 119.514 -8.48756
-25.0946 122.289 -7.21529
-24.2705 122.962 -4.64962
-25.8789 126.123 -1.55279
9.09235 94.3733 -1.85766
1.04931 107.886 9.41883
-27.8188 127.089 -2.95078
-24.883 124.889 -2.04917
-21.749 118.19 -9.02821
-24.7673 124.648 -2.28526
-28.0125 127.953 -1.59873
9.42911 98.5964 6.43551
9.19931 99.8941 8.43328
-21.1702 128.596 10.76
-28.3706 128.07 -1.87793
-20.6983 116.89 -9.44754
7.21664 102.922 10.8383
-27.9693 127.828 -1.46288
-24.6888 123.974 -3.06456
2.90188 94.4278 -11.3802
-14.982 111.18 -10.2129
-4.3028 98.8319 -15.0265
-22.6173 118.814 -8.7849
-10.8516 119.809 12.2273
-13.8441 109.709 -10.8164
9.85176 94.3555 0.151928
-27.6486 127.478 -1.14109
-25.4888 122.361 -6.78554
8.78795 93.7187 -2.56625
0.600941 95.0984 -13.3612
-9.05911 117.515 11.3859
-21.0221 128.065 10.9689
10.2687 96.1262 4.33947
-35.0114 133.399 -2.10861
-21.2555 128.16 10.8671
7.4882 93.097 -5.51479
-25.3052 124.912 -1.52872
-30.5263 132.77 4.19074
-0.163958 107.513 8.08081
-26.6473 125.681 -2.27106
-25.5943 124.703 -2.10936
-25.1052 124.328 -1.9757
-28.9739 130.859 3.65095
-24.8218 120.728 -7.78362
-22.1795 128.446 10.4916
-27.519 127.754 0.588149
-35.5672 134.593 -0.126202
-25.2357 129.076 6.90917
-27.5178 126.407 -1.61798
2.21102 106.36 10.6721
-0.396601 94.9563 -14.1088
-25.4421 124.218 -2.02152
-29.7711 131.101 3.35735
-17.5613 124.612 11.5965
-35.7555 134.572 -0.0319925
-1.32836 95.2989 -14.7758
-22.6543 117.702 -9.02169
-32.5569 130.161 -2.64456
-21.95 127.934 10.7201
-30.6343 130.894 1.97355
-4.24691 97.418 -15.3718
-30.1364 130.961 2.98274
-3.93083 109.024 6.09637
-27.2578 125.706 -1.78642
-26.8868 124.973 -2.45992
-23.4615 118.477 -8.59273
-35.5309 133.189 -1.70693
-27.6197 128.112 2.05074
-35.8187 134.895 0.942833
-10.2505 103.757 -13.5012
-26.8345 128.021 3.28307
-25.5728 123.525 -2.63731
-1.15878 107.161 7.72018
-26.2485 124.721 -1.4573
-20.7965 126.728 11.1234
-3.38032 96.2366 -15.4919
-28.0018 127.2 0.369386
-28.0805 128.314 2.26831
-25.6493 122.99 -3.36343
-23.7163 128.271 9.34271
-5.4554 109.721 5.62006
-25.4982 123.415 -2.30036
7.87057 100.133 10.1106
-0.916074 94.4707 -14.3128
-7.9015 113.812 9.22071
-28.1201 126.055 -1.59148
9.88196 95.8747 5.9722
-28.0053 125.653 -1.97972
-15.0605 108.7 -11.4283
-7.68065 100.921 -13.4156
-26.2561 122.83 -4.13335
-28.7207 127.005 -0.558199
-13.7994 120.717 12.4644
10.0105 93.2221 1.64788
-15.5773 109.516 -10.5022
-19.3051 125.058 11.4954
-31.0112 130.846 2.90951
-20.3977 114.179 -9.7905
-1.34524 106.723 7.80283
-35.9069 132.711 -1.32158
-18.1377 123.975 11.8564
-10.1675 102.789 -13.3458
-2.26671 94.6159 -15.2161
-21.8014 115.347 -9.56007
-5.95184 98.2471 -14.5875
8.93167 92.1353 -1.30753
-2.115 106.92 7.3732
-12.6302 105.316 -12.6099
-28.6789 125.696 -1.97369
-32.0986 129.833 -0.0264074
-26.2705 127.188 4.73105
3.00766 104.974 12.3905
9.53646 96.0062 6.84657
-9.38727 115.591 11.3773
-28.3079 126.888 0.951964
-8.60881 114.391 10.5416
-28.1787 125.772 -0.795401
-25.96 123.248 -1.71566
-10.7856 117.264 12.2348
4.86938 91.3216 -8.97095
8.1269 91.7764 -2.75212
10.1616 93.1454 3.04343
-16.0203 121.995 12.4632
-31.8172 130.517 2.13454
-25.6988 127.309 6.31335
8.60155 97.7775 8.96865
-8.17123 112.2 7.67232
-29.6087 127.569 0.527561
-36.5141 133.926 0.938486
-24.6984 127.36 8.40014
-29.3446 126.765 -0.211225
-29.5877 126.813 -0.519487
-33.9519 129.939 -1.98239
-19.8702 124.683 11.5501
-26.3033 126.865 5.03286
-9.23909 101.392 -13.1014
-26.4483 122.667 -2.72768
-3.05457 106.901 7.04046
-7.43546 99.5666 -13.3147
-26.2173 126.832 5.41351
7.09147 90.6969 -5.48962
-26.3833 122.659 -2.26861
7.42183 99.0867 10.2698
-21.4083 125.565 11.1083
-1.6177 93.4279 -14.6278
5.68704 90.4055 -8.16751
-31.718 127.975 -1.29897
9.34994 95.5766 7.26953
8.22641 97.7592 9.38569
-27.0772 126.392 3.55759
-13.5184 119.101 12.5197
-17.39 122.406 12.2783
0.159514 92.4003 -13.2409
-7.13732 98.5856 -13.8231
-29.7387 126.233 -0.657557
-36.6118 132.763 -0.0679089
-3.42965 94.2277 -15.5354
-29.7128 126.227 -0.564638
-23.5495 126.435 9.92651
-22.8375 115.131 -9.28262
-9.46926 114.348 11.2587
4.33764 102.446 12.2828
10.0165 92.0667 2.84436
-10.4305 101.731 -12.9403
-33.2466 129.524 0.0748564
9.41749 94.8194 7.0047
-33.3672 130.346 1.43572
-26.6727 119.9 -6.4982
-33.017 130.662 2.6367
-33.9676 129.237 -1.46805
-4.44549 94.5934 -15.8046
-10.7702 115.85 12.2435
9.75688 93.7543 5.82303
-22.2701 114.29 -9.28098
-31.5459 127.324 -0.719862
-16.4651 107.535 -11.8376
9.11085 90.7717 -0.392106
-2.37039 92.9501 -15.1348
-9.96605 101.082 -12.8116
-32.7671 128.044 -1.27238
-28.2756 125.56 1.65793
-5.04192 94.9355 -15.7167
9.92187 91.2988 2.09294
-7.68955 109.501 6.25202
-22.3911 125.519 11.3132
-24.7923 126.276 8.78585
-11.2671 102.049 -12.8623
-28.604 124.538 -0.508553
-24.8175 116.764 -8.35064
-5.23423 107.113 6.20404
-1.95484 92.534 -14.7324
-33.7461 129.766 0.664078
-28.0982 123.872 -0.740964
3.6696 90.1045 -9.85048
9.83976 92.8446 5.14591
9.89322 91.6042 3.00943
-8.55953 111.814 9.50772
-4.76481 106.712 6.54201
-8.62891 110.903 7.87009
4.45186 89.6509 -9.15575
-29.6779 126.167 1.28654
-31.4127 126.074 -1.60771
-30.2941 125.071 -1.56166
-29.889 124.759 -1.45747
-31.7788 126.393 -1.5289
-25.643 126.19 8.15859
-30.4781 126.674 1.17544
-34.0156 131.049 3.35777
-24.524 115.826 -8.61955
-21.9202 124.466 11.3147
5.15691 100.214 11.7363
-28.109 124.832 2.04733
-19.7165 122.756 11.9724
-27.2497 125.634 4.90269
-34.1683 128.911 -0.30243
-8.70712 109.926 6.94505
-21.7613 124.136 11.3194
-31.8356 127.401 0.863181
-29.44 124.16 -1.06943
-33.9414 129.037 0.458149
-33.8199 128.222 -0.760839
0.10354 104.478 11.6816
2.36022 89.8784 -10.853
-2.18217 104.686 8.52215
-1.36229 104.367 9.29255
-0.256538 90.8261 -13.3103
-4.42322 93.2014 -15.7883
-0.172808 104.388 11.3247
-32.29 126.327 -1.37966
-5.79413 94.5599 -15.5297
-19.5038 109.762 -10.4121
-34.9369 129.452 0.161077
-10.1554 100.013 -12.5592
-16.2968 119.347 12.3252
-31.1649 126.367 0.802793
-13.0887 116.603 12.7005
-32.8824 128.15 1.32632
-16.4962 106.249 -11.4718
-17.9731 120.607 12.0949
6.4488 88.3212 -6.35038
-1.61319 104.198 9.26927
-29.0522 123.685 -0.242291
-5.37697 93.5981 -15.8795
2.81048 89.2308 -10.3761
0.111463 104.024 11.9167
-6.52563 94.9598 -15.1984
6.33138 88.1367 -6.46997
-13.8932 116.791 12.5571
-7.41635 107.364 6.12472
-27.9021 124.709 4.18224
7.01209 88.7075 -3.85163
6.6038 88.167 -5.42978
-28.0541 123.442 1.77343
-15.2399 117.747 12.3967
-5.77947 105.806 6.30102
-20.5899 122.143 11.7964
-15.2939 104.485 -11.3927
-25.1598 115.042 -8.39576
-8.14991 96.5948 -13.9674
-22.0438 123.192 11.435
-14.1609 103.213 -11.6951
-4.1352 91.9304 -15.6927
-12.971 101.732 -12.3796
3.36244 100.531 12.0838
-19.2313 121.051 12.3076
8.1789 88.6924 -1.42002
-23.0376 124.027 11.5333
5.71567 87.5439 -7.42205
-35.8715 130.057 1.61501
-13.6701 116.139 12.6775
-13.5786 116.008 12.7086
0.0331536 89.5391 -12.8614
-14.6633 116.816 12.4407
-36.7817 129.821 0.0837387
-5.55974 92.7113 -15.9971
-10.212 112.158 11.5293
-23.7714 124.27 11.3002
-4.18984 91.615 -15.7098
6.67648 87.7928 -4.77924
7.7997 94.4222 9.01104
-16.3736 105.071 -11.0735
9.28676 89.4632 2.59523
-10.3788 98.8145 -12.4652
-9.17115 109.174 8.20285
-6.39388 93.5084 -15.4999
7.73687 88.175 -2.01133
2.49772 88.1534 -10.3526
-28.4162 122.932 2.06549
-6.34503 93.1487 -15.7101
8.21884 93.3904 8.61095
-14.7238 102.99 -11.4331
9.01129 87.9317 0.134919
6.90094 87.8698 -3.39255
-6.05885 92.5807 -15.9868
-16.914 117.977 12.195
9.26483 88.94 2.46477
6.84108 87.7626 -3.54714
-27.1906 122.731 4.20234
-5.47328 91.8688 -16.0494
-27.1325 122.681 4.28342
-3.91363 90.645 -15.617
-26.786 123.69 6.78539
-8.48864 107.027 6.53483
-29.0663 122.53 1.01126
9.36541 88.343 1.94043
-1.71175 103.093 10.5216
-9.34784 108.58 8.01065
-12.8155 114.265 12.7327
0.8509 101.523 12.1044
3.03082 87.3802 -9.85544
-7.98356 106.304 6.39083
-1.15151 102.998 11.625
-27.1582 116.475 -6.34765
6.24555 87.0192 -4.93953
7.81104 93.3882 9.11429
-2.56407 102.963 9.58106
-36.1595 128.683 1.27452
-37.3809 130.705 2.95095
-36.3003 129.152 1.9323
1.96169 100.212 12.1086
-3.15514 103.067 8.95493
9.34114 88.3668 2.79947
-11.2926 98.6654 -12.2203
1.09141 87.8766 -11.4887
-24.0986 123.271 11.3681
-38.4516 130.993 1.97126
-8.47279 106.449 6.53851
-4.40043 90.3486 -15.7721
-11.1575 111.824 11.9847
-21.6715 109.278 -9.72149
-18.061 118.135 12.1515
-22.2378 121.587 11.6192
-5.00569 103.684 7.48916
2.16586 99.7534 12.1641
-26.5442 122.689 6.81811
-21.1528 120.677 12.0579
-10.3663 110.509 11.3899
-4.41728 90.0428 -15.7756
-25.3883 123.317 10.2461
-16.6587 103.799 -10.7189
-26.5354 122.023 6.08978
-3.66871 89.4115 -15.368
-27.9911 116.863 -5.43745
-12.6133 99.5052 -11.6796
2.16402 99.2879 12.2275
-6.66431 104.027 6.49228
3.59526 85.9282 -9.42573
1.85067 99.452 12.2301
-22.6274 109.969 -8.63942
-25.0665 112.429 -8.1394
-0.0983718 87.4524 -12.5128
-9.72571 107.685 8.30865
-26.1254 113.743 -7.40423
6.65011 94.0412 10.4614
-28.9209 120.506 0.292112
-19.5256 118.605 12.4661
-17.7861 104.319 -10.4262
6.84119 86.2598 -2.79332
3.24268 97.7594 12.1499
-38.498 129.348 1.17854
-20.8877 119.643 12.4517
-20.9284 107.277 -9.87401
9.46505 87.3217 3.64941
-4.24203 102.453 8.62259
-9.41807 94.5711 -13.9952
-14.1449 113.703 12.9852
-26.8446 119.906 3.50004
-26.8735 119.88 3.42623
0.283987 100.263 12.3007
9.28661 86.455 2.08891
4.71384 85.2602 -7.40436
-28.575 119.723 0.822151
-3.12753 102.123 10.5464
-24.3099 121.819 11.597
8.16179 85.7678 -0.539808
-7.82016 91.5585 -15.9347
-9.38125 105.598 6.91025
5.93187 85.1825 -4.96297
-38.3684 128.917 1.7834
-6.66936 90.3453 -16.1459
-25.7873 121.704 9.30654
9.30756 87.3741 4.55941
-38.9513 129.406 1.89656
-9.93875 94.3611 -14.0253
5.72469 84.9808 -5.37176
7.37708 85.4358 -1.75171
-2.81244 87.5493 -14.3398
-26.7516 113.329 -6.7762
4.3192 84.6937 -7.82242
-28.9876 119.259 0.363114
-12.8927 98.0139 -11.7383
4.60142 95.05 11.4952
-25.7995 120.631 8.13536
-26.1018 118.793 4.35885
-26.9106 113.358 -6.69886
-2.7756 101.741 11.7097
3.94009 84.5502 -8.35249
-17.2991 102.196 -10.9716
6.34582 84.832 -3.77753
-10.429 107.979 10.7476
-17.1497 102.006 -10.9683
-23.4714 108.876 -8.82875
-14.157 112.564 13.0042
9.02878 87.4848 5.58987
-28.0441 118.743 1.63931
-20.5332 117.861 12.6031
-13.2246 111.202 12.5146
0.61667 85.369 -11.5327
-19.3165 116.564 12.3109
1.35866 84.9252 -11.0156
2.65291 84.3049 -9.90725
-3.69293 101.522 10.8814
2.39439 96.3318 11.4353
-16.3748 114.103 12.9721
-18.3722 102.622 -10.8402
-28.3066 114.601 -5.38191
8.96548 86.7453 5.08085
-28.0141 118.293 1.84497
-24.4937 109.401 -8.30049
6.84238 84.4529 -2.21031
-15.1716 99.3892 -11.0976
-14.8698 112.477 13.1089
3.6408 94.8386 11.4899
-22.8632 118.992 11.9517
-19.7842 116.383 12.311
-7.25174 89.226 -16.2482
8.02684 84.4353 0.0280123
-12.4202 95.8361 -12.6774
-26.5866 112.01 -6.51613
-27.4041 112.857 -6.2971
-26.2023 120.065 8.71532
-7.8848 102.416 6.92686
-28.8227 114.813 -4.70755
-2.42062 100.492 12.501
-13.0604 96.3786 -12.2354
-20.5216 104.094 -10.4146
6.39771 83.7272 -3.2677
-20.8034 104.315 -10.4205
-8.66507 103.05 7.11535
8.58503 84.1803 1.21067
-0.807038 99.0585 12.763
-11.9095 94.559 -13.4294
-11.9554 108.514 11.671
-24.6766 120.05 11.868
-4.76089 100.899 9.80568
6.42407 83.5515 -3.10651
-6.64502 101.384 7.79261
-19.7545 102.988 -10.6238
-13.9848 97.059 -11.9056
-11.114 107.142 11.1489
2.79982 83.2439 -9.27534
-2.61977 100.235 12.5736
-22.0897 117.805 12.6002
-12.1826 94.5001 -13.2846
-11.3373 93.0875 -14.4519
-6.75651 101.243 7.81399
-9.66419 103.796 7.73829
-15.6367 98.6374 -11.2763
6.9928 89.3395 8.95264
-11.2689 107.17 11.3834
-12.0144 108.073 11.8597
4.89194 82.9874 -5.77646
-22.5413 117.792 12.4366
-26.7147 118.277 6.5775
0.501861 96.5191 11.6785
4.99488 92.0187 10.887
-8.29502 88.9724 -16.2423
-11.3231 92.6227 -14.5709
-10.6543 91.8082 -14.8898
5.14679 82.8157 -5.26061
-29.0778 114.674 -3.49829
-24.4825 107.341 -9.20317
-26.1073 109.53 -7.83293
-26.0665 119.722 10.6371
-28.4186 113.027 -5.2092
-16.9053 112.683 12.9477
-14.7989 110.65 12.7145
-26.9646 111.121 -6.15371
-13.5112 109.18 12.2875
-1.42774 98.3234 12.5214
-24.8691 107.563 -8.91994
-17.9641 113.107 12.4891
1.50658 95.0025 11.5468
-20.0307 114.867 12.3607
-1.23143 83.8714 -12.9278
4.0345 82.4131 -6.95345
-29.1324 114.431 -3.19584
-1.96347 98.5489 12.5004
-5.19438 100.211 10.2509
-10.3742 90.6002 -15.4706
9.19678 83.7992 4.14903
-13.1384 94.5106 -12.8452
7.04285 88.1351 8.55346
-26.7572 116.085 4.0232
-26.7467 116.305 4.49379
3.03542 93.2501 11.4115
4.80647 91.3871 10.977
-28.8174 115.728 0.201817
-6.45775 100.262 8.78996
-10.6627 103.536 8.06869
-6.19284 100.132 9.22014
-15.3907 96.8135 -11.7405
7.07882 87.7401 8.51908
-28.5361 115.39 0.437212
-2.16723 83.8685 -13.4755
-12.0589 104.896 8.43113
7.15286 87.5406 8.41878
-25.4277 118.771 11.7027
-12.1548 105.1 8.70742
-28.2591 115.12 0.623952
4.69278 91.0668 10.9698
-28.6271 112.465 -4.62644
-13.7141 94.555 -12.6461
7.33172 87.0967 8.17464
-11.79 104.411 8.319
-9.32972 88.5883 -16.2
7.9921 85.5506 6.67908
-11.9494 105.514 10.3071
1.37031 94.2281 11.7033
-1.87161 83.1868 -13.4059
-22.6994 116.492 12.9056
-27.7054 114.128 0.585679
8.63713 84.037 5.51528
-26.9586 116.189 5.55172
-27.0758 114.808 3.01702
1.97014 93.3002 11.5331
-18.094 99.1547 -10.5251
-24.5888 105.658 -9.31992
4.74092 81.4084 -5.16565
-10.1802 101.848 7.43326
-6.26502 85.3581 -15.8323
-27.0156 115.643 5.00326
-19.6749 113.156 12.5976
-28.1507 113.487 -0.51259
-12.456 106.123 11.8779
-13.7461 107.848 12.9599
0.704006 94.2122 11.9403
-10.686 88.9833 -15.9428
-27.9947 113.188 -0.449248
8.83866 81.6294 2.6653
-8.33205 99.9281 7.79942
1.97821 81.033 -9.42737
-20.3956 100.475 -10.7222
-19.223 112.348 12.631
-26.4336 117.93 11.0551
1.26864 81.1498 -10.1031
-7.44372 99.4682 8.77482
-27.4233 114.398 3.20983
-28.7066 112.664 -1.88229
-27.2894 115.749 6.14791
-27.6213 113.972 2.47451
-29.0731 111.566 -4.1157
-1.46149 95.6956 12.3419
-12.5437 104.568 10.3075
-18.0371 110.892 12.7753
-19.9161 99.6403 -10.4986
-13.537 91.9958 -13.8942
-22.6556 102.478 -9.77568
7.2288 80.1446 -1.37219
-2.5446 96.6213 12.5208
-14.1337 92.7174 -13.3887
7.09072 80.0225 -1.70583
-0.528439 94.619 12.3371
-13.1265 106.328 12.9445
-22.2755 114.6 12.9803
-26.6162 107.248 -7.33167
-17.4882 110.297 13.0397
-12.7432 104.563 10.5869
-6.16418 98.9493 11.28
8.58319 82.4303 5.53273
-27.4501 108.618 -5.85147
5.43807 87.6434 9.88216
-26.9347 107.524 -6.76181
-2.85879 96.5199 12.659
1.27009 80.3189 -9.785
-27.4864 116.079 7.96102
-27.4038 116.24 8.42672
-15.61 108.354 13.4114
-12.0277 89.0813 -15.502
4.20869 88.9628 10.7263
-28.5833 111.26 -2.42671
-6.06288 98.7383 11.7189
-26.8662 107.167 -6.95141
-27.5947 115.21 6.37494
-14.1631 106.974 13.4584
-28.2921 112.069 -0.317637
-1.94298 95.4124 12.6258
0.245587 93.0499 11.9876
8.74587 80.0702 2.43333
-26.777 106.931 -6.95844
-27.5638 115.814 7.80839
-1.52701 94.9581 12.593
-17.5374 109.661 13.069
-27.0187 107.26 -6.70201
7.24604 79.2965 -1.27051
-13.8832 106.512 13.4268
-16.7987 95.102 -11.8993
-28.4236 111.404 -1.31675
4.40838 88.2611 10.4608
0.351173 92.7252 11.9216
8.40313 82.0125 5.74861
-23.8521 115.068 12.9258
2.85583 80.0831 -6.68245
-1.14769 80.5269 -12.3754
-28.5548 109.214 -5.23113
1.75117 79.8188 -8.88772
7.33176 79.101 -1.08468
-13.3455 104.224 10.839
-15.6467 107.71 13.3942
3.42999 79.6851 -6.00357
8.57639 79.3239 1.80844
-13.2011 102.997 9.19599
-6.26926 82.725 -16.0087
-22.5108 100.649 -9.95414
0.486257 91.8941 11.821
-11.9271 100.779 7.67397
-10.9599 86.578 -16.352
-13.4059 103.555 10.3483
6.60983 84.1645 7.97285
-10.464 99.371 7.71267
7.50744 78.5136 -0.628425
-29.2199 109.757 -4.07996
-27.9301 114.201 6.0496
1.71345 79.3871 -8.37433
-1.01286 92.9772 11.8195
-2.50543 94.5585 12.2652
-22.2757 112.783 13.0148
-26.2908 115.595 11.5943
-22.9316 113.397 13.1024
1.80012 89.9725 11.1586
-3.4892 95.4038 12.4883
-24.2904 114.443 12.9971
-5.21725 97.1862 12.9378
8.68619 79.0551 2.87792
-2.1145 93.726 11.9103
-27.1304 115.575 10.6622
-2.4813 94.0354 12.0146
-22.711 100.055 -10.064
-12.2437 87.389 -15.8631
-17.5374 94.2623 -12.0327
-11.1048 85.9375 -16.4219
-10.32 85.1208 -16.5868
2.18194 89.2137 11.1848
-14.4607 105.75 13.9242
-6.86916 97.724 11.8307
-0.29373 91.5409 11.533
-7.87142 97.6389 10.2367
3.95431 78.5423 -4.87839
-13.8234 102.13 8.75683
-25.514 114.781 12.597
-0.907 79.2659 -11.3683
-13.9212 103.057 10.501
-4.9675 80.7405 -15.1372
-13.9435 103.076 10.5375
-22.1402 111.784 12.9545
4.07856 86.5629 10.2367
-0.974742 91.7593 11.381
-3.67483 94.5404 12.0283
-11.7294 86.1349 -16.2149
1.46428 78.7787 -7.9826
-13.5354 101.267 8.22715
-25.2781 114.46 12.9128
-1.20158 91.7872 11.312
-28.8021 109.808 -1.05281
5.65673 83.8272 8.26018
3.66429 78.276 -4.89116
-12.0374 99.3443 7.81513
-23.2436 99.5873 -9.985
5.92892 77.4856 -2.27644
7.15193 81.4896 6.95677
7.36911 81.1799 6.80541
-7.31389 81.7135 -16.1423
8.00213 77.1293 0.611677
-7.26958 97.2829 12.0979
-29.3181 107.621 -5.13052
-14.6188 103.767 11.9227
-9.93501 97.6721 8.56105
-28.7048 109.184 -1.23368
-23.3062 99.4315 -10.0093
-11.0908 98.3108 7.86964
-28.995 111.58 2.70188
-24.017 100.548 -9.0643
-14.1228 101.466 8.79589
-23.799 100.045 -9.43073
-21.5978 110.422 12.8836
7.1635 81.1052 6.84408
-26.3999 103.189 -7.82101
-13.4697 87.2303 -15.4732
-21.3245 97.3394 -10.0233
-13.6204 87.4004 -15.3511
0.704819 78.1122 -8.71193
-18.3318 93.3399 -12.2369
-28.7334 112.021 4.54626
5.67186 77.0881 -2.42331
-14.6608 102.907 11.1429
-20.9589 96.7798 -10.1325
-27.2774 113.827 10.4336
-20.0427 95.507 -10.7661
5.42122 77.0365 -2.57941
-24.1105 99.9733 -9.28905
2.20779 77.8691 -6.261
-16.7702 106.162 13.8891
-27.717 113.045 8.55351
-14.6167 101.552 9.28179
-20.7378 109.098 13.0616
-15.0736 104.399 13.8324
-20.3493 95.5475 -10.6778
-16.1159 89.8461 -14.0475
-9.1092 81.9046 -16.8693
-8.96806 96.7338 10.1363
-20.7045 95.9104 -10.41
-17.0798 90.9144 -13.4897
-7.29068 96.4836 12.5141
-9.06373 81.7352 -16.8269
8.10173 77.811 4.07441
-26.9956 103.005 -7.52165
-10.4636 97.0975 8.79189
-8.63476 96.7082 11.0818
-7.30467 96.3027 12.5253
-4.7153 78.747 -14.8861
4.63382 76.8576 -3.0689
-12.9247 85.5719 -15.9271
-10.5034 97.0733 8.79158
8.06582 75.9263 1.13633
-27.124 113.351 11.4078
-10.9477 97.1313 8.553
-28.8642 111.646 5.66603
1.75844 77.2023 -6.54995
-29.4691 107.842 -2.08927
1.66706 86.8304 10.7872
-15.0533 101.418 9.91247
-13.2573 98.7519 8.08911
-28.3121 111.309 6.31043
-18.4898 91.7881 -12.8133
-22.0452 109.507 13.365
-29.7449 106.59 -4.4205
-18.8034 92.0522 -12.6432
-15.1867 101.049 9.78528
-2.01888 77.3285 -11.5003
-20.4618 93.8637 -11.5115
-26.896 112.578 11.8382
5.05459 75.6579 -2.64901
-19.1978 91.9739 -12.584
-13.615 85.2299 -15.642
0.594923 76.6818 -7.84384
-15.7613 87.6908 -14.5078
-5.99221 93.5502 11.9901
-4.96634 77.656 -14.9176
-28.1439 110.307 6.24369
-5.07247 77.6833 -15.0092
-11.6513 96.5746 8.59816
7.35799 75.0032 0.649216
-16.201 103.888 14.5168
-0.808924 76.6116 -9.55581
5.11848 80.7347 7.53766
-23.2396 109.806 13.8204
-18.1295 90.2476 -13.1079
7.32654 74.8866 0.73603
-18.6619 90.6784 -12.9509
-3.30256 76.6168 -13.2698
-27.9816 109.961 6.69049
-27.4656 111.312 9.98296
-27.5339 111.184 9.65233
7.16465 74.801 0.538446
-7.08021 78.4781 -15.9042
-4.58884 90.7124 10.3277
-8.91103 79.5136 -16.8938
-26.19 111.511 12.8003
6.39472 74.4565 -0.91085
-25.8806 99.3898 -8.49643
-9.82563 95.4901 10.6357
-2.39903 76.2881 -11.8848
-15.7536 100.998 10.9928
-17.1512 88.3825 -13.9413
-28.4612 108.978 4.83398
-15.8516 101.343 11.6569
0.653336 85.8151 10.5947
-1.85679 87.8212 10.1541
1.61921 75.9411 -5.60197
-29.6666 108.406 2.01353
-23.4782 96.1218 -9.92857
-8.79065 95.3189 12.6479
-27.5575 110.928 10.2741
4.77503 74.5759 -2.63432
-7.59649 78.2199 -16.145
-19.9003 91.2231 -12.6504
-24.7273 110.112 13.5731
-18.9994 90.2014 -13.0128
-28.1651 110.024 7.81708
-27.2706 100.561 -7.7887
-11.9102 81.6003 -16.9009
-27.3382 111.28 11.5435
-2.85933 88.4714 10.2976
-8.9875 95.2775 12.6717
-28.1653 109.995 8.01784
-8.70218 78.6718 -16.7555
5.05372 79.1899 6.71206
0.121848 75.5287 -7.60118
-22.1965 107.616 13.9326
-26.2161 98.7496 -8.57598
-17.1981 103.668 14.9866
-15.0043 85.0136 -15.0345
-2.50903 87.6399 10.142
-25.2974 97.3295 -9.47755
-26.5552 110.709 12.6483
-28.3966 107.848 4.67055
4.32343 79.9307 7.6397
-5.35102 76.19 -14.8251
-26.7489 110.492 12.4944
-19.171 89.3986 -13.1454
-28.7303 107.5 4.13553
-13.6725 82.6454 -16.1574
-21.5122 106.52 14.2394
-17.9444 103.838 15.2518
-1.83695 86.3667 9.97265
-2.20097 75.0631 -10.999
-16.2752 100.931 12.7886
-1.99017 86.4404 9.97323
-29.6225 103.077 -4.93285
2.75612 74.3858 -3.91409
-22.9923 107.667 14.2028
5.83711 76.9485 5.754
-21.335 91.5706 -12.1191
-28.3871 109.275 8.34962
4.71767 77.9257 5.71577
-16.3178 85.6348 -14.2668
-11.5988 95.1908 10.7969
-27.964 109.563 10.4621
-17.8169 86.9137 -13.7155
-0.100837 84.0705 10.1575
-19.5596 104.393 15.1557
-28.8884 100.93 -6.25456
-29.8574 102.758 -4.47163
-10.7451 78.318 -17.3663
-14.767 96.2679 8.50517
-7.90377 76.3142 -16.31
-20.7243 105.17 14.9262
-28.4709 106.932 5.585
-10.5079 77.8716 -17.5228
-8.89788 92.887 12.2322
-28.5502 100.122 -6.69749
-9.08171 93.0729 12.3212
-13.3832 95.536 10.0536
-8.73826 76.5145 -16.6423
-3.94189 86.9093 9.96095
-29.2405 105.61 2.64443
-16.5168 99.0199 11.6802
-8.64247 91.879 11.6439
-23.4811 92.9649 -10.5578
-10.3356 77.2585 -17.4018
-12.7513 79.9419 -16.4475
-28.6126 106.783 6.16334
5.07881 75.9962 5.5201
-20.4892 89.004 -12.641
-27.4 108.636 11.5721
-26.3953 96.4956 -8.6187
-30.156 102.946 -2.97038
-12.6147 95.1628 11.5987
-18.8379 102.895 15.5266
-14.2932 81.4178 -15.7862
-8.90297 91.7267 11.6087
-24.0053 93.2415 -10.246
-29.9345 104.634 0.65732
1.20482 81.5914 9.82445
-10.7822 77.2061 -17.5291
-27.416 108.316 11.5759
-9.63611 92.46 11.9901
-29.502 104.753 1.85219
-28.7586 106.778 6.8928
-28.8202 107.239 7.66091
-22.6815 91.2454 -11.1707
-30.2524 103.021 -2.25854
-13.7277 80.5218 -15.9254
-8.74441 75.5822 -16.6644
-16.9134 99.0301 12.6571
-29.9437 103.825 0.159475
-18.5587 86.0412 -13.2663
-27.1498 107.795 12.0114
-16.5695 83.4809 -14.4753
-25.8868 94.8869 -8.99286
-29.9562 103.356 -0.300386
-30.3527 102.89 -1.69879
-19.6777 102.83 15.5794
-27.4013 107.445 11.6719
-23.8122 105.888 14.8586
-20.6259 87.6976 -12.6978
-29.0149 105.682 6.37407
-8.38313 88.6923 9.34607
-17.2382 98.1171 11.9345
-20.1343 86.9522 -12.8112
-14.9375 80.5356 -15.4895
-17.3908 97.3592 11.0133
-29.2103 102.243 0.580352
-24.0175 91.9278 -9.51122
-3.84641 84.3738 9.72589
-13.7625 79.1019 -15.9037
-14.0295 79.4009 -15.7943
-18.0732 99.3497 13.7792
-6.4765 86.5282 9.60187
-13.346 78.1261 -16.255
-24.3969 105.369 14.9494
-24.0117 91.3106 -9.67065
-27.648 106.135 11.2945
-26.8095 94.8933 -7.52258
-30.2269 100.79 -2.30791
-20.7384 102.112 15.5515
-25.3415 105.345 13.9856
-24.9676 92.499 -8.47996
-27.4169 105.846 11.6477
0.249983 79.5053 9.24267
-29.3768 101.487 0.704211
-17.8507 97.0762 11.6346
-7.53957 86.4575 9.29954
1.47194 76.8302 6.66814
-19.9605 85.1592 -12.8035
-29.6846 102.367 2.51737
-27.9392 95.7565 -6.49759
-14.5776 92.2573 9.02873
-12.3909 91.3319 10.9305
-17.0044 94.5153 9.22053
-24.9126 91.6785 -8.73074
-6.28811 84.9504 9.47566
-15.1114 93.4489 10.5029
0.599951 77.4822 7.72044
-29.9231 102.442 3.14493
-12.5571 90.9142 10.6769
-4.48533 82.6761 8.964
-27.8846 104.804 10.8163
-5.04934 83.2532 9.15553
-28.5707 104.775 9.71199
-27.3418 104.726 11.6888
-14.1743 77.2645 -16.3386
-14.1757 91.4061 9.21919
-25.4443 91.8241 -8.2062
-1.23413 80.0913 10.0979
-13.3879 90.9966 10.0811
-20.7722 85.0531 -12.5967
-29.7537 104.495 7.92869
-14.774 91.3725 8.87516
-22.4713 102.054 15.6886
-29.6935 104.244 7.90901
-17.7567 94.2668 9.36282
-19.5341 98.2214 13.6116
-16.7046 93.7793 10.3632
-24.9587 90.4867 -8.99072
-18.7413 96.3125 11.8756
-30.1174 100.979 1.8244
-29.0153 96.033 -5.2145
-30.2713 101.612 2.84309
-29.6823 98.6945 -1.43823
-29.9038 99.8164 0.27392
-20.0712 83.7245 -12.7081
-29.851 98.4925 -1.98621
-26.6059 103.483 12.4528
-6.25438 83.2782 9.15001
-23.067 102.11 15.7408
-3.94607 81.3582 9.44887
-15.7572 78.304 -15.2319
-24.5195 89.308 -9.63053
-29.992 103.325 6.75639
-13.8421 90.0905 9.31397
-23.9183 102.476 15.3579
-8.05946 84.5421 9.0023
-16.9859 79.5918 -14.4397
-16.2722 90.9352 7.18515
-18.8634 95.2214 10.7585
-19.143 96.3292 12.3232
-17.1738 91.387 6.7463
-16.4992 90.5289 6.31617
-23.6872 87.9134 -10.0237
-25.5667 90.459 -8.42816
-26.6588 102.292 11.1596
-9.93272 85.4854 8.18574
-15.1741 76.741 -16.018
-25.5803 90.2633 -8.46686
-19.0187 95.0859 11.0241
-30.3073 101.538 4.2864
-29.7471 102.605 7.17953
-23.8564 101.71 15.3091
-14.3919 88.4184 6.79567
-28.1318 101.666 8.35436
-3.48343 80.2646 9.97019
-29.0684 102.069 7.68316
-1.63015 78.1159 9.16339
-30.3923 101.328 4.20998
-30.4989 100.504 2.62853
-11.316 86.335 8.36053
-30.4485 99.9173 1.95315
-25.1448 89.0015 -9.04767
-28.5336 101.575 8.18882
-17.8025 91.5074 7.53504
-29.9074 98.0617 -0.324906
-28.8832 101.689 7.92151
-18.0635 94.313 12.4655
-2.67656 78.8758 9.69293
-30.4816 99.6823 1.96612
-16.4509 89.1781 5.87146
-23.5213 86.7411 -9.94189
-18.5493 80.189 -13.6498
-16.8555 89.3071 5.79461
-17.475 91.8075 9.29926
-27.0044 91.4885 -6.7414
-21.4865 99.6483 16.979
-20.8223 82.761 -12.3882
-22.5583 84.7237 -11.4156
-6.34501 81.1639 8.63337
-26.8348 90.9981 -6.96525
-17.429 89.5145 5.69406
-28.6113 100.961 8.15148
-14.0705 86.8896 6.47016
-8.28805 82.6255 8.25174
-24.3144 100.505 14.4419
-6.81718 81.37 8.53004
-17.3003 90.0148 7.06571
-26.3702 100.268 10.8858
-19.1024 95.1882 13.5673
-8.66108 82.7647 8.16555
-14.7481 87.0896 6.06752
-16.7102 88.5641 5.58722
-16.9671 88.7814 5.58305
-17.7281 92.9157 11.8277
-28.0339 92.7343 -5.25288
-4.66887 79.8647 9.60305
-26.4735 100.032 10.4827
-9.24567 82.9223 8.07556
-26.6532 99.4777 9.61174
-25.1336 99.4939 12.2325
-17.3261 91.2397 10.1976
-29.0199 100.564 7.98038
-3.85731 78.7762 9.76567
-28.8499 100.371 8.04834
-30.6465 99.8981 4.27436
-23.7756 85.8109 -9.84859
-20.3658 97.0383 16.1442
-30.7026 98.0433 1.12799
-26.494 98.9358 9.62512
-17.5063 77.6603 -14.1011
-17.7276 77.97 -13.8955
-24.7894 99.4596 13.376
-18.1093 91.0748 9.18172
-30.376 95.9587 -1.62516
-18.6228 91.1101 8.96914
-20.0235 94.2417 12.3681
-16.5933 87.1232 5.18184
-25.9657 98.3513 10.2323
-8.48029 81.1438 7.7035
-27.0763 89.9705 -6.64976
-27.856 99.0931 8.80288
-23.497 98.3101 14.6654
-30.7996 97.1438 0.705735
-19.0392 91.3658 9.44189
-29.3231 92.8861 -4.4243
-22.9143 97.3205 14.0528
-30.8696 97.1975 0.921164
-24.8268 97.1998 10.8947
-20.3101 80.1141 -12.5054
-27.057 98.1077 8.96819
-15.4642 85.5134 5.30778
-15.0181 85.1728 5.43869
-10.2847 81.7282 7.05322
-11.8107 82.9493 6.78415
-24.6212 85.4706 -9.52455
-29.4251 98.6842 6.63468
-20.6364 95.8003 15.8118
-18.0994 77.0764 -13.7196
-19.8235 91.8438 10.3191
-12.7046 83.1153 6.22357
-12.7089 82.8753 6.09822
-20.8784 95.645 15.9325
-29.4191 92.2142 -4.14312
-22.2433 96.0748 14.5495
-20.8711 80.0395 -12.0975
-18.698 91.4306 12.0367
-22.1906 95.9763 14.5866
-21.2078 96.3088 16.941
-23.0234 96.1895 13.9109
-25.8374 96.4564 9.98669
-21.0936 95.9004 16.8049
-15.1232 84.3503 5.73821
-23.9529 83.1366 -10.7445
-29.0082 97.8395 8.16826
-13.6069 82.4712 6.02363
-26.116 86.0409 -7.9003
-28.8667 97.6747 8.60825
-30.8171 94.8736 0.390151
-18.7872 89.6119 10.6789
-18.7487 89.1032 10.0945
-30.5867 97.2933 5.60041
-19.2463 87.4698 6.50497
-22.2356 80.2652 -11.2646
-16.4712 84.656 6.07331
-27.4873 87.4332 -6.74524
-18.3189 89.136 11.324
-31.0104 92.8206 -2.47118
-30.8926 97.0256 5.37406
-20.9801 92.667 13.6802
-20.9515 93.0105 14.4418
-30.1962 91.4491 -3.34586
-21.4022 94.4452 16.5618
-13.5585 81.5351 6.28592
-19.0576 90.881 14.2797
-19.5492 87.6629 7.69397
-13.9523 81.8158 6.28885
-21.8472 93.2041 14.0458
-30.9467 96.6078 5.58485
-29.3706 89.5849 -4.46269
-25.0922 82.7525 -9.69797
-19.0933 85.4062 4.96085
-23.7575 94.4187 13.6396
-21.944 78.886 -11.3837
-19.5051 86.4364 6.28492
-22.3079 93.9902 16.4661
-31.1244 93.1447 0.698771
-21.404 91.6682 13.8674
-23.8309 94.6182 15.2601
-18.8067 84.4872 5.25027
-29.7565 95.8469 8.01384
-14.4975 81.2888 6.6139
-30.7918 95.865 6.46704
-28.5384 94.7602 8.51011
-25.0367 81.4 -9.8451
-27.2965 85.2791 -6.49192
-25.8031 93.6366 11.5846
-22.8072 78.496 -10.8363
-21.5818 91.1423 14.0834
-24.285 79.7958 -10.5514
-24.7405 80.2514 -10.4235
-30.3044 95.2882 7.70829
-20.4894 86.7829 8.66447
-26.3532 93.1996 11.5311
-31.25 94.0142 5.09557
-31.2591 93.9271 5.11305
-31.2954 93.7909 4.835
-22.8504 91.8259 15.157
-28.0909 84.9681 -5.63957
-27.0258 82.8329 -7.56518
-20.7791 85.9426 8.29797
-31.2932 91.2494 0.805407
-21.9074 89.0407 12.4906
-31.3355 90.2234 -0.71524
-31.3288 90.4529 0.136442
-24.6042 78.7154 -9.97735
-24.6076 78.6779 -9.96109
-29.44 93.4463 8.82068
-20.7672 84.4301 6.71536
-25.4023 79.261 -9.98208
-29.9966 86.9785 -3.50402
-28.4759 84.6866 -4.90698
-21.0247 85.04 7.92002
-26.6596 92.4544 12.1397
-21.9233 88.5073 12.8492
-27.9749 82.95 -6.9924
-23.7568 91.1821 14.9574
-29.7547 85.9498 -4.17233
-27.1694 92.2464 11.601
-29.617 93.0145 9.05041
-28.6195 83.7593 -5.51824
-30.0938 86.3555 -3.19771
-24.6786 77.8683 -9.6111
-27.4223 81.2108 -8.0486
-26.8591 80.1316 -8.97444
-20.9321 86.8756 12.9459
-21.626 88.2093 14.3132
-21.0812 84.16 8.19074
-31.6147 91.4084 4.99323
-31.6428 88.6372 0.19993
-26.8099 91.3119 12.9363
-30.4312 85.7781 -2.76003
-26.6096 78.5279 -9.14279
-31.3791 92.0194 7.53234
-26.6202 90.9226 13.3614
-21.8108 86.8892 13.9913
-21.4576 87.2911 15.5077
-21.4427 84.4236 10.4208
-21.6505 86.1984 13.287
-22.3369 86.4896 13.0804
-25.7443 90.0013 14.245
-31.9022 88.6114 1.84453
-28.5987 90.8043 11.291
-28.0045 90.5681 12.0849
-31.4538 91.0509 7.4826
-31.3736 91.0268 7.61681
-21.7597 86.392 15.0371
-26.8964 77.6712 -8.9034
-31.6808 90.7479 6.93002
-21.7184 85.7311 14.1205
-27.1096 78.2293 -7.92412
-21.4811 84.5816 12.7891
-24.0501 87.0591 13.3502
-30.825 84.3295 -2.38353
-21.1244 84.672 14.0464
-27.6722 89.4728 12.16
-20.9849 84.5098 14.1595
-30.1768 90.1704 9.45331
-20.7194 83.9412 13.9829
-20.6021 84.0144 14.3935
-21.414 85.2611 15.3418
-21.4148 85.1664 15.2023
-23.5497 85.7218 12.8848
-27.5756 79.3391 -4.62348
-28.9856 80.2892 -5.18153
-32.2469 87.733 2.98238
-28.857 80.2424 -4.87719
-26.121 88.0226 13.6234
-32.2947 88.1532 3.9286
-31.6657 89.1106 6.74245
-24.6258 86.2881 13.1799
-32.0341 86.5307 1.62222
-30.7299 89.0183 8.31997
-25.1104 86.6557 13.5104
-21.0429 84.2379 15.8164
