ply
format ascii 1.0
comment Created by Open3D
element vertex 1934
property double x
property double y
property double z
end_header
13.5774 95.0148 -13.3549
-32.0838 133.419 -1.17954
13.6344 78.9598 -5.67005
-28.8109 127.102 -0.273387
-14.0389 91.6987 6.77083
-16.9756 129.934 -9.47804
-15.8941 130.017 -10.2237
-20.4529 129.408 -6.8813
-27.3208 125.449 -0.378685
-6.87056 121.035 -11.9231
-29.7251 126.8 0.595978
-1.52666 120.854 -15.3914
-12.631 124.412 -9.67483
-2.15164 121.522 -15.281
-22.0108 98.5241 8.95598
-13.0761 92.4613 5.88889
8.49325 79.9234 -2.52801
-22.7026 133.007 -7.00803
-21.8182 131.313 -6.78791
-22.4696 128.677 -5.08059
12.2975 79.2343 -4.70786
9.01333 108.801 -16.5891
-24.9798 107.817 6.5853
-28.5609 134.095 -3.556
-21.6099 97.1009 9.45473
0.825012 85.1498 0.208181
3.50957 117.065 -16.7933
13.749 94.0136 -12.6292
3.82201 116.934 -16.9315
-13.6758 126.264 -9.68893
-21.6276 127.714 -5.0579
-24.6842 109.643 5.6109
7.55916 80.3524 -1.94087
-33.9895 129.355 2.44292
3.76823 117.048 -16.8894
-20.6848 95.1916 9.89672
-13.3803 92.6769 6.2255
-29.295 134.185 -2.92399
-18.0357 89.1757 11.0709
-26.0707 134.064 -4.95355
-0.873029 120.617 -15.3612
-19.3666 92.5328 10.3854
-15.2132 90.6919 8.49545
-10.3286 122.804 -10.0808
-25.0596 107.365 7.15079
7.10439 80.7671 -1.63359
-26.7184 134.246 -4.54523
-7.39828 89.0733 4.12858
-2.22411 122.199 -15.0894
-23.5706 102.271 8.66605
-27.0379 134.416 -4.32851
-17.8363 90.8231 10.3801
-12.5625 125.272 -9.55381
-16.5763 130.56 -9.38952
-17.37 130.782 -8.95771
-0.799323 86.9358 0.917778
-19.3378 92.8055 10.512
12.7943 79.7386 -4.67691
-26.0674 134.406 -4.80246
-31.0972 134.305 -1.38165
13.6381 79.7237 -5.19667
-14.9558 92.5192 7.80349
15.7434 79.6424 -6.54535
-23.5038 134.053 -6.24276
4.56715 83.4017 -0.790473
16.2227 80.425 -7.13991
-5.45766 87.7447 3.86238
-11.3501 93.8897 4.87353
13 79.9309 -4.70375
-2.12225 122.675 -14.9528
15.8355 80.1454 -6.62108
9.06225 110.071 -16.3483
-26.0313 123.653 0.622709
-19.1533 91.006 11.6303
-30.9286 134.968 -1.4431
-15.2234 92.7861 8.19895
-4.13345 123.014 -13.6179
2.57265 119.368 -16.3535
-12.3599 93.974 5.75081
14.0362 95.7463 -12.7118
15.1605 89.8047 -10.6263
-23.4202 102.847 8.91228
-26.3342 134.968 -4.44465
5.18927 117.31 -17.0627
-5.99033 88.3425 4.23734
-25.7222 125.484 -0.299918
4.36866 83.9162 -0.558405
-10.9518 94.3158 4.71029
12.0579 105.295 -15.885
-7.76607 89.9357 4.69079
-4.32815 87.4539 3.58728
-18.8218 131.174 -7.57674
11.5654 106.818 -16.2198
-9.25322 91.4804 5.03107
-20.0193 130.521 -6.39388
11.2224 107.525 -16.271
10.7685 108.224 -16.2571
-10.7975 125.152 -9.92591
4.84915 117.98 -16.9179
-25.6778 122.132 1.50418
16.3765 81.5043 -7.18269
8.94634 111.879 -16.6805
14.0344 97.0185 -12.9559
-21.0261 130.692 -5.5971
-25.6895 124.495 0.482533
-21.039 130.71 -5.57734
6.58615 115.825 -16.9145
-0.0921701 121.66 -15.2219
-9.50824 123.965 -10.0187
1.31666 86.326 0.733796
-23.4551 103.727 8.98068
-7.29978 89.843 4.82281
-28.932 127.423 1.36838
6.82236 82.7349 -1.17995
-9.56874 94.7231 4.0517
-22.1518 130.496 -4.52485
-8.7087 90.3404 5.66863
-16.9382 91.7287 10.5238
-28.5319 128.138 0.910524
0.150159 121.808 -15.2067
-24.1375 115.793 3.90347
-6.5959 89.4244 4.79548
-6.22553 122.702 -11.3187
-8.31873 90.4754 5.45337
6.88543 83.0469 -1.1285
-26.7899 126.65 0.580798
12.8754 101.172 -13.7102
15.6541 89.6203 -10.0545
-28.257 127.021 1.44354
-5.55656 88.8056 4.54277
-19.2049 93.8534 11.2936
-24.6535 110.82 6.8428
-1.6436 123.586 -14.6033
-8.8764 90.549 6.02861
-24.5618 114.499 5.08716
8.07322 114.6 -16.7349
15.3748 90.7605 -10.2268
-25.9879 136.17 -4.2677
-24.1569 119.055 2.67416
11.2662 108.54 -15.9527
0.812004 121.906 -15.3308
-24.6429 110.859 6.93227
8.04012 82.259 -1.2366
-10.1086 95.7034 4.48261
-28.7329 127.375 1.84594
-20.8343 130.025 -4.68127
-30.0881 136.497 -1.58698
16.0385 88.039 -9.26344
-23.4314 118.392 2.61242
14.0423 81.4058 -4.76458
5.28096 118.296 -16.4554
-22.9119 134.949 -5.57312
14.9104 92.6957 -10.6482
-0.0682895 122.751 -14.9782
-12.8283 94.6756 6.93505
-26.897 127.136 0.861606
14.8297 93.1067 -10.752
-6.11372 89.476 4.97453
14.5734 94.2021 -11.0862
-23.4948 105.099 9.13367
14.8256 93.2117 -10.7518
16.7099 84.1733 -7.68702
-22.2894 134.602 -5.68752
-23.763 118.857 2.81538
14.5551 81.4663 -4.9293
-8.8188 95.7042 3.89362
14.1878 97.819 -12.4492
3.69693 85.8345 0.273423
-9.36027 125.082 -9.7145
10.1905 82.3385 -2.37079
-11.9284 95.4463 6.15768
13.9928 98.674 -12.6713
10.2906 110.366 -15.759
-4.14152 124.047 -12.6333
-12.5188 95.0771 6.78746
-28.2949 128.555 1.37462
-10.793 127.253 -9.67486
-31.2281 129.623 2.9299
-21.4314 130.896 -4.20205
4.86608 119.326 -16.2293
-26.0886 137.61 -4.27984
-6.54439 92.9518 3.98813
-8.20695 95.8051 3.73989
-23.1734 104.751 9.46879
-8.40003 95.9761 3.79558
16.5008 83.9567 -7.05184
-15.3068 94.8972 8.97447
-18.3488 133.695 -7.45048
-6.92547 94.7202 3.53003
12.6106 103.816 -13.8442
-10.0332 126.496 -9.54312
-24.5575 114.273 5.98836
12.688 104.569 -14.249
16.3015 83.4627 -6.59007
5.34121 85.3949 -0.175403
9.87988 82.8166 -1.94219
-21.066 131.885 -4.66171
-25.6886 138.146 -4.55287
16.1722 88.4808 -8.78861
16.2124 87.6235 -8.40246
-29.6526 128.956 2.51204
-30.9779 137.219 -0.536998
13.0515 101.322 -12.8028
-15.2513 134.322 -9.60957
10.6374 111.179 -15.8286
-28.1501 129.104 1.52447
-23.3948 118.076 3.63972
-20.4153 132.684 -5.30219
-19.2653 95.7769 11.5334
-21.4757 101.392 10.3428
16.2023 88.6167 -8.68849
-23.2303 118.58 3.36883
-21.32 101.008 10.4832
-10.7497 127.968 -9.40486
-26.8879 137.03 -2.94786
1.99394 121.733 -14.9157
16.0024 89.9435 -9.10418
2.51395 87.5671 1.05619
-22.0822 103.236 10.0137
-26.5911 137.344 -3.23798
15.099 93.7947 -10.2722
16.2093 88.5913 -8.52728
-29.8712 137.464 -1.06432
-6.50231 90.7522 5.65317
-20.1386 98.0485 11.2983
12.7161 104.58 -13.7472
-11.6933 96.5894 6.38807
14.4458 98.2039 -11.817
-11.0585 128.79 -9.3437
-15.0116 134.595 -9.4409
-5.54165 93.1621 4.00356
-25.1671 126.741 1.13406
-22.8524 137.856 -5.68083
-12.2184 131.038 -9.51333
13.8204 100.001 -12.0632
-13.051 95.691 7.93277
-15.0382 134.656 -9.30806
-27.7811 128.742 2.03414
5.51629 119.379 -15.7103
15.0954 94.4709 -10.2133
12.811 102.286 -12.3985
-25.1073 126.888 1.19625
-5.11843 124.574 -11.0405
-27.7821 128.592 2.2366
-30.8578 131.911 2.70709
-16.6831 95.4578 10.6346
12.2227 109.532 -15.3663
-24.3831 111.945 7.9323
-27.11 137.551 -2.45854
0.506834 123.703 -14.2826
9.17341 83.7011 -0.981129
-9.32634 126.756 -9.13742
-14.9435 134.784 -9.20447
15.5208 83.9657 -5.30296
-16.6964 95.5123 10.7121
-21.359 136.812 -5.85427
-12.2394 132.712 -9.9808
-12.6659 134.5 -10.5199
-28.6346 137.848 -1.43002
-16.0763 95.7776 10.2645
-31.3265 137.656 0.483167
-12.6559 96.2649 7.77595
10.8558 113.189 -15.9414
-19.852 99.5647 11.0933
-17.5715 134.362 -6.96449
-8.96889 126.656 -9.02909
5.90505 119.295 -15.4288
-30.6856 133.958 2.00997
-28.4928 128.935 2.95629
5.88581 119.379 -15.4228
7.97006 85.21 -0.504874
7.93707 116.27 -15.2749
-4.07033 90.0563 5.24478
11.5022 112.455 -15.8277
-0.372656 125.155 -13.9128
4.85164 87.528 0.610581
6.0294 86.8029 0.190578
-16.5706 95.8739 10.9685
-14.4056 96.3317 9.30567
-7.8406 98.8861 3.71138
-25.4965 127.387 1.92358
-11.5723 97.9465 6.67104
-18.9318 98.9921 11.1103
-1.33784 89.6382 3.84093
-18.5125 96.5186 12.0534
-3.30561 89.9259 5.04617
-9.92711 99.2444 5.0516
12.8554 107.851 -14.262
-19.5412 100.274 10.9888
-24.1908 113.405 7.85849
14.9303 97.1473 -10.4966
10.5027 114.36 -15.7241
-23.1584 118.893 4.59763
0.939753 123.996 -13.8784
-23.7552 115.731 6.54971
-29.1688 130.667 3.05942
11.7546 112.612 -15.6434
-7.91746 99.3917 3.80452
-18.0539 97.5096 11.4848
12.4202 84.387 -2.58094
9.53834 84.738 -0.818719
15.5183 86.1754 -5.4853
-13.5638 96.644 8.96131
-15.907 96.3193 10.6848
-12.1086 97.7441 7.48058
9.72782 84.6899 -0.854788
-11.5572 133.078 -9.71267
13.0316 106.095 -13.1947
-12.1247 135.054 -10.1869
-29.1217 133.019 2.13401
-16.3818 96.2538 11.1696
-28.6529 130.341 3.15288
-13.8284 96.7674 9.31259
11.0982 113.83 -15.418
6.76625 87.1132 0.227762
-29.7755 138.692 0.0436086
-3.65085 92.0153 4.87904
-10.8815 99.1897 6.28704
-22.8288 139.044 -4.70532
-15.8773 96.5509 10.9359
15.9296 87.2894 -5.87257
-25.5793 128.365 2.25493
-19.8237 134.92 -4.7011
-8.99449 128.176 -8.70174
15.9243 87.3434 -5.80456
-22.9849 118.673 5.23662
13.8904 100.385 -10.6573
6.54811 119.777 -14.9994
12.9432 105.247 -12.3272
-12.4247 98.0253 8.08284
-20.3774 104.777 10.1743
-20.8423 105.576 10.1213
-27.1436 129.965 2.70478
9.02764 85.9281 -0.421884
-27.321 129.803 2.92805
13.2118 102.108 -10.9225
14.5828 99.1092 -10.3785
12.6649 84.9769 -2.35536
6.81506 87.4624 0.37202
-11.1261 133.46 -9.52127
-25.9735 128.746 2.69117
-6.16545 126.189 -9.30115
2.49254 123.071 -13.5897
-24.4764 129.044 1.56897
-10.3161 131.549 -9.07194
-18.0297 100.174 11.0558
15.2534 97.4588 -9.86425
-16.1886 97.0823 11.3376
14.5784 85.5911 -3.71946
12.9807 109.249 -13.8646
-17.3402 99.4993 11.0382
-8.2428 101.013 4.25657
6.40196 120.872 -14.9416
-0.963679 90.4824 4.48834
-9.26011 100.484 5.2666
3.15241 122.641 -13.5788
-23.0499 119.771 5.29208
-28.4203 134.856 1.70953
12.6104 111.592 -14.5791
-25.4436 128.817 2.62048
-16.1651 97.8274 11.2319
-30.0184 139.231 0.809383
-8.86032 101.047 4.90069
-3.42067 126.919 -11.0683
-9.43074 130.625 -8.82078
-12.8928 98.1904 8.9827
-3.05693 94.407 4.22484
-22.3068 109.984 9.65132
-28.656 136.402 1.31047
-23.2392 118.707 6.16881
-3.21785 96.8422 3.23266
-26.4659 130.351 2.79802
-15.9232 97.8826 11.2462
13.2387 85.601 -2.35764
15.7825 87.666 -5.02661
-19.9578 106.925 9.64959
12.5939 112.845 -14.8711
-27.4401 130.049 3.69029
-16.189 136.587 -6.93719
-19.1902 136.654 -4.95218
-23.9268 124.039 4.29408
-16.8694 99.9726 11.0647
8.14903 118.594 -14.5146
-22.9332 119.943 5.5956
12.08 85.6829 -1.4387
9.05579 118.818 -15.1811
14.6246 99.3989 -9.5833
-18.7897 136.358 -4.89939
-11.3172 136.141 -9.76666
1.90869 124.615 -13.0814
3.25909 123.224 -13.3115
-29.1263 138.007 1.26077
-23.5932 117.609 7.2972
-18.2134 105.951 9.2692
-23.3064 118.93 6.50701
15.5837 97.1072 -9.04687
15.2007 87.2824 -4.09555
-24.2342 122.582 5.41558
-26.1359 130.302 3.01288
-23.7011 125.149 3.85679
-23.6716 115.737 8.32779
-12.4579 99.2471 8.70919
12.8226 110.816 -13.6597
-2.62878 96.7661 3.38011
16.1501 93.0317 -7.35709
12.946 109.659 -13.1083
8.19885 119.202 -14.4297
-9.16178 101.335 5.70156
-17.3977 103.3 10.2669
-23.5875 116.787 7.97964
-13.4768 98.4754 9.96625
-15.4857 98.9278 11.1066
-24.1838 129.56 2.31748
5.04798 122.586 -13.8714
-27.9959 140.647 -0.383664
-14.0884 98.5346 10.4344
-23.6955 128.828 2.46712
-11.0043 136.764 -9.78196
-17.9743 107.014 9.09
-14.2106 138.32 -8.29548
-22.6481 140.055 -3.48947
-9.12181 101.6 5.82132
-3.14991 100.917 2.17902
-23.6546 127.797 3.05559
-16.8345 102.6 10.5293
16.2059 92.6603 -6.77648
-19.13 108.728 9.16828
13.4352 86.5451 -1.99216
7.83199 120.329 -14.3627
6.54935 89.0935 1.40088
-5.55608 127.736 -8.92933
-10.3126 134.801 -9.09798
-2.94922 100.7 2.25806
12.8532 112.662 -13.9756
15.1364 98.6117 -8.78246
-18.7305 136.946 -4.4445
13.3772 103.757 -9.95116
-22.9702 114.692 9.10245
-1.71936 128.581 -11.6724
-23.4302 140.399 -2.8095
4.84431 90.351 2.1919
-10.6686 137.097 -9.74573
3.00003 124.688 -12.9085
-23.5369 124.114 5.09332
-8.63491 102.477 5.48725
15.9434 89.6236 -4.78579
12.9261 108.31 -11.6439
-6.20917 128.435 -8.44487
15.689 89.288 -4.38932
-17.477 107.704 8.9874
15.9414 96.3075 -7.87903
-3.19139 102.214 2.08675
-17.6481 139.969 -6.21096
-1.97925 99.3718 2.70094
8.54566 122.532 -15.366
9.12321 120.723 -14.8649
7.74053 123.816 -15.406
-14.0474 139.051 -8.12563
-9.62002 101.717 6.72591
-2.55917 128.762 -10.8687
-22.6603 115.314 8.99444
7.45483 124.294 -15.3894
8.931 122.53 -15.5004
13.4712 104.018 -9.70094
11.2737 87.4448 -0.324979
-13.4978 138.923 -8.30291
-17.8905 108.595 9.0938
-23.1612 116.649 8.78221
6.21386 125.273 -14.931
-16.1027 104.112 10.0679
-1.52118 95.1664 4.62166
15.6379 97.8099 -8.07483
6.40603 124.798 -14.7501
13.1999 105.57 -10.0797
-17.9882 108.967 9.13312
3.4628 91.5939 3.12479
-20.2225 140.243 -4.25382
5.93706 123.708 -13.825
-27.9124 141.853 0.139087
-20.5885 140.412 -4.05468
-13.8061 100.526 10.4589
13.0545 110.464 -12.1916
-15.973 106.133 9.26036
7.12453 123.56 -14.4561
12.7318 115.982 -14.5787
-16.8118 140.408 -6.49898
7.73071 124.844 -15.445
-14.2765 100.984 10.6517
-10.1904 102.059 7.47615
-15.0609 105.268 9.20802
-1.18241 97.4224 3.70947
5.73565 125.999 -14.5072
-21.5201 113.968 9.42733
-11.5562 101.12 8.9299
-21.6232 114.432 9.30359
-0.861365 93.6302 5.37353
-14.7594 139.928 -7.4187
-4.49756 128.888 -8.99568
5.48056 126.098 -14.3197
8.0745 124.919 -15.4514
-1.23975 129.493 -11.4131
-23.2439 123.147 6.31618
-21.5208 114.559 9.28634
15.9074 90.6652 -4.28262
-20.5005 140.789 -3.87524
-17.8333 109.762 9.19305
9.67138 88.7822 0.837504
11.8564 88.2134 -0.335978
-21.9849 115.977 9.01808
-4.88949 129.189 -8.65763
-5.1242 129.266 -8.52124
1.18089 127.741 -11.9953
-22.3451 129.639 2.80719
-11.8303 101.205 9.40113
-14.1845 103.424 9.93966
1.00701 128.047 -11.9406
16.192 95.6632 -6.63118
-27.7403 142.201 0.517268
13.0918 107.42 -10.1466
-19.8027 112.292 9.49432
13.092 107.567 -10.1948
-16.8847 109.186 9.07297
-16.3806 108.702 8.99486
13.2009 106.262 -9.5723
-3.0787 129.658 -9.85785
10.789 88.8569 0.393625
-21.7275 141.289 -2.90029
-14.5017 140.701 -7.43231
-15.7798 108.212 8.93244
-0.0906177 93.8065 5.38692
6.91292 126.61 -14.9203
-3.59007 105.536 2.14318
-1.95209 103.65 1.95917
-23.1283 142.271 -2.28872
-5.64749 129.89 -8.04926
-18.2049 139.252 -4.1093
-14.6986 106.212 9.31382
-22.2475 141.657 -2.52346
11.9514 88.8797 -0.180743
-0.541422 97.2107 4.19144
-0.45143 98.1014 3.71688
-18.5515 139.427 -3.88582
-14.298 140.907 -7.42739
-13.0566 140.51 -8.03553
-15.4294 107.972 9.07273
14.8899 90.7099 -2.91787
-10.5138 139.702 -9.3135
-14.1874 105.55 9.43476
-16.3029 109.387 9.04313
4.52207 126.676 -13.0939
10.8602 119.934 -14.106
10.6526 119.054 -13.542
-13.059 140.677 -8.00728
-1.19771 102.592 2.25823
1.50169 128.032 -11.6711
3.51209 126.267 -12.1637
-21.5381 129.333 3.10091
7.69262 126.679 -15.1206
4.21471 126.465 -12.6632
-22.7753 122.337 7.35274
4.32947 126.677 -12.8122
-18.2102 112.324 9.09665
12.7757 115.872 -13.2777
-22.6831 142.477 -2.28664
-16.7389 110.236 9.12762
-13.5831 105.043 9.50178
-22.8486 121.051 8.05469
-22.3428 118.843 8.78445
-21.9817 117.31 9.27513
10.1096 89.7545 0.994555
-15.993 109.459 9.02446
-25.5699 131.627 4.85786
-16.5412 110.102 9.11866
-11.1378 102.64 9.07843
-25.0457 143.154 -0.912539
-20.5766 141.778 -3.23394
-6.47899 105.503 4.65802
10.7701 122.576 -14.9977
-10.4699 102.986 8.52946
-21.2284 116.617 9.22467
15.4798 91.6212 -3.35722
-26.633 138.408 2.47422
-11.8016 102.411 9.75387
0.371772 94.3986 5.44985
-18.7832 140.543 -3.73357
-14.8042 107.679 9.29376
1.47249 128.549 -11.5208
-1.06162 103.557 2.13254
-8.32154 135.429 -8.20273
-4.26666 107.387 2.478
-23.8724 132.316 3.68355
-14.5169 107.311 9.38064
1.09948 93.9192 5.34545
0.00567012 95.3693 5.39655
13.374 113.754 -12.2896
-24.2704 131.907 4.19563
-22.4419 120.268 8.53011
-2.31437 130.887 -9.96569
-24.2364 131.725 4.2832
-19.6679 114.052 9.68382
0.399362 129.883 -11.2174
-21.2767 128.533 3.9479
7.89253 127.432 -14.9976
14.8105 102.86 -7.88938
-20.7793 130.089 2.97653
-15.4295 142.104 -6.3148
15.5463 99.7399 -6.7838
-19.9982 115.59 9.39308
-21.8244 131.341 3.1484
13.4281 107.308 -8.89417
-11.6079 103.323 9.74149
-7.67102 104.736 6.45212
16.0778 95.6662 -5.07344
13.9304 111.452 -11.1669
-21.0941 117.446 9.35787
-24.7795 132.098 4.83981
13.4844 107.502 -8.94402
-21.3285 142.572 -2.4046
-3.08969 131.222 -9.16486
16.0583 98.2514 -6.22062
16.0661 95.6753 -4.99714
5.46031 128.787 -13.7078
-26.4463 143.828 0.434525
9.53049 91.3402 1.50299
-21.7087 118.653 9.33732
0.27256 102.23 2.49653
13.1009 90.7379 -0.544551
14.3867 91.5866 -1.80145
1.7096 129.041 -11.1965
10.0344 124.815 -14.7324
-3.14806 108.176 2.02515
-4.53255 108.243 2.94292
-21.8156 143.258 -2.2146
-23.3867 132.942 3.75434
-19.4448 115.174 9.6071
8.72013 92.1549 1.78673
-8.48663 104.392 7.44304
-27.4486 141.186 2.61799
-23.4551 144.495 -1.61512
-0.951405 105.696 1.87504
-14.0262 107.923 9.57445
-7.92835 137.179 -8.40553
8.33935 128.004 -14.8821
-16.5062 142.621 -5.25649
-22.7985 132.951 3.58963
-25.9755 144.178 0.394095
-11.224 104.454 9.50414
-22.3404 131.261 4.17988
-16.7335 113.123 9.10384
5.44188 94.1756 3.34992
0.904012 98.9796 4.09932
-24.2389 136.401 3.04286
-16.3687 143.255 -5.4797
-21.8628 120.618 9.01219
-22.0671 125.365 6.8973
8.40686 92.992 1.99985
-0.0799384 104.72 2.0796
-5.70929 132.486 -7.333
11.0769 119.83 -12.4902
-4.88 131.668 -7.47316
15.7509 94.4682 -3.48027
10.6064 124.576 -14.3819
15.8645 95.2298 -3.77698
5.05814 130.078 -13.174
7.51109 129.231 -14.4051
11.3578 121.307 -13.1929
-10.5401 105.756 8.9042
-19.146 116.271 9.64356
-2.5666 132.273 -9.04186
-5.498 108.521 4.2605
6.51423 94.5306 2.92412
-21.4194 144.101 -2.06847
-8.0568 105.233 7.56017
-20.7812 119.364 9.32811
-20.2961 127.891 4.93819
-4.50306 132.115 -7.61008
11.8363 115.08 -10.3932
-18.8589 142.515 -2.97425
11.4972 122.255 -13.5693
-16.4123 113.556 9.21543
-0.559508 131.995 -10.143
10.4628 92.3392 1.42345
8.55434 128.811 -14.6817
-4.83597 109.481 3.48013
-16.562 113.944 9.18191
-11.8746 107.722 9.04638
-9.73276 106.168 8.36867
14.062 112.633 -10.593
13.7371 106.748 -7.56747
10.9598 117.926 -11.024
-10.8531 107.042 8.73517
-1.77424 109.373 1.57143
-3.31159 132.474 -8.41558
15.446 94.2152 -2.67148
-21.9717 133.178 3.74386
-1.35204 132.321 -9.58163
10.7082 118.289 -10.9326
-19.8845 128.094 4.83742
14.9482 93.5298 -1.91631
-8.02649 138.94 -8.21884
-0.902218 108.507 1.56356
-3.89581 110.137 2.78726
10.3901 127.057 -14.8188
11.5876 122.816 -13.5907
11.4545 116.606 -10.5379
2.81831 129.702 -10.9673
-9.36988 141.712 -8.54786
-1.54114 132.504 -9.37364
-14.302 110.977 9.41919
-7.92558 139.008 -8.1753
12.3415 92.4272 0.514031
8.25008 129.581 -14.4552
-23.0285 136.33 3.22825
8.71757 129.234 -14.5655
-23.2706 145.648 -1.01063
-19.7443 130.811 3.74331
14.2211 93.1843 -0.979501
-20.4029 120.342 9.20847
10.8454 119.38 -11.1808
2.06572 100.874 3.55577
-4.75912 132.773 -7.08008
7.46418 95.0275 2.7702
-4.80377 110.294 3.70327
15.7268 96.3215 -3.32991
1.75971 103.956 2.36542
-26.2262 143.962 2.03434
-1.54 132.808 -9.07453
13.6137 113.597 -9.99362
-24.2189 138.935 3.18015
-7.29779 138.762 -8.01136
-6.29209 107.799 6.10225
-24.1583 138.91 3.19457
8.78576 94.8071 2.24571
-19.5394 119.983 9.15882
14.0568 94.0003 -0.87832
-20.1462 120.827 9.19721
10.9289 125.811 -13.8832
4.67929 131.937 -12.5916
1.52461 105.774 2.03324
-21.5462 134.402 3.83795
3.80897 131.065 -11.4968
-13.8886 111.61 9.60914
-12.182 143.765 -6.82991
13.8885 113.303 -9.70007
10.8444 118.064 -9.93774
2.67774 98.2594 5.01952
-20.939 124.102 8.46559
-0.262551 109.892 1.44865
-18.4238 143.631 -2.4441
-5.87738 135.838 -7.08287
-10.0478 143.62 -8.00838
15.6571 101.193 -4.93189
15.7511 98.9339 -3.91632
-24.1118 145.89 0.308168
-5.93369 136.066 -7.12612
-13.018 144.517 -6.39759
-13.3555 111.11 9.76486
-23.2741 138.349 3.40046
-25.7472 141.19 3.69932
-11.8117 109.491 9.53292
-13.7217 144.916 -6.08675
-16.9764 143.361 -3.15902
2.86739 101.4 3.62146
-6.8223 108.153 6.87085
14.7453 110.106 -8.4331
10.1637 123.026 -11.5349
14.1751 106.91 -6.51237
3.74192 131.9 -11.4549
9.51452 130.024 -14.3614
14.6576 112.427 -9.40121
-7.06731 108.105 7.17193
9.65366 129.937 -14.3894
-13.0898 111.055 9.83606
1.40914 107.595 1.81032
-0.696925 133.258 -9.0149
10.4897 120.429 -10.3604
-18.2183 143.96 -2.41206
2.8179 100.199 4.41591
10.3334 94.5873 2.07551
-23.7478 146.311 0.159906
-22.4153 136.571 3.91746
-24.1802 145.974 0.651582
14.2224 106.287 -6.05173
10.5058 120.321 -10.2477
-1.35103 112.117 1.59341
-9.93896 144.118 -7.93546
-24.6499 140.41 3.66939
-19.5206 128.322 6.01562
15.2331 96.6176 -2.05251
7.27087 95.9815 3.60421
-9.11793 108.51 8.57615
14.1148 123.747 -14.1856
-24.6556 140.481 3.71679
-9.45642 108.759 8.7295
-8.73249 142.895 -7.99877
15.5443 101.816 -4.60084
2.52131 105.905 2.15336
-12.3683 110.881 9.73094
-18.7947 130.67 4.59648
-11.8756 110.466 9.64801
-25.5712 144.26 2.67719
15.0749 97.7049 -2.25253
-19.8605 122.812 9.1154
13.9185 123.287 -13.6567
-3.80663 133.906 -6.88343
5.61471 132.426 -12.4669
14.8001 109.721 -7.76925
-15.0825 145.312 -4.76976
-5.99876 138.624 -7.62935
10.6843 129.495 -14.3855
-0.309394 133.579 -8.94776
-5.82257 138.248 -7.47704
-11.9456 110.911 9.68269
10.0755 124.48 -11.4611
-7.49127 108.592 7.86496
13.2761 95.6394 0.196207
14.9766 96.637 -1.38537
-25.0723 141.711 3.90729
-4.94014 111.362 4.96966
-5.38158 136.626 -6.78178
-0.645791 112.977 1.36281
-8.87195 143.675 -7.78541
13.2805 95.7912 0.287806
13.8051 113.386 -8.44583
-11.6048 145.771 -6.91554
-19.8571 123.66 9.14357
-21.1162 147.128 -1.20311
2.59722 132.922 -10.2572
-9.95492 110.013 9.05249
4.54628 98.4526 4.91058
12.3688 114.855 -8.12812
-18.5724 129.666 5.49107
11.7995 95.5787 1.48212
15.5102 102.8 -4.42968
-25.0751 144.01 3.02521
13.5943 96.1229 0.0579877
3.73882 103.629 3.06084
1.94315 133.338 -9.88626
13.1448 120.294 -11.1225
-8.39195 109.554 8.385
15.901 121.895 -13.7178
15.1524 111.095 -8.04949
14.5804 107.076 -5.74233
-2.73279 113.72 2.65669
-21.06 147.317 -1.1171
11.1033 120.811 -9.94265
-17.7327 120.718 9.37491
-9.23762 144.753 -7.73866
-17.7796 145.223 -2.25446
11.3026 122.32 -10.7441
15.3263 102.271 -3.85244
8.74359 96.407 3.3396
-16.4722 118.578 9.61157
11.2225 120.885 -9.91496
-16.7743 119.008 9.71195
-11.5317 111.718 9.71348
0.846019 134.362 -9.34736
-6.97703 141.503 -7.52549
-4.8947 111.843 5.23182
11.95 119.223 -9.52067
14.492 123.361 -13.1889
-13.6621 115.535 9.36241
11.8172 119.654 -9.60347
-21.7951 147.536 -0.432858
15.1621 101.209 -2.99501
15.1359 101.145 -2.94062
8.90046 132.343 -13.6374
-9.19141 145.188 -7.68407
11.9219 96.5312 1.43377
-2.25338 114.353 2.39886
-16.2927 145.798 -3.22511
11.5555 120.512 -9.7426
13.4955 96.4895 0.43411
-7.39487 109.921 7.97931
8.60344 96.8455 3.54268
2.24422 109.663 1.67943
14.9883 111.954 -7.91354
11.8392 115.306 -7.38937
-21.9706 137.606 4.56618
-3.42259 135.114 -6.61589
11.0085 129.748 -13.6819
13.9708 122.386 -12.0976
-3.14923 114.24 3.21884
7.52559 97.9079 3.8909
12.8338 125.212 -12.6726
-9.08784 145.363 -7.64641
13.2426 120.569 -10.7205
16.7248 121.668 -13.5441
-13.8657 116.346 9.41742
-5.64399 110.935 6.55082
15.3613 102.635 -3.48295
-17.7937 122.784 9.08163
-11.273 146.931 -6.7798
-19.288 127.455 7.87857
10.2482 125.737 -11.0074
3.89746 106.774 2.29496
-8.41316 144.738 -7.58804
-3.64344 114.342 3.73392
1.72434 111.979 1.31442
-9.61176 146.059 -7.3659
-3.94009 136.288 -6.48223
3.88979 106.995 2.27304
15.4104 104.443 -4.2
11.7102 122.059 -10.0717
4.96777 100.015 4.99008
-22.2 138.947 4.56478
14.9962 108.013 -5.50597
14.8501 105.555 -4.23373
-8.44979 111.394 8.53832
-10.6493 146.952 -6.94294
-19.2166 134.971 4.53437
-17.1872 122.409 9.20216
12.3999 116.17 -7.53571
-2.21945 115.744 2.43322
-6.73034 111.048 7.68447
-21.8914 138.933 4.51512
4.50441 105.638 2.82567
7.7947 98.8018 3.89983
0.376073 134.902 -8.36396
-2.53503 135.543 -6.72555
11.7402 122.155 -9.87029
11.4317 123.248 -10.1686
-23.7029 144.567 3.13038
11.9651 97.7473 1.67459
4.75799 104.034 3.51583
10.8195 126.001 -11.0005
16.468 122.789 -13.2369
-2.54904 115.873 2.75793
15.9669 123.609 -13.2498
7.65336 133.725 -12.5009
-21.4868 138.862 4.52067
1.91102 112.993 1.24439
-21.4674 138.976 4.49524
14.3736 119.22 -10.0029
8.32645 133.426 -12.7356
7.42295 99.4741 4.09044
-5.59335 140.955 -6.99954
4.82893 103.557 3.89197
-18.575 134.801 4.62917
12.8082 119.552 -9.03221
-19.1323 147.644 -1.10591
15.5143 103.402 -3.13016
13.3802 121.37 -10.2673
-4.09716 137.398 -6.24248
-20.8455 148.449 -0.326943
-2.84742 115.973 3.1681
12.3798 123.998 -10.7966
11.627 122.567 -9.60724
5.39813 101.05 4.8256
-12.105 115.667 9.55422
13.062 113.98 -6.42707
10.6081 132.313 -13.5276
14.5477 119.046 -9.81437
-20.1445 148.391 -0.642667
-7.15836 144.298 -7.32396
11.8793 125.153 -10.8561
2.01361 135.355 -9.07637
-14.2772 147.623 -4.02904
-10.3446 147.98 -6.81994
15.367 102.75 -2.37958
-21.9833 148.408 0.7834
11.8306 124.421 -10.3496
-4.06246 114.625 4.94096
-20.7778 138.41 4.75926
-3.19013 115.928 3.75626
-6.18948 142.974 -7.12019
17.2327 121.843 -12.6113
-10.8652 148.572 -6.58776
2.96058 112.485 1.41986
-17.3319 133.739 4.85317
-22.0933 141.128 4.52391
12.0773 125.752 -10.9409
12.4205 121.467 -9.08252
7.67138 100.09 4.29758
-16.0965 123.45 9.06789
10.255 98.7166 3.3054
15.567 103.547 -2.52365
13.2365 120.024 -8.8053
-3.64161 115.675 4.54197
14.6277 100.119 -0.233704
-22.1744 141.671 4.52543
11.2959 126.147 -10.4104
-5.01576 141.281 -6.73184
5.66004 104.032 3.90727
-3.29379 137.701 -6.13811
-7.95393 113.05 8.74037
-7.77683 113.075 8.65413
4.46745 109.59 2.15024
-23.172 145.401 3.55495
11.1538 132.463 -13.1883
14.9418 100.75 -0.581461
-17.4992 126.521 8.78924
11.2157 124.755 -9.52849
-18.7185 137.16 4.57882
-16.4582 129.64 6.68079
13.6164 117.21 -7.46429
-10.5158 148.99 -6.50465
4.96785 108.189 2.62673
-16.8558 130.325 6.64748
-19.7467 148.869 -0.26391
-17.7796 135.338 4.88253
-17.2336 130.94 6.61882
13.0505 113.918 -5.47984
-20.5984 140.153 4.47499
15.0036 101.442 -0.809647
-22.029 143.171 4.02413
15.5001 110.678 -5.50354
-23.1118 145.667 3.5898
11.4848 131.628 -12.7627
-7.72755 146.608 -7.06583
-15.5873 124.25 8.86499
-5.7725 143.548 -6.8818
4.02774 137.139 -10.3521
-7.32289 113.542 8.50678
13.0178 115.499 -5.94933
13.1229 115.639 -6.0673
-5.01908 114.02 6.82408
-1.34516 118.418 2.29843
15.791 125.261 -12.4046
12.0442 99.5649 2.38692
-13.7753 119.923 9.95325
-0.623796 136.887 -6.90836
-19.7497 138.464 5.11225
13.8393 121.116 -9.00055
11.8529 126.803 -10.3848
13.3354 127.053 -11.4825
12.724 122.937 -9.09995
-14.0556 149.19 -3.73118
10.5646 125.12 -8.68758
6.27229 103.339 4.56722
-15.005 123.787 9.0207
-8.01046 147.593 -6.9944
-16.3527 147.937 -1.53793
-16.2278 133.785 5.20525
-0.627036 137.192 -6.81782
-16.823 128.567 8.1129
14.025 121.292 -9.01121
-14.826 123.89 9.01841
-8.63442 114.796 9.23934
4.5671 111.998 1.76488
-14.6043 123.087 9.27967
11.0355 127.738 -10.0477
-3.14257 117.157 4.47086
-16.5357 132.239 6.26757
6.01589 106.034 3.71638
11.1892 127.508 -9.97816
16.4463 124.786 -12.1794
-21.2614 143.379 4.17176
-4.0573 115.952 5.78667
0.166252 118.98 1.52762
12.1471 125.202 -9.43668
5.66904 106.815 3.67208
14.3525 126.724 -11.5742
-16.6274 135.082 5.12422
14.0751 112.914 -4.77884
15.1862 111.887 -5.02851
-13.9469 149.702 -3.59158
10.9469 126.793 -9.2812
10.2943 128.661 -9.67721
-9.30921 115.85 9.55356
-18.3965 138.458 4.86011
-20.0743 141.529 4.54092
11.855 128.123 -10.3399
-14.2087 123.735 9.15523
4.29562 113.816 1.54638
15.3081 107.445 -2.75515
11.539 130.253 -11.1128
12.5404 123.988 -8.78962
-21.8667 148.548 2.46809
-15.989 149.17 -1.74942
13.8516 119.84 -7.66488
-1.47108 119.304 2.83353
15.7204 125.947 -11.805
6.53348 105.784 3.9463
-14.2494 149.906 -3.21881
-4.79292 115.363 6.96774
-12.8661 121.075 9.65011
11.2964 128.82 -10.1692
0.595628 137.222 -7.03158
-19.5088 149.73 0.428981
6.40966 106.096 3.94039
-8.55861 115.805 9.30884
13.7028 102.749 0.674663
16.8937 124.643 -11.88
14.2049 116.876 -6.37768
12.1766 125.956 -9.35001
7.47787 102.343 5.0672
9.61665 101.095 4.23623
12.1102 123.235 -7.98583
12.811 127.896 -10.6724
14.9942 119.587 -8.15329
5.81232 108.927 3.07532
-18.8208 149.476 0.22438
11.5078 128.971 -10.2211
-15.7255 133.547 5.80702
-16.0463 127.835 8.80533
11.8166 123.453 -7.69911
15.5173 109.049 -3.29536
-21.8644 148.359 2.92219
15.6089 110.702 -4.13232
8.55274 101.804 4.82424
15.9152 119.516 -8.52592
10.4986 101.175 3.84709
-11.0262 119.416 9.53476
-18.4544 149.447 0.200546
-15.4206 126.64 9.05265
-7.37672 115.853 8.84872
-15.8863 135.911 4.98238
-10.5443 118.952 9.54024
-1.59023 119.923 3.13019
13.4598 103.186 1.08005
-15.2162 126.647 9.06625
14.3433 103.97 0.153399
-11.3047 120.868 9.2325
8.30005 136.425 -11.2658
12.9756 102.314 1.89775
9.83551 125.303 -6.96013
4.8117 114.511 1.58958
8.54099 136.453 -11.3578
-16.5838 139.735 3.86657
7.01624 105.858 4.27827
-4.00058 116.967 6.33874
11.3416 127.987 -9.10627
11.4704 128.577 -9.46696
11.4698 129.306 -9.79863
-2.60103 118.813 4.60237
-11.4943 150.791 -4.7113
-12.3524 150.721 -4.1007
-15.2228 137.87 3.94779
15.4137 126.693 -11.1735
-9.73021 119.271 9.25218
14.9308 104.639 -0.227298
9.90618 102.33 4.24908
17.4344 124.336 -11.256
-7.27967 116.746 8.86983
11.4849 102.264 3.27564
-20.0606 150.179 1.49636
-15.9752 139.14 4.03396
10.8646 124.148 -6.7316
-17.118 139.461 4.66316
-16.8104 139.218 4.58023
13.5642 113.717 -3.5308
-11.5333 122.474 9.07625
11.6205 133.231 -11.5114
-10.0196 120.615 8.95933
6.78274 138.111 -10.5856
-14.6068 137.442 4.02808
-10.8044 122.095 8.82051
-17.3516 141.557 3.91275
-18.6742 150.324 0.615126
-18.7434 140.556 5.33311
9.00976 102.893 4.79844
10.5712 102.652 3.87665
10.8645 130.509 -9.60371
-14.8449 138.255 3.89531
-14.2219 136.272 4.45779
-13.975 150.894 -2.6585
-16.3354 140.624 3.81895
13.1264 124.274 -8.01292
11.5657 132.928 -11.092
6.00551 112.23 2.50006
9.05104 103.117 4.81485
-11.8712 151.192 -4.14129
6.44729 109.62 3.45685
7.91054 137.515 -10.8233
12.3016 122.678 -6.66642
-3.52969 118.367 5.96486
-6.06625 117.148 8.24179
-13.9855 135.1 4.99308
11.2771 130.902 -9.85917
-14.4344 137.149 4.35069
10.3197 129.971 -8.74424
10.9693 123.899 -6.27063
-17.7958 142.368 4.12542
-12.5327 123.922 9.41344
11.4568 123.433 -6.36707
-2.51679 141.491 -5.63157
-13.6301 136.577 4.13732
-6.32056 117.318 8.45846
19.9185 121.524 -11.0583
-13.9932 130.577 7.26943
-0.189368 122.072 2.12753
2.18326 121.068 1.04125
5.94845 113.049 2.35345
10.1296 136.914 -11.8131
-14.2235 135.26 5.27945
11.5494 132.693 -10.7015
-5.63572 147.289 -6.18896
0.300161 139.475 -6.39273
6.88908 107.651 4.39871
6.52552 110.769 3.15532
10.3176 103.581 4.07202
-14.1301 151.043 -2.23267
-8.2774 118.573 9.36204
12.6266 130.933 -10.4834
19.934 121.668 -10.9351
-9.74445 122.458 8.52113
-14.9786 140.117 3.61033
-5.28166 117.751 7.81098
-10.2355 151.109 -4.76979
10.2876 128.622 -7.73766
-16.8339 142.768 3.62462
-5.16525 117.896 7.75942
-7.49907 118.414 9.09584
0.586313 122.685 1.66296
10.9936 129.561 -8.55034
-0.722304 121.94 2.92178
-15.7289 151.019 -0.918723
-13.1317 151.405 -2.8358
-20.8619 146.285 4.7848
11.8669 132.686 -10.5746
11.6728 127.475 -7.92447
11.2176 128.617 -8.11693
18.3723 123.308 -10.3586
-8.58005 121.332 8.5957
-2.02436 120.455 4.64054
12.9296 131.127 -10.4191
-1.19314 141.182 -5.75823
-16.3243 151.197 -0.403289
-20.6006 149.07 3.52564
10.4911 129.65 -7.9623
-7.49679 118.984 9.15635
-7.76268 119.458 9.11908
-8.51375 122.375 8.27121
-18.5696 144.828 4.29406
14.0142 120.78 -5.92607
13.5905 124.13 -7.23053
-7.56806 119.513 9.10145
2.60784 140.401 -7.63351
1.53983 123.217 1.28696
-16.275 143.711 3.44962
-14.941 141.675 3.54761
-3.89082 145.979 -5.87292
5.13187 118.85 1.05272
12.2076 127.006 -7.54171
-20.3491 147.101 4.65129
3.54251 121.763 0.797197
-0.668824 122.486 3.26738
-5.13319 147.979 -5.86922
9.71207 138.578 -11.2965
9.74535 126.425 -5.52193
0.217636 123.535 2.25285
7.2236 109.77 4.17564
2.69366 123.195 0.84268
1.78695 123.834 1.18093
-15.3949 143.386 3.3557
-10.587 125.571 8.64867
10.7262 138.234 -11.6111
19.4802 122.618 -9.97593
15.7796 108.983 -1.0008
-19.045 146.262 4.47127
13.2276 121.359 -5.19668
-4.58471 147.529 -5.77821
12.6695 131.567 -9.67323
-15.0618 143.592 3.13227
5.69471 141.353 -9.64033
13.5428 125.686 -7.39725
-3.43353 120.035 6.6502
14.3674 114.276 -2.4629
9.62507 126.95 -5.33343
15.8739 110.123 -1.46277
-13.4178 133.484 6.95292
-12.145 137.894 4.02778
-12.9082 133.289 6.75617
-7.41981 150.783 -5.24219
-11.7981 137.605 3.98011
11.7143 137.804 -11.7692
-12.2767 128.028 8.92096
-8.6788 125.648 7.65422
-0.80421 122.804 3.76666
11.0334 132.242 -8.62981
14.7889 107.622 0.605599
-11.7876 132.734 6.37507
20.2207 122.776 -10.2339
14.5424 119.607 -4.92726
-1.75992 143.484 -5.4156
-8.58861 125.929 7.521
-13.161 143.518 2.1908
-19.2942 149.889 3.33622
-12.3704 138.732 4.04611
-5.02711 148.802 -5.64909
11.4715 123.703 -4.68743
12.2746 106.83 2.8326
-4.26473 120.313 7.48701
18.6893 123.59 -9.39697
-11.2596 127.726 8.62804
-9.32856 151.697 -4.08632
6.79715 113.484 3.38784
14.5407 114.59 -2.29511
4.77933 121.919 0.72822
-1.96913 144.011 -5.29292
18.347 124.045 -9.32942
-11.1191 133.742 5.74554
-11.9424 129.218 8.46271
0.105264 142.475 -5.88479
-3.70584 120.53 7.12549
13.0927 126.249 -6.80369
-14.3603 145.153 2.52431
3.415 124.211 0.679276
15.0389 108.357 0.492718
7.74433 110.218 4.479
-10.059 127.641 8.0585
21.4798 122.551 -10.554
-9.21884 127.884 7.4348
15.2006 108.743 0.276232
18.8201 123.88 -9.33316
13.705 117.432 -2.79822
-12.9584 144.471 2.11132
17.3988 118.806 -5.90428
-7.48506 124.604 7.9506
13.2163 107.838 2.14205
-17.7265 146.988 4.14545
14.8362 118.299 -3.89298
-9.2375 129.22 6.97484
15.7016 110.731 -0.8511
5.38639 121.749 0.786798
11.4344 130.216 -7.281
13.935 123.459 -5.70309
10.7028 124.655 -4.10306
10.095 125.914 -4.29154
12.7437 136.518 -11.0703
12.845 128.045 -7.08067
10.8946 132.362 -7.82468
7.66681 111.722 4.2143
11.6096 107.721 3.50959
8.35046 140.978 -10.1646
13.8033 117.767 -2.72579
-9.69725 130.586 6.85124
17.7408 118.937 -5.90941
16.2045 119.348 -5.04999
10.5395 131.299 -6.91283
13.4007 123.569 -5.11893
15.8628 112.255 -1.35043
22.4792 122.226 -10.4915
11.1908 107.561 4.0405
12.5997 125.035 -5.23013
-10.8653 139.079 3.74596
-17.8137 150.968 2.73168
-2.49272 122.475 6.10408
-2.4601 146.396 -5.31569
-15.1686 152.113 0.45759
9.29415 107.835 5.25016
2.73709 141.992 -6.64746
-7.45538 151.777 -4.50645
-14.8683 147.596 2.46193
-18.5146 149.451 4.01578
11.956 128.343 -6.23985
-10.3528 137.174 4.44366
4.20069 142.424 -7.76803
-7.67291 127.034 7.51204
5.88216 121.308 1.2168
11.4178 131.835 -7.46456
-7.14909 125.664 7.88008
4.22791 142.52 -7.7441
8.24958 110.631 4.78089
5.29167 142.598 -8.48237
11.419 108.531 3.69734
5.59798 142.652 -8.67085
12.1056 130.05 -6.9994
-10.4541 139.437 3.6239
14.4841 121.57 -4.44429
-18.2063 149.723 3.96747
10.6502 140.367 -10.7898
-1.96967 146.249 -5.13361
-3.09076 148.178 -5.27894
14.4424 109.897 1.28046
-11.9367 152.583 -1.4641
20.5783 124.113 -9.55934
6.33761 120.468 1.68865
15.5494 111.629 -0.240833
10.9441 132.389 -7.06372
10.809 132.138 -6.844
7.43333 113.949 4.10158
2.88031 127.268 0.801453
6.58897 118.214 2.66713
-9.91642 152.422 -2.62354
19.8578 124.665 -9.24954
-1.62861 145.937 -5.01867
-9.64688 152.39 -2.72028
14.5607 121.619 -4.19641
3.98101 126.42 0.602595
11.243 108.973 4.09976
-15.0186 152.121 1.05815
5.47907 124.263 0.675681
11.843 125.978 -4.36611
-9.12566 131.686 6.93713
5.14444 125.083 0.650839
14.312 116.658 -1.42826
11.3177 132.554 -6.99876
-13.5951 148.289 2.13647
14.3243 121.046 -3.50059
3.29173 143.078 -6.63796
14.3898 110.636 1.42817
-3.66897 149.522 -5.05553
14.5972 110.722 1.27624
19.2483 119.956 -6.22253
13.5663 132.628 -8.44615
11.4969 125.811 -3.80355
15.4963 113.148 -0.41692
15.1579 121.252 -4.03741
8.57753 111.248 5.14219
23.626 122.323 -10.1453
-2.99097 149.028 -5.09957
7.31055 116.075 3.75604
12.0053 129.316 -5.65131
-14.6536 149.125 2.70995
7.60992 143.088 -9.26869
23.5045 122.356 -9.97616
-3.202 123.908 7.13213
3.49946 128.056 0.683238
-12.0919 152.775 -0.659013
12.4662 124.023 -3.2799
-16.229 151.2 2.92828
-11.0987 144.644 2.63784
-8.21752 139.375 3.23507
6.56743 143.843 -8.76325
-11.6749 152.833 -0.848657
-8.6384 137.635 4.37847
21.7975 124.154 -9.51078
12.0078 138.236 -9.68621
23.3512 122.841 -9.87812
11.7511 125.244 -3.27594
-5.33725 125.636 7.96597
15.4619 119.709 -3.07672
14.7452 122.019 -3.6881
16.3915 129.495 -8.34057
-11.0018 145.189 2.47993
-8.54967 152.55 -2.66214
12.1156 125.949 -3.76527
-10.9924 147.159 1.59041
-2.78585 124.717 6.87262
-3.15682 124.585 7.19102
-6.01082 126.899 7.9945
-8.28958 132.798 6.70654
12.5875 124.433 -3.23175
13.5156 132.827 -7.85409
-9.34917 141.292 3.37875
11.2337 128.018 -4.02936
13.6521 118.465 -1.07396
12.6092 128.59 -5.20584
15.2066 121.095 -3.32432
-7.76092 139.968 3.01009
15.5925 120.02 -3.06343
-5.15946 151.478 -4.19042
12.3075 111.127 3.39865
15.1036 114.929 -0.263626
12.7579 124.875 -3.41995
-4.38884 125.722 7.63131
-3.28162 124.764 7.35512
4.99842 144.279 -7.44754
11.2588 128.552 -4.08892
2.35696 128.897 1.70018
-8.47305 141.438 2.95086
3.58459 144.161 -6.38541
16.8095 120.187 -3.77382
-15.642 151.141 3.14253
13.3283 117.915 -0.345931
-9.74645 142.678 3.25596
11.499 126.678 -3.24584
12.8444 130.762 -6.09064
-6.90512 152.7 -3.35606
17.2892 128.322 -7.88107
6.96522 144.314 -8.60499
-9.90861 143.58 3.08116
8.84405 113.087 5.11642
10.8723 127.097 -2.89187
3.89678 144.498 -6.44426
8.05448 115.205 4.78465
-7.4642 134.54 5.94475
-9.80174 153.047 -1.24411
12.8237 134.386 -7.40011
-7.15222 136.213 5.07241
0.719043 145.984 -4.8277
1.89417 145.128 -5.20062
-5.29286 152.099 -3.68437
17.7271 120.428 -3.92128
13.2687 137.139 -8.91347
-7.0778 134.853 5.77279
-5.65578 128.889 7.68901
14.5191 124.256 -3.56727
7.88561 116.508 4.55721
10.9818 111.723 4.81263
11.2764 141.225 -9.4255
-6.68171 140.476 2.93664
-8.87205 153.079 -1.55211
9.44053 143.63 -9.24943
11.0459 141.903 -9.47492
2.00452 129.927 2.28703
7.07785 124.789 1.40747
-4.99683 128.269 7.87114
14.6016 114.342 1.46187
14.2172 125.671 -3.68311
3.34545 130.743 1.16389
13.7272 118.985 -0.128419
5.83105 128.667 0.534378
-1.64251 149.901 -4.59707
-13.2117 152.875 1.74654
-3.02446 127.214 7.19194
-13.6574 150.347 3.26309
15.8872 121.618 -2.72762
-5.27257 129.406 7.69946
0.155085 127.857 4.84032
-2.60676 127.43 6.90068
14.3265 120.252 -0.961254
13.7182 133.623 -6.92151
13.5143 137.038 -8.40989
9.12558 144.268 -8.92275
13.4515 133.728 -6.74656
-1.30234 149.728 -4.51835
1.69305 130.118 2.84065
11.4811 113.407 4.28549
3.56157 131.337 1.03484
-7.38679 153.135 -2.05123
13.5036 134.185 -6.9155
13.845 117.215 0.960829
-7.44453 153.173 -1.93249
-5.84333 135.777 5.30658
12.2669 139.022 -8.31312
-13.5491 151.536 2.9958
22.3884 125.351 -8.47839
-5.88381 131.942 7.26819
9.4527 144.28 -8.81833
12.1115 139.682 -8.3771
13.2615 135.872 -7.32142
0.763424 128.881 4.35672
9.39554 144.385 -8.77688
13.6758 137.077 -8.14175
13.4216 117.986 1.17191
5.45378 130.503 0.53266
2.83962 146.293 -5.1886
14.1822 120.071 -0.252842
-4.31869 129.291 7.71481
-1.01761 150.211 -4.41339
7.59232 125.233 1.76187
13.5912 134.288 -6.56094
15.7753 122.473 -2.37216
-2.46549 128.547 6.92364
-5.39933 131.9 7.32539
-11.3311 153.318 1.08404
15.7996 134.907 -8.22992
6.90194 128.228 0.92605
15.2547 123.244 -2.25409
15.4257 134.851 -7.90136
10.6437 114.12 5.21972
-4.46488 130.606 7.45158
6.17255 130.291 0.528259
16.4717 134.73 -8.44848
-5.09433 133.15 6.71385
15.0239 124.962 -2.81066
-5.8508 144.183 1.97681
15.2068 121.387 -1.19359
-5.02011 132.955 6.82535
-4.97407 137.323 4.76702
10.7935 142.761 -8.31292
-5.28552 143.648 2.02199
13.6595 135.249 -6.5879
-4.56511 141.754 2.48043
15.2978 121.734 -1.22104
13.6398 135.025 -6.41807
23.0736 125.461 -8.15304
6.15871 131.029 0.491864
-4.44434 140.966 2.8987
17.2758 132.603 -7.54087
12.3189 141.02 -8.22378
8.10517 119.889 4.67284
-4.23761 141.511 2.60168
19.017 129.143 -7.01749
12.9824 119.211 1.74901
-4.23288 140.564 3.11721
-1.18477 129.969 6.14539
19.4267 128.155 -6.74226
-0.25713 150.472 -4.20846
15.5158 123.337 -1.77272
-3.23242 152.605 -3.12721
7.60351 128.019 1.37506
9.02557 118.201 5.14473
15.5843 125 -2.44362
15.5748 125.099 -2.48127
-2.95005 130.896 7.14088
5.38317 133.535 0.32015
-0.958389 130.88 5.88849
-1.28389 130.921 6.08933
15.4151 125.319 -2.37334
23.9171 125.224 -7.99873
10.077 116.763 5.29597
15.6048 124.96 -2.29668
-3.58035 138.065 4.27494
20.7452 127.39 -6.8623
12.5934 115.832 4.09332
-3.7879 135.818 5.53244
-4.4248 153.505 -2.46457
16.0394 123.191 -1.66571
17.8121 132.234 -7.08005
23.2956 126.054 -7.76736
-3.32347 132.289 7.03403
-9.16031 153.821 0.678209
8.90342 119.542 5.03715
0.502209 150.361 -4.03618
10.2531 117.238 5.26067
-3.39165 133.649 6.58016
17.6168 133.388 -7.31276
12.3365 141.934 -7.8143
11.344 116.529 4.96991
10.0542 144.902 -7.6892
23.1503 123.771 -6.33043
10.2071 117.567 5.29443
-2.70955 137.903 4.23869
8.218 127.263 2.02831
10.2943 117.76 5.28826
8.37856 125.551 2.8623
21.4322 121.141 -3.7393
9.00144 120.292 5.00009
6.73204 147.527 -6.46462
12.6244 140.788 -7.17221
9.96935 118.291 5.39993
17.7821 133.814 -7.20166
-1.89189 132.804 6.43201
9.58726 146.169 -7.60039
8.28932 122.721 4.48527
2.27433 149.131 -4.08056
4.79073 134.371 1.28914
10.3859 144.901 -7.46621
21.9536 127.611 -6.91677
7.883 129.864 1.41053
1.70001 133.429 3.85787
-2.47132 136.385 5.23468
15.1265 124.447 -0.776668
23.0694 127.149 -7.35676
15.4308 124.586 -1.0312
20.4584 121.205 -2.76962
15.624 125.941 -1.77407
15.546 126.441 -1.95601
14.6088 127.99 -2.06374
4.96106 135.123 0.976499
15.6284 125.827 -1.6847
-2.08982 138.603 4.07369
6.80844 147.868 -6.24786
-2.06629 139.268 3.78687
8.51817 123.672 4.15938
5.85199 148.352 -5.78303
23.7045 125.529 -6.8054
-3.94831 146.007 1.92963
-3.66896 145.677 1.94256
-4.23054 154.387 -1.82738
12.6318 140.716 -6.51531
14.8118 127.934 -1.87346
-1.84119 138.902 4.02956
12.8542 124.613 1.0793
22.6304 120.184 -3.32215
-6.06727 154.476 -0.510791
6.5874 134.977 0.362913
-9.10102 153.98 1.78257
22.4604 122.677 -4.31269
15.8015 125.937 -1.42017
12.4772 125.267 1.12616
2.82453 135.646 2.65859
7.34909 133.676 0.592488
20.8972 120.171 -2.00884
13.0659 123.939 1.47343
13.2296 137.002 -4.82873
12.0486 123.52 2.41784
8.15203 131.362 1.28253
13.2383 123.34 1.71966
19.8426 130.745 -6.21354
12.8195 139.964 -5.88621
17.7433 123.252 -1.15369
11.9827 119.082 4.69349
11.8815 122.787 3.01261
8.6791 123.777 4.6855
11.3135 124.172 2.74366
8.28431 127.083 3.40504
-1.36227 139.474 3.94614
12.1121 119.441 4.52488
-0.77437 137.107 4.71267
14.9105 126.704 -0.754171
11.744 119.694 4.76401
15.3825 127.7 -1.47266
20.9704 120.701 -1.86219
16.1602 137.372 -6.58812
13.693 127.33 -0.122848
13.4283 128.11 -0.310296
1.51304 151.836 -3.65897
16.878 136.905 -6.79555
8.25899 132.498 1.06328
11.6166 121.976 3.87375
-0.80652 135.159 5.88934
4.60916 149.314 -4.4462
12.4325 141.562 -5.96411
12.7611 120.699 3.77759
22.4074 128.236 -6.20069
9.02821 123.276 5.10006
12.3669 120.788 4.06428
2.80446 136.279 3.07049
9.65863 147.231 -6.71611
11.0097 120.486 5.17328
20.1367 122.829 -2.03087
13.0742 138.791 -4.91828
8.59598 130.82 1.87535
20.0702 130.608 -5.66745
17.1716 123.86 -0.513107
-0.467272 135.065 5.92173
9.12165 147.755 -6.5203
9.01194 123.514 5.12682
22.0789 122.974 -3.27035
23.2956 125.642 -5.27692
-2.05846 145.774 2.07437
10.6672 125.486 3.30597
21.4874 128.632 -5.40438
5.01841 137.85 1.28956
4.66065 137.869 1.51933
3.06678 137.02 3.02387
10.1113 122.445 5.27281
0.29047 136.343 5.29544
12.4888 141.958 -5.52034
2.94405 136.868 3.30444
9.70998 124.467 4.70982
15.3832 137.819 -5.44407
0.137515 137.833 4.72904
3.64802 137.995 2.3204
22.337 120.451 -1.73091
12.5467 142.294 -5.60869
8.73072 126.775 4.35467
12.7516 143.454 -6.23768
17.7861 123.888 -0.212006
7.06629 137.562 0.467511
21.1687 124.958 -2.93217
0.803953 153.2 -2.79689
23.7237 125.702 -4.88694
-0.497554 142.964 3.08452
21.3991 124.244 -2.60271
8.80356 127.636 4.22293
16.0674 126.493 -0.0337254
14.4851 129.532 -0.424549
17.9262 136.898 -6.21538
8.17128 149.501 -5.70855
3.09177 137.98 3.19823
12.6029 142.585 -5.34583
-0.0157458 143.922 2.47327
20.3002 131.289 -5.06001
12.7715 127.275 1.89092
20.1739 132.343 -5.2963
14.8961 138.489 -4.66462
11.1158 147.243 -6.30912
1.19016 138.049 4.87209
21.0245 125.785 -2.51402
18.2637 136.853 -5.92917
0.18633 142.185 3.62509
0.611114 140.55 4.13818
7.85867 150.182 -5.23723
8.50915 133.697 2.25953
12.7215 141.824 -4.39817
8.4738 135.477 1.47044
9.27719 128.486 4.29376
22.3285 126.3 -3.27307
3.88831 139.891 2.57749
11.3353 147.151 -5.8411
7.57135 139.397 0.44099
20.4895 126.251 -1.89837
21.6529 123.512 -1.26443
2.70685 138.323 4.33099
4.45943 152.045 -3.32527
24.6465 125.287 -3.95584
16.6179 126.348 0.905092
10.1106 128.185 4.40295
12.6332 130.414 1.66074
1.4397 141.02 4.16633
1.5146 144.521 2.46628
13.5946 140.827 -3.82195
20.3646 132.795 -4.50237
21.9328 130.714 -4.50922
7.44815 151.085 -4.53026
13.846 131.229 0.676721
8.86789 136.789 1.38641
8.59675 133.936 2.96702
22.7823 127.541 -3.43857
12.8444 143.847 -4.52481
0.864535 143.71 3.54896
13.0524 142.076 -3.75698
2.36875 138.659 5.00582
8.73733 134.995 2.51766
18.9107 137.248 -5.34552
20.6131 125.226 -0.641657
12.8603 143.924 -4.33889
17.9976 125.527 1.01391
2.53176 145 2.09075
6.66842 151.736 -3.83725
21.3371 123.662 -0.232229
20.2907 127.142 -1.14335
13.4919 131.366 1.39699
24.5201 127.103 -3.82672
7.56493 151.65 -4.18629
14.4185 140.868 -3.38157
6.09131 152.56 -3.27187
17.0728 127.585 1.33982
21.911 131.495 -3.74367
3.22605 141.479 4.07781
22.147 128.474 -2.31348
16.0929 140.855 -4.15821
13.5313 141.991 -2.83975
22.2449 131.623 -3.69227
3.44405 154.313 -1.95878
13.2614 143.505 -3.31365
15.7283 141.038 -3.73986
9.41925 139.154 1.37379
12.3782 132.579 2.77626
20.1594 136.801 -4.42692
17.882 128.673 1.01627
11.4561 148.862 -4.23096
3.51113 142.593 4.0725
18.2634 128.383 1.05356
10.4448 133.348 3.9963
11.6638 132.949 3.40756
10.8995 133.181 3.87579
9.7671 137.865 2.46175
7.39824 144.403 0.930478
24.1891 130.119 -3.43762
3.01674 144.577 4.11073
9.63564 140.847 1.51659
10.6373 150.03 -3.52436
13.6672 143.503 -2.39073
22.4519 132.331 -2.91565
3.28816 145.068 3.81255
20.7016 136.499 -3.67894
5.46362 145.638 2.15195
24.2621 130.089 -2.97102
7.75909 144.998 0.947768
18.0367 140.2 -3.61903
20.2835 137.604 -3.85344
5.71419 146.031 1.92218
6.25782 145.985 1.64514
11.5153 134.785 3.47827
14.0393 134.544 1.93451
13.7076 143.819 -2.24861
11.3642 134.857 3.63102
11.3257 134.777 3.69875
10.8226 134.856 4.00828
18.4198 130.262 1.14811
6.34826 146.167 1.63804
15.7924 142.708 -3.00086
14.6707 142.717 -2.25049
4.50278 145.265 3.41624
3.78258 144.475 4.27851
10.1106 137.33 3.47434
21.3392 130.805 -0.757352
9.90876 141.698 1.6868
7.68415 146.107 1.08778
14.1445 135.146 2.27038
8.27652 153.049 -2.20805
20.4899 138.161 -3.25076
20.4038 138.509 -3.23292
10.5572 136.701 4.21958
7.75578 153.412 -1.85577
6.72273 148.101 1.43291
13.1701 147.699 -2.67204
10.1222 151.148 -2.26137
10.6113 138.866 3.41756
17.8973 142.179 -2.90908
21.0543 135.965 -2.02012
11.4488 137.338 3.7464
14.4733 144.059 -1.33208
14.2419 136.014 2.68875
15.9295 135.894 1.71988
13.3604 147.533 -2.05661
16.6891 143.32 -2.24158
18.3542 142.039 -2.73004
5.5691 147.544 3.20839
12.1325 137.642 3.65963
7.37546 149.221 1.38525
13.5506 146.804 -1.49769
21.1351 137.857 -2.29134
6.97207 149.237 1.76214
10.1917 151.488 -1.45738
8.13867 153.778 -1.16222
9.16717 152.875 -1.39239
20.3628 139.943 -2.64636
6.25598 155.159 -0.402772
10.7104 142.344 2.74039
7.53834 149.56 1.4735
10.7874 141.766 3.0451
10.7918 141.9 3.01113
19.2672 132.425 1.89512
18.0297 134.069 1.95167
6.88714 149.292 2.14156
10.3911 151.423 -1.1864
9.54227 152.595 -1.15764
13.9658 137.44 3.12426
10.8028 144.818 1.975
21.3138 137.671 -1.44586
14.4694 145.821 -0.643351
16.3152 137.152 2.26729
9.26303 149.537 1.12864
18.0112 143.468 -1.77024
13.7125 138.439 3.50503
17.6208 143.801 -1.45695
11.2777 144.948 2.35479
11.5215 143.553 2.9254
22.9811 133.797 -0.0549601
21.1796 139.398 -1.48958
10.5306 152.196 -0.449567
21.4937 137.876 -0.925534
16.6243 144.896 -0.943911
14.0521 147.438 -0.225967
19.4987 142.845 -1.56665
16.5844 145.372 -0.782625
14.0944 147.777 -0.154384
19.6056 142.804 -1.45793
7.7503 151.505 2.31577
17.6509 137.709 2.3467
19.9097 134.656 2.31661
7.27942 155.04 1.06499
13.0179 142.292 3.31788
19.6605 135.173 2.33274
19.2963 135.88 2.30351
19.0038 144.041 -1.34892
9.74212 151.412 1.37098
16.6131 145.993 -0.56793
21.7602 137.741 -0.039608
18.6795 137.188 2.33149
8.06617 152.171 2.29614
14.5426 148.325 -0.12871
11.6156 148.779 1.72731
13.1159 149.748 0.297336
10.2631 153.571 0.422393
22.1158 137.239 0.364206
12.5849 144.721 3.17038
21.4259 140.191 -0.504041
20.4953 136.361 2.0572
16.4466 139.306 3.37225
8.21173 154.996 1.39907
12.6143 151.619 0.172585
8.70491 153.525 1.89599
8.11094 154.723 1.72756
17.1774 139.342 3.13906
19.9585 143.445 -0.455236
