ply
format ascii 1.0
comment Created by Open3D
element vertex 1932
property double x
property double y
property double z
end_header
-3.22705 121.771 7.89358
8.72399 133.833 -7.50932
-17.3007 114.935 6.14075
-19.8532 116.814 -2.48475
16.357 138.212 -8.56162
-9.89387 117.847 8.74327
23.9465 139.597 -1.61877
-5.47488 125.65 -6.05194
-12.0464 116.604 8.80931
1.23644 128.833 -5.18697
-16.5874 114.107 8.97954
-19.349 115.351 1.69029
16.7889 133.141 5.14954
-15.8396 121.492 -9.86946
2.01457 128.99 -4.96341
-9.36344 117.803 8.76299
6.61473 132.012 -6.63548
-14.1442 122.125 -9.55443
22.8489 139.98 -5.06695
15.1068 131.332 7.06014
-8.39416 118.246 8.71128
13.4239 136.93 -10.4165
-19.1699 119.712 -10.4586
16.7131 132.804 5.15192
-19.1562 115.076 1.78052
15.3789 131.361 6.73697
4.51575 126.584 4.08217
15.9673 132.025 5.6948
16.9446 137.153 -6.66736
23.2494 136.949 2.75014
-0.796166 122.44 7.42282
-17.6426 113.348 7.92106
-2.16746 121.475 7.96497
-5.23275 119.682 8.37882
-14.6725 121.502 -9.84843
-16.5239 120.614 -10.1905
-8.80495 117.513 8.82644
-13.518 114.909 9.10087
20.5504 135.221 2.93896
25.1941 138.531 0.628433
21.6939 139.302 -6.44967
-6.3641 124.398 -6.31242
-19.2412 115.231 -0.0582961
17.1143 136.873 -6.70893
5.39149 126.839 3.5019
23.0668 139.475 -5.32401
-17.4824 114.666 3.66796
20.6005 138.999 -7.59558
-3.37274 126.119 -7.04249
0.352003 123.127 6.07785
-12.3442 115.379 8.77916
5.85781 127.101 3.13709
-14.4955 113.951 9.3823
0.345605 127.447 -5.87938
-9.21634 116.903 8.74976
-17.1125 112.682 8.84871
-12.1359 115.342 8.74208
17.2061 136.706 -7.03798
19.2301 138.106 -7.95751
-16.5578 112.731 9.2714
20.5104 134.64 2.79892
-8.18974 117.196 8.7856
2.49852 128.015 -5.0789
19.3233 133.664 3.39907
-21.5936 114.872 -4.41009
2.35969 124.021 4.90088
9.29465 132.676 -8.44854
-19.3843 118.341 -10.7595
20.7788 134.458 2.8078
2.92883 124.276 4.65521
20.6027 138.28 -7.80729
16.0122 136.394 -9.25505
-18.3405 118.753 -10.7338
17.2099 131.732 4.73106
4.53428 128.701 -5.08992
-15.786 119.862 -10.3592
17.4233 136.176 -7.05597
9.13246 128.322 2.12503
-10.5234 115.507 8.59625
18.5843 136.876 -7.47738
7.87425 131.108 -7.19947
-18.9053 118.301 -10.8006
-21.3347 116.468 -9.36645
21.5363 134.505 2.95529
-18.6623 114.39 -0.204366
25.4513 137.469 0.409048
12.707 129.469 3.77735
-21.5776 114.279 -4.07097
-5.52502 123.64 -6.56562
-16.7106 119.172 -10.4553
-8.30789 116.475 8.58905
-15.3384 119.811 -10.324
-21.1027 114.122 -3.34654
6.22773 129.501 -5.8517
2.09773 123.257 4.93379
-2.38158 119.599 8.32064
-12.4661 113.941 9.0321
-19.9987 114.218 -2.36455
12.1601 129.009 3.37247
-19.5704 114.155 -1.85883
-14.5376 119.917 -10.1742
22.9897 138.138 -5.86233
-9.0429 115.837 8.4207
23.8856 135.505 2.34709
17.2828 135.994 -8.30025
2.71101 123.438 4.65755
-10.975 121.011 -8.27011
-7.60712 116.43 8.60133
-4.31871 123.982 -6.95892
-20.6348 113.805 -2.82332
24.5698 137.318 -1.8392
13.5418 128.25 6.76173
9.54505 131.978 -8.84234
9.34224 127.709 2.23135
-18.3243 112.444 3.92746
16.9182 135.422 -7.73625
-17.5376 111.663 6.92212
-8.01425 116.096 8.48337
25.8555 137.176 -0.239956
-18.0744 111.696 5.79146
-3.48644 124.353 -7.42995
13.0206 128.682 4.24321
-17.5921 113.221 2.26852
-4.20202 117.818 8.76286
-9.23111 121.304 -7.87616
-7.90113 115.898 8.42855
3.17031 123.241 4.40941
16.1494 129.123 6.90086
4.91604 124.436 3.56093
16.0396 135.143 -9.43654
-22.3373 113.354 -5.42874
22.2569 133.707 3.14001
0.423832 125.76 -6.53236
-19.0458 113.127 -0.290103
24.3624 136.848 -2.36295
20.3679 132.573 3.41426
-17.9203 112.646 2.54704
25.623 137.108 -1.36693
9.91451 127.358 2.44063
23.6947 134.578 2.50187
16.4661 135.133 -9.20308
-7.07834 122.021 -7.42643
16.0698 134.844 -9.35605
-22.4115 113.112 -5.7452
-9.94849 114.337 8.4889
17.3871 134.674 -7.24356
-9.20002 114.766 8.35539
-5.55085 116.555 8.66868
-21.0609 112.582 -2.62243
16.9372 134.659 -7.97684
16.1441 134.326 -8.33194
13.6796 127.895 5.31233
2.69143 122.371 4.54301
-18.0794 110.171 7.70612
-12.8416 112.366 9.12123
14.3647 127.166 7.95802
13.8508 127.172 7.17217
15.2263 134.17 -9.61615
22.2959 133.13 3.10946
19.0135 131.539 2.65243
-19.5365 112.082 0.0725924
25.7825 136.504 -1.25009
10.7443 131.797 -9.91371
-1.98219 118.28 8.19832
12.7529 133.201 -10.8776
24.2452 134.506 1.85226
-6.49974 121.751 -7.52808
-6.0018 115.972 8.58624
13.7719 127.469 5.71977
-15.1286 118.033 -10.364
-22.4494 112.498 -5.91843
-7.69386 121.008 -7.85196
18.0254 134.591 -7.93821
15.9438 133.704 -8.56916
13.3083 127.344 4.65258
19.7218 131.371 2.78948
11.5785 132.057 -10.5464
-18.9484 111.576 0.988966
16.5938 128.281 6.48132
-17.3094 116.872 -10.9796
24.3823 134.234 1.49785
-2.21478 123.61 -7.69648
21.6203 136.296 -7.96209
15.3484 132.168 -5.82095
15.6348 132.317 -5.93162
22.2712 136.227 -7.10781
16.5842 133.846 -8.86422
-22.0016 111.615 -4.01047
-17.1023 116.81 -10.9727
-20.1413 115.045 -10.6203
1.94939 120.809 5.14395
-15.7953 109.923 8.9848
11.9265 126.694 3.26953
0.967781 124.7 -7.06348
-16.1241 109.607 8.97586
-0.361399 124.018 -7.28971
10.4716 130.666 -9.75197
-20.7531 110.957 -1.36786
15.6866 126.94 7.30003
17.0985 133.635 -8.66098
15.6966 133.065 -9.12676
16.6558 132.041 -5.38713
5.01134 122.587 3.4144
-19.39 110.873 0.24574
-9.66157 119.335 -8.62153
-4.90331 121.431 -7.52797
19.2238 130.653 1.89005
15.7072 126.774 7.24549
-0.94905 117.768 7.78094
18.5907 134.363 -8.9778
24.0953 135.143 -3.2975
-15.486 117.008 -10.7436
-3.62884 122.21 -7.9316
8.9763 128.843 -7.91042
3.45472 121.383 4.16238
-13.1645 110.742 9.06933
16.3819 131.86 -5.63264
-22.5072 111.458 -6.08029
-0.19965 118.212 7.29871
23.8502 135.491 -5.00283
-3.65359 122.044 -7.9193
2.08985 124.578 -6.60873
17.844 132.469 -5.62535
6.50554 126.476 -5.74109
22.549 131.626 3.13791
10.5274 125.428 2.68661
25.592 135.333 -2.52012
-12.3973 118.139 -10.2325
18.4411 129.59 2.6642
-1.85946 116.692 8.33606
-3.99602 121.567 -7.70586
-13.2865 117.681 -10.5147
-22.3338 111.866 -7.82465
17.9548 133.693 -9.24715
26.0919 134.818 -0.817389
-22.1664 112.067 -8.23081
-4.92646 114.987 8.23803
18.0205 133.152 -7.90592
18.1405 132.228 -5.27913
17.1173 133.281 -9.6309
16.1461 126.638 6.68989
-22.0621 110.425 -3.96208
-21.2901 110.304 -2.60894
7.00887 123.254 2.68644
9.91808 124.801 2.60969
0.962186 118.703 6.21969
26.7112 135.431 -2.11222
24.3267 132.694 1.74353
14.4087 125.246 7.60959
-3.72425 121.41 -7.88791
3.20466 124.371 -6.09015
-19.7611 108.693 3.30901
13.1488 131.384 -10.8517
-20.5301 110.036 -1.50424
23.8382 134.299 -3.70138
18.093 131.515 -4.43922
26.0483 134.449 -1.12684
-19.2827 109.6 1.13981
-14.0462 116.888 -10.9532
12.2993 125.397 3.50687
-19.403 109.059 2.36203
14.4439 124.845 7.86087
-16.9705 108.097 8.18828
21.8988 134.521 -7.51607
15.1632 130.458 -6.25103
15.1181 130.682 -6.92253
-19.8105 113.717 -10.9927
21.4465 134.444 -8.17785
14.5834 129.925 -5.84137
17.2593 131.355 -5.8906
14.9696 130.204 -6.04817
8.72868 127.581 -7.86376
20.7824 130.176 2.19876
10.9394 129.578 -10.1096
-18.0059 114.797 -11.5182
-2.02175 122.111 -8.58365
14.1596 124.8 6.979
4.95942 121.199 3.48501
13.8605 124.925 6.03739
14.0133 124.831 6.48688
19.9603 129.806 1.5484
-20.4253 107.576 3.88367
10.924 129.368 -10.063
23.8219 133.899 -4.0039
3.18031 119.868 4.3116
14.1746 124.6 7.10235
15.8492 130.757 -7.03639
-20.1581 108.332 1.87691
-20.0272 108.618 1.23659
-21.1341 112.232 -10.0447
-3.67536 114.611 8.23622
14.1405 124.464 7.04196
-12.4106 109.67 9.04091
-22.5134 109.788 -5.56705
1.18757 123.047 -7.53783
10.2413 123.95 2.76527
-20.3831 107.674 2.96963
8.0117 122.779 2.62888
16.786 129.775 -3.69107
16.5601 128.847 -1.56431
-20.3925 108.208 1.36776
23.646 130.983 2.6858
9.58559 123.552 2.67815
15.7762 131.012 -8.57162
13.8301 124.452 6.16817
23.6049 130.865 2.83785
19.9858 129.447 1.41386
-20.1746 108.694 0.131168
-20.6563 107.816 1.68428
18.2567 131.321 -6.1627
4.72475 124.041 -5.89446
-6.92291 112.56 8.23409
19.7213 128.377 3.57413
-22.5591 110.156 -7.59672
10.8179 128.706 -10.0669
0.833133 117.245 6.41956
24.2876 131.459 1.54188
-20.9217 107.697 1.14813
14.7821 129.311 -6.18571
3.59628 119.544 4.05595
0.495964 116.94 6.61819
-2.59115 114.482 8.45363
8.31117 126.37 -7.92625
16.8053 127.974 -0.315915
12.9446 129.942 -11.0518
17.492 126.29 5.02772
16.4597 127.975 -0.936927
21.5315 129.339 2.57832
18.2735 131.145 -6.9082
13.6759 123.883 5.97959
1.43024 117.376 6.01305
-4.37403 119.609 -8.15241
-22.5623 108.997 -5.50849
-20.938 106.895 2.26558
16.4745 127.77 -0.721487
16.0685 127.854 -1.52744
22.0452 133.464 -8.11655
11.5486 128.932 -10.8328
-22.0616 110.431 -8.87799
0.0178603 121.95 -8.52787
-21.159 107.627 -0.210161
16.9502 128.754 -2.91033
17.618 126.057 5.13599
12.6903 123.78 4.16669
1.67195 117.323 5.84431
15.9874 129.656 -6.9802
17.8226 126.168 4.90954
17.2776 129.515 -4.88308
16.512 127.695 -1.15215
27.2045 133.73 -2.23031
8.37972 125.998 -8.2126
23.8741 133.271 -5.88121
1.66266 117.087 5.83463
16.7712 128.995 -4.71924
-3.40886 113.476 8.17093
18.6329 130.222 -5.45571
-1.59658 120.912 -9.19873
16.4509 128.949 -5.29517
-2.32499 113.91 8.35971
-19.1046 106.265 5.07117
17.0734 130.123 -7.66111
16.7548 128.04 -2.6403
10.6609 122.675 3.07771
17.2892 124.977 6.27087
-5.3962 112.28 8.13652
11.82 128.602 -11.1764
20.3322 127.962 2.44531
-21.5793 110.208 -9.50493
-21.0979 105.982 2.38903
14.5495 122.654 8.15914
-14.1371 107.273 8.73349
7.90083 121.119 2.83582
26.6497 132.864 -2.10339
22.9727 129.006 2.93971
13.425 122.923 5.69149
20.1705 127.697 2.46034
-15.5566 114.053 -11.8087
-21.6939 107.375 -2.64688
14.8188 127.649 -5.48335
-14.6502 106.75 8.66015
-10.7152 116.072 -10.7268
20.6558 128.203 1.107
16.6171 126.743 -0.722784
18.6273 129.722 -6.09542
21.0736 127.752 2.55839
-2.55083 119.536 -8.94983
-20.9013 105.536 2.48998
20.9449 132.311 -9.96159
-8.43782 116.673 -9.71805
25.9657 132.746 -4.0919
20.6308 127.835 1.48352
-16.9233 113.016 -11.9618
-3.18225 112.726 8.1603
18.81 131.438 -10.7921
-20.961 110.026 -9.75079
15.9466 128.476 -7.07211
-12.476 115.087 -11.4963
-21.9715 106.903 -3.05909
20.4724 128.068 0.307624
20.3622 127.939 0.480927
-21.9308 106.337 -1.54299
26.1051 132.686 -4.1105
-21.8404 109.21 -9.1148
-1.76336 119.833 -9.32946
-1.25267 113.501 8.26131
13.1817 122.159 5.45437
20.2544 127.688 0.657937
-3.00142 118.925 -8.81875
8.38153 120.534 2.91988
-21.6582 107.399 -4.43499
16.7343 122.652 9.01803
-21.747 105.651 0.0944914
22.1459 132.278 -9.13116
16.0462 128.268 -7.07883
-5.95769 117.242 -8.70924
16.9407 127.148 -2.84874
12.2068 122.175 3.64538
15.9978 128.337 -7.49047
-6.16382 110.681 8.36956
-21.682 107.29 -4.56967
4.41042 117.935 3.80113
17.4725 129.882 -9.74646
-18.1814 105.138 5.93034
-22.0903 105.708 -1.16219
-22.1394 105.798 -1.50801
1.75981 115.719 5.66157
11.7218 127.249 -11.1607
1.49456 115.478 5.83607
-16.7622 112.447 -11.9224
22.849 127.898 2.62447
-21.8439 106.969 -4.60921
-9.44027 115.701 -10.4751
13.5571 128.042 -11.0204
12.2436 121.812 3.72647
3.38327 121.101 -6.96701
-19.3661 105.059 3.74131
18.3964 126.346 0.175023
-8.84257 108.711 8.62315
-1.28067 112.834 8.28345
-7.86458 116.052 -9.71428
-22.3419 105.671 -2.44869
-22.2069 105.308 -1.33463
-14.5211 105.682 8.50269
18.9226 126.429 0.289689
15.1649 128.243 -9.9496
-19.5851 110.187 -10.8192
15.0863 128.174 -10.0145
17.9272 122.834 8.22238
26.9907 131.501 -2.13297
1.76612 115.262 5.62408
-9.64208 115.343 -10.7047
14.6226 121.161 8.00571
-7.91754 115.888 -9.76932
20.8365 131.42 -10.6711
3.09705 116.297 4.66627
-10.5357 107.617 8.59956
24.7568 131.175 -4.54221
19.6272 124.958 4.76451
16.2355 125.628 -1.84344
8.05904 119.501 2.92657
0.0706948 113.628 7.33038
-22.2368 106.765 -5.88417
-10.8979 114.777 -11.3439
-3.69984 117.673 -8.99499
17.0665 125.792 -1.48033
20.0071 125.338 3.85807
5.83005 121.722 -6.50402
24.2761 131.118 -5.61816
-5.24362 116.698 -8.84905
9.55887 120.028 3.08317
6.27581 121.886 -6.51432
12.7118 127.094 -11.3472
-18.8109 110.491 -11.6104
-5.20414 110.188 8.39995
-8.14221 115.486 -9.93837
20.1211 130.754 -10.9992
-22.4747 105.397 -3.45005
-18.6762 110.458 -11.621
-17.8187 104.043 6.67636
-10.6163 114.588 -11.3706
-21.2015 104.266 1.25076
15.3084 127.354 -8.90715
17.3578 126.346 -3.3533
-22.9613 106.494 -7.34674
19.9289 130.553 -11.0917
20.3225 125.954 1.60519
-23.0655 106.375 -7.41308
-12.0852 106.169 8.58378
18.3826 122.434 8.06517
-22.6866 104.692 -2.59134
-18.0824 103.799 6.2505
21.55 131.054 -10.5965
-16.3198 104.117 7.74332
19.396 125.823 0.144352
-10.0613 107.062 8.63265
-16.3032 111.39 -11.8653
-22.5318 104.352 -1.88119
21.3921 130.856 -10.6949
-21.318 107.636 -9.10273
24.8495 129.422 -2.12935
6.9988 121.665 -6.62734
15.5513 125.972 -6.12753
20.5125 125.036 3.35523
0.819997 119.264 -9.13677
-7.82193 114.978 -9.96294
-21.6297 103.669 0.357265
4.56485 120.25 -6.9574
-3.46503 110.301 8.27262
24.5962 128.07 0.377292
16.0255 126.319 -7.1961
-4.52735 116.185 -9.15496
18.7162 126.876 -5.09395
-22.3448 105.22 -5.28356
16.2087 125.055 -3.84735
19.4115 122.573 7.28478
-1.11374 118.216 -10.1639
-6.82971 115.03 -9.78246
12.8657 120.119 4.41038
-9.09124 106.906 8.69447
11.7733 119.751 3.83091
20.3355 125.847 -0.37921
-19.8756 108.328 -10.4293
-13.3762 112.286 -11.8497
24.5172 129.949 -5.59917
1.6851 113.484 6.0674
5.15479 116.239 3.60686
11.1675 124.85 -10.9236
5.82563 116.674 3.37221
-20.2699 107.725 -9.72826
20.1106 123.847 4.16007
16.6977 126.503 -7.75966
-0.267461 111.787 7.50683
21.2597 125.3 1.786
-2.7932 117.005 -10.0199
17.6976 127.399 -8.86128
-11.4029 105.525 8.43357
25.0156 127.576 0.900878
-22.9908 103.547 -2.7891
-22.342 104.531 -4.57613
6.12978 116.528 3.35317
1.33721 118.491 -8.70483
19.241 125.046 -0.963868
12.1783 119.453 3.99389
12.3681 125.196 -11.1381
14.191 124.952 -7.93254
-3.80242 109.309 8.40322
19.9835 124.948 0.109376
18.9359 124.853 -1.12019
-0.0403382 111.621 7.35394
-9.68811 106.091 8.48537
-16.2356 110.178 -11.6942
0.880942 118.234 -9.05526
20.8929 125.064 0.851476
-16.6693 109.859 -11.6223
-22.6409 104.163 -4.84327
11.7138 119.055 3.81446
-23.3702 104.287 -6.28153
-18.3483 102.353 5.91031
-4.22227 115.605 -9.58914
-7.9915 106.81 8.57568
18.5296 125.552 -4.06783
-9.48054 106.032 8.44766
-7.78903 113.995 -10.4476
2.82776 113.777 5.08061
22.8402 129.084 -7.5674
17.2581 125.965 -7.14058
-0.643739 117.687 -10.3046
10.9888 118.615 3.54729
13.9919 124.535 -8.03613
18.1506 126.183 -6.60021
16.0755 119.259 8.89867
12.202 118.978 4.08526
-19.7482 102.237 3.65532
2.24167 118.119 -7.93196
18.7448 124.377 -1.38048
2.04135 118.044 -8.09421
24.7864 127.72 -1.82971
3.85847 118.89 -7.89098
19.3633 128.503 -11.7052
16.4731 125.322 -7.30097
8.86875 117.374 3.16566
22.47 128.755 -8.0916
19.0973 126.107 -5.89926
22.3516 128.661 -8.25258
-10.505 112.645 -11.8854
18.0706 126.553 -8.7713
-18.8084 108.118 -11.6382
7.50551 116.418 3.23311
-20.0669 107.011 -10.6225
-19.2449 101.697 4.72798
-20.2831 102.165 1.90628
20.6239 124.317 0.392225
-7.83581 113.334 -10.6995
19.1898 125.012 -3.77557
14.0361 118.488 6.30337
18.971 124.26 -2.19721
-20.3284 102.016 1.60953
1.53175 117.398 -8.61956
24.4439 128.747 -6.59249
9.7911 117.279 3.2814
27.5362 129.322 -3.84068
18.6719 119.955 8.58976
-15.2673 102.306 7.71504
-1.43884 116.411 -10.4966
19.1918 123.857 -1.31498
-2.03016 108.946 8.45583
8.12158 116.257 3.24802
-20.2211 101.7 2.1057
-1.82223 109.046 8.44098
-23.6258 103.461 -7.4414
22.2042 128.221 -8.94113
20.5732 122.787 3.25252
14.1907 123.645 -8.1449
19.2287 123.76 -1.34362
17.8399 124.701 -5.87182
27.4846 128.707 -2.95864
19.995 124.078 -1.21535
-11.9268 103.684 8.15202
17.4802 125.65 -9.04756
-22.2476 101.747 -1.32436
-9.54982 112.26 -11.5234
-18.2102 101.302 5.4617
-3.5444 107.86 8.61953
18.7947 124.632 -4.73543
19.0939 124.654 -4.42705
15.9048 123.964 -7.22943
25.9243 127.499 -2.67088
17.0594 124.188 -6.35623
-10.6671 104.17 7.92337
18.1306 123.465 -3.0499
1.34436 110.89 6.7528
-6.01779 106.385 8.38971
-1.77198 108.583 8.44113
7.95966 115.61 3.2999
25.3447 126.279 -0.740587
-5.2544 106.596 8.40823
14.5307 123.794 -9.65902
-23.4865 101.858 -4.75044
8.01618 119.97 -8.65545
18.3669 125.638 -9.18404
19.3191 123.996 -3.46711
21.1892 128.061 -11.7275
-7.58246 105.408 8.12123
20.7391 127.847 -11.8428
-23.2665 101.493 -3.58081
-20.0078 105.901 -11.0598
-21.7774 104.29 -9.30697
23.2372 127.401 -7.50989
-0.371764 109.108 7.93366
13.7289 123.392 -10.3219
13.8018 123.41 -10.3241
17.9589 123.294 -4.22332
20.2142 120.178 7.27524
-12.1349 110.256 -11.9809
-5.34826 113.181 -10.2439
-19.2456 106.21 -11.2622
-23.4108 101.478 -4.50602
18.5536 123.236 -3.50001
28.3706 127.58 -1.24626
23.4538 127.293 -7.43574
-23.1208 101.01 -3.06457
28.6113 127.653 -1.24591
-12.5046 109.884 -11.9237
17.4704 124.268 -8.05429
20.0804 121.171 3.88785
-6.80175 105.362 8.11214
19.5048 122.907 -1.63966
23.3524 127.162 -7.59659
14.8577 117.027 7.47439
26.442 126.914 -2.73173
15.5661 116.896 8.63295
20.7725 123.266 -1.10172
12.0912 116.669 4.23483
-17.5057 106.845 -11.3147
16.3774 122.783 -6.06501
20.0032 122.877 -1.34449
20.1221 123.063 -1.73973
2.91219 111.235 5.55455
29.1292 127.663 -1.33252
12.7319 116.722 4.68534
20.4476 123.227 -1.96937
-1.06463 108.02 8.2632
-10.307 103.3 7.76457
28.2873 127.076 -1.25184
-20.0162 99.806 3.30999
22.4492 127.693 -11.2823
-10.792 102.908 7.78965
19.4774 122.781 -2.58184
15.9614 116.645 8.83842
20.0261 122.603 -1.37123
0.450795 115.523 -10.1064
17.8627 123.319 -6.41939
3.09475 116.228 -8.35798
14.7604 122.979 -9.96723
6.93832 113.786 3.46951
-8.20899 111.321 -11.4156
25.9024 125.422 -0.931329
-13.8101 108.622 -12.1613
20.7788 122.042 0.657
19.5854 122.352 -1.86981
-2.37219 114.234 -11.1938
18.1835 117.403 9.21159
-19.4709 99.4546 3.95066
20.6412 119.626 6.68957
-23.1651 102.502 -9.42342
-23.3302 102.272 -9.08563
-11.9191 101.896 7.98413
18.227 117.35 9.2158
-4.05819 105.976 8.12173
14.5882 121.867 -8.06729
15.4578 121.673 -6.33619
-12.0895 101.73 8.0107
7.18036 118.332 -9.19277
19.5944 122.271 -2.28721
14.8529 116.067 7.58705
20.0115 119.856 4.74595
21.426 122.305 0.180655
26.6938 125.914 -2.05895
-21.9149 100.161 -1.94846
26.6873 126.029 -2.63004
8.36018 118.748 -9.23149
26.135 125.869 -3.1849
-3.20995 113.372 -11.2778
19.9797 122.068 -1.7903
-7.21457 111.158 -11.0559
19.7985 122.005 -1.93913
11.2887 120.036 -8.71784
26.1351 125.053 -1.17215
-4.37894 105.477 8.02637
12.2887 121.42 -11.0439
19.8852 119.722 4.19055
-11.3087 109.353 -12.1567
17.7655 123.327 -8.6859
20.2551 126.065 -12.509
20.796 119.439 5.9004
18.7115 122.662 -5.66408
-21.1337 99.202 0.705872
11.8607 120.741 -10.2675
17.7027 116.502 9.27713
27.6634 126.527 -3.52274
12.2833 121.215 -11.1504
22.6362 126.115 -9.68169
-12.5133 108.454 -12.2507
18.4899 122.743 -6.66428
22.3361 122.102 0.413635
-6.39755 104.086 7.90219
6.62829 117.439 -9.40625
20.6627 118.757 6.81438
-20.5366 98.6151 2.376
-12.9746 100.458 7.92372
18.1751 121.572 -4.55121
-20.8227 98.5027 1.90047
13.3799 121.384 -10.9682
-16.2058 106.161 -12.1321
17.4183 115.931 9.24078
20.305 120.555 0.931499
-23.8457 99.4656 -5.09111
19.4419 121.599 -3.2719
26.5172 126.295 -6.02478
-23.898 99.3343 -5.20406
6.89398 112.221 3.64458
-21.5658 98.4252 0.303527
18.8572 116.567 8.85722
1.37684 108.036 6.95195
-11.9179 100.624 7.93257
5.03438 115.994 -9.22323
9.00077 113.322 3.50875
-11.784 108.242 -12.2861
6.23315 111.736 3.809
-21.4655 98.7571 -0.703494
-9.37559 102.046 7.54935
19.7633 119.331 2.50338
19.7263 121.445 -3.22602
19.6458 120.957 -2.15304
-23.7148 99.1345 -5.13534
20.7674 121.388 -1.80786
14.7546 121.011 -9.32055
6.49036 116.759 -9.66441
20.7282 119.022 4.2343
-9.77737 101.644 7.57461
10.067 113.576 3.69083
4.98313 110.645 4.29564
21.5765 125.636 -12.3483
18.672 121.663 -5.86389
-21.2155 97.9311 1.15813
25.0738 125.374 -6.82284
20.0322 119.159 2.59977
22.7505 124.657 -8.28837
26.173 124.393 -2.79434
20.6965 117.788 7.10016
12.4355 119.968 -10.4203
-20.1147 97.813 2.70743
16.3418 114.707 9.04758
21.0988 118.851 4.68517
-7.28742 109.845 -11.4075
24.8296 122.4 0.334824
22.7332 121.35 0.1233
-11.2593 100.423 7.86347
28.7043 124.658 -0.459806
18.1869 115.398 9.39854
-11.1072 100.483 7.83478
19.0231 120.86 -4.05334
-6.42707 102.995 7.68711
-21.6731 101.642 -10.5337
0.701019 113.618 -10.9735
-2.75783 104.733 7.85121
28.4065 124.4 -0.758154
-0.281382 113.125 -11.2096
14.6819 120.232 -9.09354
5.5801 115.493 -9.33196
25.994 123.936 -3.10503
15.1025 119.261 -6.03771
14.1865 114.103 6.42244
21.4008 118.6 4.54134
22.5105 124.083 -8.57246
-21.9797 97.4633 -0.406378
-15.0457 105.553 -12.2722
15.2075 113.985 7.90907
18.6481 122.769 -10.7195
-8.24842 101.643 7.62001
25.7547 123.569 -2.95211
19.445 120.378 -3.36715
-21.2455 97.1355 1.19352
-22.3367 98.4329 -3.83466
-23.0451 100.144 -9.50783
14.6988 119.784 -8.7003
-7.26337 109.238 -11.5569
7.23634 111.176 3.72837
-17.9707 97.7046 3.9974
20.5262 120.434 -2.40179
12.9618 113.628 5.08397
26.8929 123.206 -0.903972
-10.4447 100.18 7.77738
1.46659 106.762 6.95979
21.3518 118.464 3.75629
25.1171 121.767 0.234471
-18.3153 103.24 -11.9746
-21.6731 100.887 -10.4704
20.1012 119.923 -2.43371
27.1555 123.453 -2.00848
-17.0185 103.924 -12.3355
-6.89877 109.004 -11.6319
18.9676 119.726 -3.76062
-7.28125 108.84 -11.7892
-22.3303 96.961 -1.34394
9.3345 116.777 -9.60006
-3.52196 110.838 -11.8979
-12.0402 99.0112 7.60354
-9.34784 107.939 -12.4741
-14.4252 105.019 -12.0556
-21.0054 101.102 -10.901
5.80276 114.649 -9.3018
-24.3716 98.1204 -7.80807
-3.23627 103.349 7.92887
-7.04081 108.671 -11.7684
-24.3483 98.1824 -8.20727
21.8059 124.157 -12.5628
20.4699 118.292 1.18094
-21.6746 100.352 -10.4247
-22.4268 96.521 -1.26032
19.4464 120.711 -6.76371
22.6054 123.554 -9.96346
-22.4779 96.9061 -2.53015
7.09701 110.09 3.83209
21.8999 119.956 -1.74043
14.2368 118.613 -8.97277
-6.55924 101.378 7.67766
3.87443 107.83 5.12942
6.94265 109.892 3.87199
24.336 123.141 -6.97112
14.3707 112.728 6.70099
-7.87568 108.131 -12.4534
-2.62004 110.692 -11.8794
-17.3747 103.064 -12.3816
18.3604 113.73 9.48588
15.6796 112.715 8.24961
20.1929 115.301 7.71084
20.3175 120.223 -5.26416
-15.4495 103.835 -12.1917
-8.72697 99.8929 7.8184
5.14738 108.471 4.47354
1.90698 105.911 6.69229
9.88637 116.19 -9.73276
-5.45393 108.819 -11.8133
-21.1821 95.7991 0.719246
-10.2374 98.8501 7.95242
8.25488 110.206 3.7106
12.2918 111.833 4.8226
15.0661 112.195 7.68755
21.1395 123.193 -13.1529
-24.1377 97.0144 -7.23051
19.9073 114.556 8.0923
6.4677 114.097 -9.6671
22.8181 122.514 -9.13206
-22.9925 97.1254 -6.10394
0.0579677 104.068 7.80659
-14.0115 97.3259 5.77459
15.7486 117.62 -6.63745
16.2021 117.093 -4.63459
-19.4871 100.797 -11.5205
-13.7836 103.897 -11.9106
22.8208 123.466 -12.501
19.7317 118.066 -2.52073
-9.37677 98.7206 7.95716
6.15471 113.48 -9.63445
1.0344 111.402 -11.367
-14.6623 103.341 -12.1146
-9.66325 106.253 -12.873
-20.5851 95.1695 1.30368
12.1313 116.441 -9.35691
-12.0065 104.575 -11.7768
20.5812 117.432 -0.147173
-24.3822 96.7476 -8.39021
15.8462 111.723 8.3105
19.7279 113.634 8.6417
6.52435 113.594 -9.89481
-23.4057 97.7697 -9.8992
-12.8614 97.2116 6.4461
-1.91065 102.381 8.03375
2.53694 105.356 6.35137
-6.83102 107.349 -12.331
-16.965 102.013 -12.3901
-17.6053 96.07 2.56864
-7.55891 99.382 7.89062
22.2715 116.814 3.38618
-15.4942 102.702 -12.271
-0.128504 103.228 7.91759
18.8317 117.037 -2.20554
-14.9295 96.4001 5.178
20.6065 119.186 -5.56394
-10.2761 105.449 -12.5806
21.0552 117.063 0.57183
25.7442 119.956 -0.561537
-20.6166 94.9072 0.779524
19.2149 116.864 -1.66069
21.9785 118.974 -3.44519
21.3661 119.188 -4.90645
14.4525 111.168 6.70552
-23.3425 95.6575 -5.25235
23.6971 118.937 -1.09364
-7.82194 98.8846 7.93281
-6.08657 99.7279 7.95535
17.089 116.223 -3.42049
19.8618 116.782 -1.15508
21.2824 114.5 6.91818
18.8765 116.291 -1.33638
14.8217 110.969 7.14477
17.8167 116.116 -2.41134
19.5816 119.283 -8.46177
14.7115 117.215 -9.86509
-24.2821 96.262 -8.99671
20.5537 116.6 -0.101975
4.96313 106.535 4.7686
2.57604 104.613 6.45408
5.40303 112.077 -9.49608
-11.3545 96.955 7.16006
-8.35917 106.083 -13.0767
19.6736 116.33 -0.893423
15.8176 110.82 8.34638
21.9352 116.228 2.45174
19.5292 112.489 9.01521
-6.17854 107.014 -12.6777
12.9293 115.891 -9.41691
-17.2594 95.4576 2.39282
-5.13437 99.7361 8.01406
-23.2753 95.2846 -5.76774
14.1902 116.613 -9.84854
3.55851 111.123 -10.1999
-10.0274 104.606 -12.0879
-20.5903 94.4331 0.138447
19.5838 119.085 -9.18015
20.3347 119.037 -7.99665
-17.3075 100.653 -12.0816
-16.7149 95.3919 2.72115
-6.15644 106.789 -12.8153
7.25485 113.059 -10.6507
20.7596 118.884 -7.2696
20.0845 115.711 0.122511
-21.5658 97.8429 -10.9543
-23.6538 94.4304 -4.88707
18.0803 115.656 -2.8232
11.6711 109.381 4.85393
21.7892 118.555 -5.73803
19.535 115.251 -0.152301
20.7985 118.823 -7.93956
-2.71946 108.101 -12.5385
-23.6335 94.9863 -7.2859
21.3559 113.358 7.1262
19.8921 111.879 8.93221
-9.2336 96.9199 7.76222
17.2013 110.318 9.23209
-11.5136 95.9942 6.79926
-19.758 93.6721 1.24565
3.4604 110.412 -10.832
18.0942 115.303 -3.45973
11.0805 108.482 4.76921
-23.2713 94.4477 -6.36156
1.75666 102.581 7.13277
-23.5214 94.0088 -5.68257
14.3732 115.706 -10.1383
-20.2632 97.8131 -11.4708
-4.39037 98.8567 8.09571
-23.606 93.1179 -3.98063
-23.9603 95.1435 -9.97229
22.3466 113.643 5.97734
20.2346 114.798 -0.130934
6.06962 105.504 4.57807
-9.26897 103.476 -11.8621
-4.69232 98.3972 8.15485
12.4247 114.295 -10.1932
18.1271 114.955 -4.05198
-13.9867 101.052 -12.34
-19.5755 93.0582 0.915884
-14.1624 100.868 -12.3474
14.6819 108.887 6.86509
-11.9068 95.127 6.01286
6.55921 105.367 4.48915
-10.3255 102.338 -11.393
-23.7644 93.4236 -6.57405
17.2865 115.602 -7.94653
-7.2444 96.6332 8.07033
15.2043 108.705 7.49505
15.6932 108.695 8.11205
21.2264 111.82 7.36982
-13.6817 94.2505 4.56963
-5.15751 105.39 -13.3401
-23.6765 93.4755 -7.68652
10.9042 113.073 -11.2134
9.78478 106.551 4.602
13.1494 114.032 -10.673
-21.4652 92.318 -1.56487
-23.9703 94.1297 -9.97893
-13.8664 93.9819 4.40677
-11.5907 94.4575 5.97998
-0.291947 99.8109 7.56844
10.3669 106.444 4.80018
-23.8927 91.8683 -4.68063
-4.32975 97.3787 8.20408
7.25172 110.656 -11.0592
-7.83665 95.6612 7.63385
2.64315 101.61 6.50625
-22.664 94.6356 -10.6754
9.06654 111.34 -10.5999
-6.73011 103.678 -12.4537
22.3995 112.09 6.20237
18.9189 114.227 -4.42962
-6.5196 96.0616 8.0374
18.9218 114.206 -4.51359
22.1715 113.819 0.680572
-10.3988 101.169 -11.5291
-17.334 97.5148 -11.6705
-11.2396 100.744 -11.74
-19.593 96.2324 -11.5186
-10.7168 100.935 -11.6221
-19.6141 91.5671 0.829843
-9.46155 94.6449 6.88766
-23.145 93.8549 -10.394
-12.3613 93.6876 5.26453
-20.2542 91.434 0.124884
19.9076 109.154 9.44675
3.43167 101.549 6.09072
-24.1538 92.9742 -9.97958
16.2823 114.175 -9.63417
-12.305 99.9534 -12.0553
8.65371 110.529 -10.7534
-7.71504 95.0035 7.46857
3.28421 101.29 6.1563
-6.3933 103.025 -12.3613
-4.23796 104.464 -13.2103
11.8828 112.126 -10.9887
5.51271 108.478 -10.6384
-15.5898 97.9245 -12.2487
15.7743 113.562 -9.78965
10.8085 105.317 5.12369
0.102952 106.29 -12.7723
-7.49946 101.734 -11.6822
-12.2292 99.3379 -11.9734
-0.30705 105.965 -12.8801
-1.3009 105.45 -12.922
-19.1461 95.4784 -11.5571
2.64896 107.31 -12.5615
-25.0403 90.3976 -6.64203
-1.5055 105.011 -13.0222
16.9379 106.635 8.48295
23.6305 111.505 4.68244
18.7915 113.117 -6.49607
-2.88126 96.2625 7.92182
-18.4719 90.6522 0.754118
-20.9727 89.5183 0.220555
12.3087 104.956 5.73556
17.7209 112.989 -8.13333
20.3283 107.83 9.31379
19.15 113.011 -6.25166
21.8147 112.944 -2.32079
-0.254453 97.6048 7.48093
-20.8322 93.6298 -11.0707
-22.6099 92.384 -10.374
-7.3225 100.925 -11.6207
15.1534 105.804 7.07249
-24.2987 91.2915 -9.90792
23.8173 111.546 3.86155
-9.90147 92.7692 6.37522
2.924 99.4131 6.70256
7.90265 108.732 -11.3851
14.9918 105.611 6.91152
23.7372 112.151 1.73883
-25.232 89.3436 -6.60344
23.1616 112.314 0.325055
23.9159 111.641 3.18534
22.525 109.67 6.45689
-19.6569 89.5486 0.382563
-22.0138 88.8761 -1.19999
-22.698 89.0832 -2.75636
-15.343 96.402 -11.9445
-14.9569 96.5111 -11.8572
22.3488 112.248 -1.23787
-13.221 97.2771 -11.5924
-25.2066 88.9415 -6.33962
22.0881 112.226 -1.96001
-23.4957 91.1704 -10.1034
8.72707 108.473 -10.9321
23.2273 110.026 5.36533
-10.3589 92.064 5.91428
22.1299 108.755 7.10189
1.26159 97.5776 7.47216
-16.2908 90.6541 1.15619
21.2915 107.849 8.26352
13.4472 110.657 -10.343
5.35829 100.206 6.03862
-4.32981 94.3217 7.99494
-21.9908 91.7423 -10.1055
18.9469 105.948 9.67371
14.2755 104.551 6.78524
-4.36674 94.2122 7.96084
17.999 105.585 9.1045
-18.3208 89.6324 0.265428
-6.61402 100.315 -11.7651
-11.8893 97.2252 -11.1068
-25.45 89.2585 -8.99227
-0.246381 96.4324 7.39553
-3.9175 94.248 8.01586
-19.5359 93.1596 -11.164
11.443 103.105 5.7759
4.64648 99.2809 6.37765
21.5646 107.603 8.00854
21.5452 111.645 -2.91496
-2.31402 94.9887 7.8543
5.68899 99.8505 5.92894
-2.1283 102.749 -13.0321
20.304 111.551 -5.1304
5.26446 106.096 -11.7981
-24.2458 89.6888 -9.67729
8.78786 101.593 4.94214
-2.2177 102.436 -12.9689
-13.7782 90.5621 2.40419
-23.9177 87.5141 -3.7942
-19.557 92.5045 -10.9941
-21.8902 87.2232 -0.212994
-9.26437 91.4066 6.25649
12.0974 102.726 6.16066
14.2724 103.47 7.22506
19.6247 111.173 -5.84634
2.12036 104.218 -12.0734
22.8552 108.332 6.19156
-0.753636 95.3008 7.52962
11.7176 108.525 -10.1836
22.4615 107.731 7.02687
-23.2691 89.7318 -9.71002
1.34571 96.3411 7.37537
9.05504 107.268 -11.0196
-12.3348 95.8616 -10.7906
-7.02964 98.8541 -11.3174
-1.25839 102.476 -12.914
-9.91865 90.9012 5.76188
-22.3408 86.7383 -0.805009
-16.8161 93.6185 -11.6096
-8.2629 91.3141 6.59368
-11.4028 96.0991 -10.6474
-20.4094 87.2842 0.148681
-7.81481 98.0589 -10.8921
-24.609 87.4997 -6.50463
15.5465 103.061 8.62066
17.8778 110.544 -8.09308
0.421122 95.5188 7.3453
-22.446 89.7605 -9.60024
15.3442 109.761 -9.71934
15.7753 102.935 8.87311
23.0484 107.813 6.05483
19.4849 104.64 9.463
4.8978 98.1226 6.17558
-21.046 86.7144 -0.0250532
-23.659 86.4051 -2.93159
-21.9814 89.738 -9.51315
-24.1035 86.7387 -4.50381
14.5352 102.526 7.86519
-24.9006 87.3136 -7.22171
-6.55559 98.4424 -11.1513
-7.7191 91.158 6.60349
-13.8017 94.5835 -11.2141
-18.8392 87.6187 0.251837
-4.60459 99.5624 -11.8147
-12.5244 89.8941 2.73603
-11.8637 95.1952 -10.5149
-21.8468 89.5423 -9.52048
-15.4108 93.6984 -11.58
20.6933 105.021 9.11366
16.8525 102.983 9.07571
-14.451 94.0922 -11.5088
-21.6597 86.0154 -0.20056
-2.28864 93.189 7.96508
-20.0958 86.6746 0.204379
-0.15694 101.992 -12.5685
-19.2322 87.0853 0.283691
20.918 109.548 -3.13079
-3.28872 100.175 -12.4006
23.8213 109.016 2.24147
6.21291 105.029 -12.075
9.78363 106.368 -10.6787
-24.8725 87.4187 -9.06727
7.62108 105.657 -11.9151
-2.69098 100.418 -12.5273
4.55712 104.208 -12.4513
-20.1017 90.2111 -9.89428
16.644 109.551 -9.73236
-18.6651 87.0804 0.342052
-3.18877 92.4785 7.72442
21.214 104.9 8.91839
-26.3126 85.3254 -5.90191
21.4335 105.062 8.73154
23.4608 107.28 5.47977
13.6271 101.301 7.52712
14.1484 108.091 -10.0163
-25.9485 85.9761 -7.60063
24.053 108.613 2.47364
0.382189 94.2284 7.46884
-6.00985 97.6977 -10.83
24.0473 108.486 2.40692
24.6118 108.456 3.16211
8.74915 99.2002 5.40037
10.9657 106.25 -10.3312
-17.122 87.2652 0.522068
13.9667 100.893 7.98246
13.4319 100.701 7.67346
20.3258 103.752 9.25577
-24.0366 87.2498 -9.31163
-12.728 93.7446 -10.7308
21.378 104.33 8.86989
-18.7728 86.2553 0.400107
21.6141 104.5 8.66948
-7.492 96.3777 -10.8265
-1.73488 99.9987 -12.4341
19.2393 108.31 -5.02801
-26.1667 84.7406 -6.21416
-25.4549 84.5754 -4.82514
16.0603 108.389 -9.86904
-17.6998 90.8244 -10.6512
7.66267 98.1757 5.40956
7.21798 104.546 -12.276
14.8346 100.702 8.72745
20.5657 103.526 9.19582
-11.2912 93.9371 -10.2779
-11.0484 94.0451 -10.2452
23.4848 106.394 5.50048
14.0267 100.314 8.31169
-1.37759 99.9367 -12.4292
7.12555 97.6143 5.5477
-21.7835 87.9665 -9.49804
-6.88403 89.8059 6.58492
7.5627 97.8561 5.46902
4.42003 102.604 -11.7181
17.6365 108.546 -9.12061
11.7365 99.4347 6.85183
-2.22599 91.5443 7.87989
-8.70189 88.927 5.59515
-26.6448 83.7995 -6.26743
-6.67191 96.0578 -10.8767
11.9088 105.723 -10.5734
-15.5367 86.8235 1.09781
21.6764 107.547 -1.83769
-15.4344 86.8141 1.1432
5.25591 102.504 -11.7769
9.03211 104.413 -11.6072
2.71309 94.2735 6.53447
18.834 107.671 -6.53723
0.392358 92.6563 7.34715
5.90403 102.796 -11.9967
-25.2548 84.4113 -6.91292
-15.1859 91.3509 -11.3182
-18.2141 85.3269 0.465167
18.6586 107.61 -7.01769
-9.07693 88.4274 5.0092
-4.47081 90.1002 6.96144
2.14871 93.6306 6.81562
9.39147 104.242 -11.388
-1.15408 98.9751 -12.2086
-26.0333 83.0381 -4.81971
-14.7026 86.6146 1.43339
-22.673 83.3083 -1.07487
-20.6718 83.9831 -0.0570318
-4.83779 96.3641 -11.255
3.30123 100.769 -11.5622
5.07531 101.689 -11.6418
0.27222 92.063 7.26462
1.86809 99.9848 -11.677
14.4047 98.9234 8.84024
-7.70459 94.5098 -10.6151
21.4514 106.897 -2.7353
-11.0051 92.5257 -10.2542
22.7933 103.535 7.94216
-13.5251 86.6349 1.79135
-15.9939 90.0274 -10.7555
23.3994 104.071 7.2481
12.1284 97.9003 7.74956
-24.6733 84.282 -7.85581
0.883828 92.188 7.10472
-17.1453 89.121 -10.2833
0.866409 99.2537 -11.947
20.3793 106.521 -3.86398
-15.5116 85.5788 1.34304
3.90517 93.933 6.31379
-0.730788 91.0707 7.40139
6.00464 95.1582 5.97603
-24.5194 82.4833 -3.35565
13.3918 97.9998 8.67264
-26.9412 81.9476 -5.42461
11.1057 104.028 -10.7389
5.94871 101.607 -11.7505
19.7736 106.334 -4.92193
-18.0118 88.3458 -10.2931
-26.9588 82.1674 -6.48763
21.9877 102.364 8.60255
16.6813 99.3997 8.97836
-20.2228 83.2342 -0.0235035
24.0813 106.469 0.347976
7.33867 102.246 -12.1112
-9.97149 92.2958 -10.0599
9.24939 96.2528 6.47282
0.0334037 91.1157 7.15121
6.46084 94.924 5.97371
8.53506 95.9219 6.20042
-21.9803 85.8008 -9.87378
11.3629 96.87 7.58977
-20.2984 82.9552 -0.0196294
-9.80279 86.928 4.16953
-5.90334 94.5123 -10.5903
-7.25038 87.7661 5.49899
-5.81277 94.56 -10.6207
13.5144 97.4344 8.85612
-0.416315 90.6032 7.29672
-20.8565 86.1586 -9.73045
9.27106 95.9639 6.56521
22.577 102.384 8.19648
14.0145 97.5165 8.99157
-22.1505 82.0248 -0.711916
11.6017 103.596 -10.7948
19.0579 100.139 8.90329
24.6539 104.604 4.85038
-19.1758 86.9815 -10.1323
-17.8023 83.7003 0.524297
12.6295 96.7881 8.46437
-12.6314 90.6188 -10.7483
-26.6069 80.9846 -4.76714
15.9838 98.2692 9.17813
11.8887 103.56 -10.7835
-12.667 85.696 2.15409
25.0368 104.998 3.71958
-26.2464 81.0173 -4.7444
-10.015 91.551 -9.97066
-9.26746 91.9214 -9.93966
-24.0492 81.4967 -2.96676
20.5487 105.422 -3.99339
23.9509 103.318 6.38009
-10.5735 91.2096 -10.0363
18.8495 105.638 -7.07395
20.879 100.642 8.87783
14.6143 97.1755 9.09768
9.13826 102.083 -11.7917
-1.45426 96.3298 -11.5965
8.6836 101.859 -12.085
16.6822 98.1223 9.16158
22.4611 101.431 8.16326
5.52755 99.8403 -11.5774
22.1987 105.375 -2.8558
-11.4177 90.3403 -10.281
-20.1602 81.8104 0.00346968
-19.2556 82.2701 0.00962437
24.9986 103.917 4.60874
-18.6825 86.3909 -10.368
-8.62887 86.1362 4.1489
-13.0992 89.4126 -10.926
-15.0843 88.2162 -10.581
-17.8993 86.5127 -10.2979
-1.64165 95.5718 -11.5969
-13.2621 84.2971 2.0362
5.77274 92.6817 6.44198
-16.7064 87.0953 -10.4361
-4.40952 93.5839 -10.4855
12.4345 95.2404 8.81021
-10.2637 90.1993 -9.84226
13.8476 103.306 -10.8658
6.04409 99.4579 -11.6275
-15.7509 83.1349 1.19786
-15.9154 87.3939 -10.4427
-13.4932 88.7326 -10.7555
10.8695 94.6214 7.90266
-16.8155 82.6339 0.766691
-27.123 79.0402 -4.23948
24.9164 103.112 4.90572
5.21733 98.7927 -11.4883
22.6261 104.701 -2.73112
20.4448 99.1904 8.88911
-19.0034 85.4991 -10.3283
-7.942 91.16 -10.0124
-18.3272 81.8913 0.0272
-25.6348 80.9713 -7.85896
-13.3918 83.7704 1.9357
-17.7643 85.9739 -10.2403
18.4542 97.799 9.12717
18.5987 97.8552 9.10728
9.56479 100.92 -12.0094
-24.5246 80.1821 -4.76165
-12.9061 83.7611 2.06137
-27.194 79.4594 -6.67488
17.7856 104.094 -8.9811
19.5942 103.768 -5.77267
18.1254 97.3925 9.11961
-15.2045 87.1103 -10.4935
-20.4226 84.1413 -9.97587
-23.4984 80.0277 -3.35889
-6.75262 85.7838 4.89015
-27.14 78.9519 -5.84433
-10.0684 84.6385 2.74701
20.2527 103.494 -4.86124
19.2979 103.497 -6.22846
23.1354 104.11 -2.46551
15.7189 103.084 -10.2844
-2.05687 87.2091 6.91554
2.22071 89.3763 7.09959
20.2583 103.394 -4.89399
-8.3561 85.0848 3.50544
1.10001 88.5613 7.53049
5.69782 98.088 -11.4251
-14.8628 86.783 -10.2777
24.7547 103.524 0.891666
18.8422 103.286 -6.914
-7.28414 90.5555 -9.88958
24.6583 103.765 -0.0894867
12.7428 93.9902 8.94234
13.8587 94.4679 9.09797
-17.8701 84.8874 -10.1629
-19.0352 80.5736 -0.289691
5.27718 90.6878 7.01782
-4.95802 85.9521 5.20032
-1.805 93.5993 -10.7744
17.1112 96.2035 8.77411
-25.0684 80.2177 -8.18279
-7.63453 89.9335 -9.6888
9.52019 99.7817 -11.9051
-8.50623 89.3549 -9.53266
-24.5203 80.3782 -8.19201
7.39293 91.4492 7.21816
-18.7849 80.4316 -0.407154
-23.508 79.5882 -4.91173
15.7766 102.254 -10.0197
1.2267 95.1282 -11.5401
8.18783 91.7187 7.33978
-7.14517 84.7138 4.31252
-22.6759 79.2175 -2.93746
3.05252 89.0143 7.07966
5.37209 90.132 7.35765
-4.72092 85.6508 5.06225
1.8449 95.2592 -11.4411
-1.75056 86.594 6.60886
-25.6611 79.3763 -7.87832
-12.2895 82.6775 1.96791
-24.2504 79.2834 -5.85657
-14.8646 85.7027 -9.87978
-23.6382 80.3686 -8.18103
21.2837 102.613 -4.17739
11.3275 100.046 -11.3913
13.5541 100.815 -10.3305
10.3165 92.0768 8.40413
15.2604 101.528 -9.88281
6.93611 97.6939 -11.4633
-0.265649 93.6742 -10.9285
-12.3069 82.5055 1.81638
-25.8031 78.8599 -7.62771
23.597 99.4195 7.08175
15.2962 94.3054 9.00093
1.30585 94.5964 -11.5271
10.292 99.364 -11.6338
8.73754 98.5597 -11.7219
-23.1897 79.7148 -6.48078
-15.2951 81.1408 0.822646
25.2505 102.499 0.919579
17.1574 102.175 -9.75914
19.6819 96.6717 8.47924
-7.0989 84.2222 3.90752
12.9372 92.9122 8.95257
25.2624 101.225 4.06377
15.0036 100.95 -9.72993
6.29078 96.9311 -11.3307
9.76138 91.4748 8.13949
22.2111 102.383 -3.4774
-18.498 80.1699 -1.65988
18.3763 95.8641 8.45322
17.2106 95.1162 8.53181
-14.7296 84.9551 -9.56376
13.4146 100.094 -10.3229
-9.74651 82.9714 2.68239
-2.8599 85.5375 5.42327
23.4645 102.398 -2.50778
-25.4379 77.5684 -5.24708
-17.0028 79.9797 0.19254
14.5281 93.3403 9.00698
-0.566096 86.1525 6.77123
-10.8095 87.087 -10.2096
-10.3971 87.266 -10.1933
2.99857 87.6949 7.53056
1.76741 87.038 7.5048
-13.5904 85.3373 -9.63453
-13.7071 85.2586 -9.60976
-16.8943 83.6403 -9.81061
-7.96123 88.1455 -9.27769
-13.5562 85.2908 -9.63651
21.531 97.1437 8.22493
-10.6257 87.0494 -10.2359
11.0272 91.3979 8.7082
1.25936 93.6381 -11.1213
-9.78531 87.2401 -9.85938
-9.42835 82.7632 2.54451
-12.1403 81.7742 1.23544
-22.5309 79.7775 -8.15256
-21.0461 78.6457 -3.06479
-0.60596 85.8437 6.5375
19.4827 95.7938 8.18822
24.7307 99.0901 6.69474
23.0144 101.806 -3.01042
-2.96035 90.5752 -9.71101
-15.5416 83.6952 -9.25116
-19.8024 81.1842 -9.00396
19.362 101.231 -7.3479
19.7383 95.6026 8.19365
-14.6429 83.9032 -9.31463
21.967 101.325 -4.24511
-1.01885 91.4465 -10.3244
-10.6849 86.2459 -10.1009
16.0962 93.2857 8.84279
9.98839 97.4795 -11.0347
-3.82865 89.4151 -9.09805
7.24285 96.1197 -11.4193
-5.51683 83.4293 4.35776
25.0011 101.671 -1.35886
-10.8756 85.9302 -10.059
19.959 95.3689 8.21092
-9.39965 86.5194 -9.70853
24.5682 101.483 -1.77272
11.3488 97.8477 -10.735
4.10455 87.1144 7.69634
19.4587 100.895 -7.47244
-21.835 78.1182 -4.97214
0.590772 85.5326 6.7633
-1.49657 84.8752 5.48787
16.22 99.6444 -9.02531
-21.3643 78.6397 -5.99872
25.6423 99.3084 5.13039
-2.93947 89.5662 -9.25115
-15.1809 83.0757 -9.19891
25.9173 100.102 3.30671
5.34049 94.6832 -11.2851
-20.9436 79.7308 -8.50779
-4.97312 88.2894 -8.86534
-7.11161 82.7351 2.90151
-5.95481 83.006 3.79765
11.1861 90.1914 8.78884
13.7546 91.4559 8.84889
18.2108 100.437 -8.92914
-21.2239 78.1604 -5.15747
5.55535 94.4953 -11.2438
13.5725 91.2042 8.85983
-20.3819 78.2264 -4.45121
1.95855 92.2856 -10.5621
-13.4046 79.975 0.533164
-1.46699 89.9803 -9.62942
13.592 90.9461 8.79374
-13.6256 79.7065 0.38239
20.8912 100.46 -6.41819
2.51447 85.6744 6.94473
-21.7479 78.537 -8.27469
21.7332 95.3694 8.11705
24.8721 97.4537 6.90142
25.214 97.9118 6.02384
9.32329 95.8463 -10.8944
21.5203 95.1291 8.13141
19.3852 93.8111 8.56255
22.2954 95.4079 8.1427
26.2741 99.6231 2.42814
-23.6387 76.9109 -7.47077
-0.129023 90.2707 -9.99718
7.01702 87.3585 7.57985
-17.4986 80.3973 -8.61709
-3.22265 82.9579 4.51008
20.6057 99.7064 -6.69419
-6.50994 86.2284 -9.09152
21.0539 94.1538 8.30672
-13.3972 78.9335 0.0326223
22.7131 94.9131 8.08924
-21.074 77.9457 -8.48897
-5.6291 81.6811 3.32919
-18.0258 78.4428 -5.54559
-5.00866 86.4153 -8.55705
-15.0442 81.3904 -9.37281
-9.07426 84.4487 -9.21388
2.93981 91.2335 -10.4019
6.37176 93.179 -10.7963
22.7318 99.6205 -4.92193
24.8815 96.2832 6.98963
-18.0612 79.3775 -8.51925
20.1045 98.9557 -7.02137
15.809 97.3762 -9.02258
-14.8456 81.2859 -9.35456
8.23971 87.0774 7.70339
7.71047 86.8697 7.49091
15.4521 90.5978 8.45551
-6.60999 85.4352 -8.92302
8.14909 86.9938 7.66059
14.5357 90.0426 8.4534
3.98392 91.502 -10.5338
-19.2395 78.452 -8.53713
-12.9344 81.9924 -9.18852
26.108 99.4291 -0.718434
-5.56324 85.5647 -8.6001
-13.3725 78.3438 -0.344315
-4.33546 86.0772 -8.47191
-12.482 78.6182 -0.0762158
23.2822 99.1229 -4.37634
26.6028 98.6723 1.48326
19.8747 92.4712 8.50073
4.46101 91.3416 -10.4043
23.8389 99.0729 -3.91532
26.4692 98.8316 0.262731
-11.5928 78.7333 0.0284977
21.7014 93.2023 8.1871
3.24482 84.3102 5.86383
23.0598 93.9655 7.95831
13.0204 95.3113 -9.86542
14.1782 95.6686 -9.47145
-13.1206 81.004 -8.99617
26.475 98.5531 -0.0958115
15.0302 89.3646 8.11987
26.3794 98.6259 -0.650858
14.3988 89.0001 8.11124
-8.29745 79.6178 0.946311
10.2414 86.8153 7.81643
21.0929 97.5672 -5.73047
3.55851 83.9769 5.72448
22.4205 97.6832 -4.25635
-11.7229 78.1873 -0.388398
14.9313 95.5341 -9.1494
-16.2291 78.8243 -8.5765
-1.92652 86.2316 -8.30298
11.7022 87.3127 7.90429
7.37389 91.7249 -10.0342
-20.5551 76.0384 -7.69136
17.5502 96.5023 -8.5596
-4.18336 84.846 -8.34363
-5.75385 79.9793 2.06506
4.90952 90.1078 -9.94786
21.0652 91.6966 8.26231
6.49723 84.6778 6.38363
-6.5364 83.295 -8.46681
-10.0338 81.5181 -8.81291
24.1086 93.3357 7.73496
6.22046 90.4169 -9.79929
-6.71352 83.0887 -8.50627
-4.81522 83.8489 -8.13247
-11.1515 80.6697 -8.61169
13.0243 93.6139 -9.43831
3.81727 88.8053 -9.61657
22.9732 96.5098 -3.22129
-10.6356 77.8254 -0.827566
-3.22413 80.4073 2.72917
13.167 87.2236 7.66105
16.9965 95.2621 -8.5718
-3.54014 84.1845 -8.06435
25.3576 94.3423 5.57207
17.7206 95.3151 -8.04675
27.2 96.028 3.22766
24.8956 93.3529 7.07172
-6.05768 82.7644 -8.37934
-9.16976 78.0451 -0.200592
-10.58 77.6145 -1.08164
-6.93896 82.3198 -8.57354
-15.2531 77.9142 -8.57374
17.2961 89.0342 7.59446
5.50178 83.3762 5.89669
-0.888963 85.1507 -7.89186
5.49786 83.3609 5.88966
5.20005 88.9288 -9.42535
24.9973 93.2843 6.80671
24.3558 96.3189 -2.2376
-7.61919 78.4042 0.352938
10.5001 91.7356 -9.71106
-7.44132 81.8492 -8.63576
19.249 94.9165 -5.97515
26.1356 94.7774 3.87146
22.694 91.4464 7.8978
-3.71159 79.6448 2.08559
14.3921 93.3575 -9.05395
13.5863 92.9261 -9.09916
0.21934 81.0161 3.79271
23.2294 91.6224 7.8212
18.9515 94.7397 -6.55777
3.63451 87.6494 -9.28182
-11.3372 79.3049 -8.19682
-10.0457 77.3134 -1.18012
19.3234 89.4852 7.75603
16.4424 93.9788 -8.49724
3.80861 87.5409 -9.22404
27.024 95.2825 2.80869
14.85 87.1154 7.05523
-9.52942 77.1318 -0.727055
-1.43737 83.9867 -7.66963
-3.52944 82.9044 -7.80528
-3.84702 79.1651 1.68711
25.2672 95.8824 -1.89179
24.2549 91.762 7.34024
-0.733225 79.9705 3.29645
18.7372 94.0932 -7.02208
-11.7343 78.2105 -7.77288
5.74083 87.924 -9.06568
-13.9762 77.1162 -8.04903
-3.77971 82.4235 -7.85002
19.4069 93.9163 -5.83143
-15.8094 76.192 -8.29274
27.3524 95.0417 2.29395
-4.90752 81.8446 -8.08666
15.4708 86.9311 6.97908
8.25982 83.3728 6.18886
-3.00599 82.5997 -7.68977
19.1875 88.6076 7.58124
3.97616 81.6101 4.76176
10.3758 90.2702 -9.35966
-1.59916 79.4231 2.56199
-0.905935 79.6013 2.99447
23.7856 94.8559 -2.91711
15.8299 86.8514 7.036
-14.5455 76.4306 -8.08548
13.1792 91.3508 -8.93213
10.9525 90.2392 -9.25439
20.1296 88.5798 7.70736
18.3045 87.659 7.36747
22.602 89.7962 7.58088
14.6792 85.9776 6.58979
-9.02756 78.9025 -7.98355
-7.02497 79.9606 -8.21445
8.38376 82.8236 5.88784
20.4644 88.4823 7.6983
6.59975 87.3226 -8.87473
-10.3418 77.8698 -7.54569
22.4036 93.6847 -3.71822
-11.3041 77.2341 -7.41217
15.9349 91.7754 -8.20994
12.5333 84.4103 6.57625
25.2924 94.5042 -2.37859
17.2938 92.2215 -7.65537
10.2229 83.2971 6.07901
9.90046 88.6797 -8.92468
-5.01155 77.5677 -0.495274
17.4861 86.5638 7.19887
3.62142 80.4398 3.89975
26.6192 94.398 -1.01548
8.30922 87.6421 -8.86486
10.9469 89.0234 -8.86172
-1.05451 81.9135 -7.23329
17.8055 86.4664 7.21421
-3.53819 80.7481 -7.7513
25.9792 94.1046 -1.81459
-3.95843 77.6556 -0.189527
26.2053 92.3779 2.9514
26.7802 92.9958 1.99111
10.8879 83.0932 5.99198
2.72176 79.706 3.50182
5.59744 85.7467 -8.57771
27.0256 93.1535 1.76546
-8.62746 77.7042 -7.3261
-2.71066 77.8581 0.517652
22.5606 92.838 -3.83963
23.9534 93.3739 -3.35575
18.5096 86.4794 7.27098
27.5359 93.7134 0.636583
21.1248 87.7551 7.44548
15.9678 85.3399 6.611
8.04607 86.8563 -8.67246
4.71357 80.3666 3.78848
-7.53413 78.0592 -7.38171
25.1654 93.6028 -2.73716
-6.83393 78.4652 -7.48492
19.0155 90.9018 -4.75063
-4.52415 76.6752 -0.0635811
10.3752 87.6092 -8.36401
17.7013 85.7206 6.99025
12.3818 83.1763 6.03594
12.1665 83.0605 5.9895
-2.22104 77.5171 0.429645
5.65368 80.2965 3.94834
18.578 90.7353 -5.9168
18.8806 90.4706 -4.81799
18.9006 90.4299 -4.82587
1.56678 82.0993 -7.13151
18.5179 90.9601 -6.95617
25.7253 89.8059 6.2879
26.6662 91.0864 4.1919
-8.81751 76.3668 -6.76689
-9.81037 75.6244 -6.80204
24.1693 88.4042 6.99
-5.50578 77.9061 -6.9243
23.5509 92.0601 -3.71588
15.3823 84.02 6.03923
-3.29719 78.9111 -6.81606
23.3919 91.7847 -3.83929
20.5749 90.5773 -4.70235
-2.24497 76.7879 -0.104578
-5.92412 77.3036 -6.71392
27.7188 92.3773 0.517832
9.68903 85.8657 -7.57524
21.6066 90.9534 -4.44346
18.4381 84.9252 6.80281
7.92587 84.605 -7.49768
7.83615 80.1116 4.27781
26.2656 90.4814 2.32521
-1.05348 79.498 -6.95702
24.3549 91.5561 -3.34568
-8.56558 75.2624 -6.40424
9.81991 85.2791 -7.28967
-1.39839 79.0147 -6.78492
13.7465 82.456 5.32194
-5.53764 76.6329 -6.45239
18.3112 88.534 -4.74294
-0.824385 79.1933 -6.81106
14.8396 82.8179 5.50946
23.0108 86.5948 6.8592
9.51901 84.607 -7.287
-1.37131 75.941 0.147642
19.7475 89.0147 -5.08844
0.951525 79.5197 -6.26754
7.58216 83.4284 -7.47535
22.9552 86.0492 6.58627
1.72258 76.7697 1.35371
-5.36596 75.8875 -6.32204
0.468599 78.9109 -6.29785
-1.69607 75.2653 0.261319
22.3292 85.578 6.48562
23.6557 90.0307 -3.76973
16.6773 87.5096 -6.91236
16.6345 87.3917 -6.93477
25.1068 90.2669 -2.79107
-5.26253 75.4539 -6.25023
3.61445 80.1971 -6.3945
25.6898 90.2839 -2.21004
4.17631 77.2963 2.05634
21.4806 89.0033 -5.01162
13.4098 81.0426 4.81299
17.255 86.7379 -5.14921
5.81096 81.3134 -6.85299
-1.02321 74.9995 0.326201
16.2976 86.5703 -6.33957
21.017 88.6098 -5.23225
22.9624 85.2814 6.13293
27.4643 89.9597 -0.0556291
18.6608 82.8965 6.20321
0.0913977 77.6417 -5.99946
7.40511 78.1384 2.96665
19.7118 83.4229 6.17397
3.56305 76.5443 1.65707
26.3123 88.3409 1.9566
20.6254 83.7087 6.15481
26.3936 88.0105 2.77487
6.69019 77.5285 2.73234
24.9874 89.2362 -2.80091
23.7493 85.4481 5.2876
15.0428 85.5839 -7.46303
7.85031 81.5939 -6.96122
9.66391 82.5776 -7.20126
21.2928 83.7572 5.96416
5.46071 79.9556 -6.30477
19.918 87.3526 -5.78573
7.30524 80.8193 -6.54775
-1.12739 75.9223 -5.93064
25.5899 88.2146 -1.21334
15.1858 84.8601 -7.04974
-1.91541 75.4304 -6.15134
8.62879 81.0335 -6.62929
24.817 88.0388 -2.67693
20.3233 82.5602 5.48861
11.8054 82.5983 -6.82056
7.34604 79.9712 -6.25304
17.9721 81.0813 5.5879
2.66635 77.1016 -5.82699
2.75528 74.5268 1.0322
8.07571 80.0338 -6.19615
26.1818 87.482 -0.570903
25.0868 87.2204 -1.57123
10.1865 81.0535 -6.48181
20.9956 86.152 -4.84279
5.62695 75.4856 1.81976
21.0394 82.45 4.75764
26.2329 86.5911 0.905924
17.4124 84.2041 -5.47362
26.9003 85.6288 4.08045
26.209 86.2135 1.45261
19.9882 85.6794 -5.98469
20.035 81.5975 4.77577
11.9865 77.8707 3.34171
26.1341 84.8392 4.52691
14.8291 83.1946 -7.09265
26.2292 87.0746 -1.36869
20.7038 81.9256 4.52414
21.1913 82.2197 4.39568
5.65162 75.0116 1.56893
7.93719 76.0637 1.85434
25.2746 84.5837 3.52881
15.2056 83.1534 -6.93265
19.3633 84.7696 -5.59237
27.2685 85.6163 3.13364
24.7759 84.166 3.46526
19.4128 80.873 4.66525
23.5836 83.2425 4.05326
27.2984 85.346 3.15851
15.5822 82.7599 -6.63194
8.98663 79.0534 -6.10898
12.4149 80.8716 -6.3966
