ply
format ascii 1.0
comment Created by Open3D
element vertex 1818
property double x
property double y
property double z
end_header
-15.233 110.148 -10.5936
-17.0597 77.9725 3.80142
6.87779 114.467 10.269
10.2775 135.48 3.10571
15.4056 142.649 4.82047
15.4443 141.842 5.26573
5.68874 108.764 11.8759
-22.1536 78.0374 -1.63441
3.56075 136.786 -4.6069
-3.68854 127.203 -7.32222
13.8947 142.016 3.50806
3.46175 103.203 12.2901
7.99295 148.181 -5.87707
-14.9158 110.927 -10.9098
-16.2476 78.4372 4.13254
16.874 148.942 2.91517
-19.6661 76.3785 1.55708
-20.8611 76.0742 0.44685
-16.9418 104.235 -9.77887
-3.65152 91.496 10.5646
-21.4932 84.7922 -4.71949
-6.09764 122.609 -7.9081
-5.92411 122.79 -7.84623
10.4488 149.945 -4.5378
-5.27244 123.584 -7.58755
-17.7477 76.6416 3.20183
16.6999 149.912 1.97853
11.3789 138.597 2.1326
14.7116 137.207 6.32209
13.8084 141.769 3.03654
-6.29006 90.7144 7.94581
4.61644 105.263 11.9317
11.7073 139.336 2.01519
13.2575 150.322 -1.97317
-9.61328 87.0749 6.25688
-15.2699 107.345 -9.99261
-10.3979 117.679 -10.1864
2.5068 99.9205 12.3439
7.68357 121.068 6.9931
9.49681 150.02 -5.83595
16.9337 149.56 2.15147
16.4728 144.351 4.24196
11.4504 138.344 2.00379
-15.7206 78.1274 4.18481
6.37802 141.992 -5.1743
9.62379 131.427 3.57877
-8.73677 87.8729 6.48149
-20.1054 74.9192 1.14951
6.96038 111.94 10.5882
-21.3839 74.9278 -0.258908
-9.86182 84.6237 6.86468
15.8827 151.129 -0.021065
17.3983 146.721 3.80123
-8.82473 118.494 -9.28403
10.1583 132.803 3.28891
10.8859 135.064 2.86989
12.497 150.07 -3.08409
-6.70465 89.1192 7.78545
16.3717 141.569 5.2566
4.10549 102.523 12.2716
14.1095 137.497 4.94425
-8.95064 86.3611 6.80092
-14.8519 108.035 -10.4012
9.05816 127.771 4.57249
-22.4361 78.2877 -3.2177
-10.87 82.8273 6.54684
-7.3476 88.6787 7.2476
-14.4269 110.291 -11.1688
6.47321 108.993 11.3229
-6.54918 88.7323 7.99312
-0.373601 129.968 -6.51536
-4.56235 123.673 -7.69859
-0.556944 93.8081 11.6062
9.74268 130.52 3.60024
7.86266 117.067 8.45107
-22.3801 78.7518 -3.75131
0.645206 130.19 -5.85554
9.94654 131.237 3.32172
-19.5555 89.1429 -6.15106
-3.3726 125.703 -7.82145
-6.10701 88.188 8.38891
-20.9274 85.4132 -5.71469
-5.30525 122.244 -8.09842
-1.85987 128.228 -7.66101
13.9339 136.264 4.771
-4.00668 89.6932 9.68041
15.6931 150.413 -0.663537
-0.0186734 129.233 -6.34733
-8.91439 84.0377 7.30456
-18.9024 74.8064 1.538
-8.31725 84.6249 7.5837
-3.78526 89.4267 9.86858
-5.13766 88.8447 8.73998
9.29431 127.209 4.30729
3.04191 98.9818 12.1005
-18.481 95.0743 -8.45437
-20.9281 83.3826 -5.08399
8.76233 124.613 4.97983
15.5654 137.469 5.54139
-7.2658 87.1316 7.24913
-10.5692 81.5109 6.64237
12.7861 139.439 1.5752
9.01637 125.58 4.66328
-9.54024 116.436 -10.1228
-19.8137 73.9214 0.722958
-14.3933 107.884 -10.8858
0.864052 129.291 -5.8161
-14.0854 109.209 -11.2626
14.3793 149.758 -2.1097
17.4169 142.007 5.00498
-1.26057 91.7986 10.9916
6.0216 137.833 -4.86211
13.6916 149.865 -2.98534
-18.7366 74.5428 1.38581
-1.82229 90.47 10.9495
-3.93426 123.409 -8.02688
13.8376 135.563 4.35978
13.821 135.784 4.2144
-9.09279 82.641 7.23929
17.7651 142.822 4.70021
-15.4749 76.1048 3.82146
18.0366 148.865 1.86627
-13.4475 78.7257 4.53091
-4.41926 122.19 -8.12657
15.8969 136.712 5.73802
14.3778 132.481 6.2632
-1.83791 90.0949 10.8235
8.843 123.064 5.2314
-18.0318 95.4017 -8.82736
-21.7113 81.1839 -5.49442
-0.115875 92.7101 11.2245
7.37744 109.824 10.3574
-1.62678 90.1321 10.8753
6.51987 139.419 -5.69623
-17.9567 74.5051 1.68958
-8.36751 82.8919 7.42096
-15.6576 103.817 -10.8585
10.5914 130.631 2.9406
4.57688 100.833 11.7903
-6.40308 85.8834 7.89348
5.48989 135.461 -4.8839
18.1623 142.809 4.6154
18.1196 142.401 4.75848
6.50479 105.282 11.4658
9.47293 125.485 4.29168
13.1026 149.312 -4.11498
-18.5769 73.9856 1.02448
-21.6274 80.4955 -5.49229
-0.440938 127.053 -7.04256
-12.0413 78.752 5.34144
3.46748 130.674 -4.89606
0.562631 127.706 -6.45145
14.8635 130.902 6.81273
14.3613 133.796 4.78614
-1.61384 125.925 -7.96611
-16.4543 74.8538 2.46716
14.1453 135 3.89357
2.13219 94.3814 11.9777
9.29151 146.467 -7.02589
-21.3578 81.0525 -5.87896
11.1 131.378 2.4907
-22.6509 76.1406 -4.78085
9.41925 123.792 4.53532
-5.37698 119.827 -8.9337
-13.7731 76.3327 4.20563
14.7708 130.954 6.28062
8.12989 111.668 9.10624
5.25236 133.17 -4.84667
10.1713 126.452 3.70369
-8.66271 115.029 -10.1969
6.57831 137.458 -5.71298
13.7394 137.056 1.96074
14.9362 148.693 -2.74986
9.60747 146.333 -7.14214
15.8656 148.603 -1.75809
10.6426 127.93 3.27579
-22.6108 75.9884 -5.1255
8.97099 118.563 6.22952
-1.72268 88.8959 10.1243
0.623021 91.6183 11.1328
8.6734 114.476 7.90775
9.34708 121.485 5.00375
-17.9025 89.6378 -7.37565
-6.54432 83.1572 7.79783
-10.379 112.87 -11.3256
15.1603 129.213 7.0606
-4.53064 85.6431 8.61291
9.07545 119.029 5.87019
19.8113 144.846 3.94222
-2.012 124.641 -8.623
15.3226 148.205 -2.47602
-7.77567 115.203 -9.88273
12.0054 147.898 -5.83336
16.1817 134.109 5.5065
12.5573 133.539 2.00194
7.04269 104.518 10.9655
13.9094 148.433 -4.18579
-4.72158 85.1671 8.46676
3.59673 128.641 -4.99305
-18.8101 86.3416 -6.94352
14.4313 134.528 3.30423
-14.819 74.9951 2.9593
-22.6484 75.5976 -5.55119
19.4782 147.88 1.72484
-10.9021 111.288 -11.4926
6.70587 102.675 11.2821
-5.52897 83.7501 8.09546
19.6934 147.306 2.15933
-3.44386 86.0482 9.0285
-3.64168 85.9352 8.87219
5.27055 131.591 -5.0808
-3.7926 120.312 -8.85028
-12.3412 76.6367 4.35127
0.53787 125.87 -7.21136
18.6881 140.142 4.50295
16.3891 129.067 7.60525
16.4977 131.587 6.4208
12.1292 130.274 2.40787
16.9373 134.704 5.18594
-20.228 82.0157 -6.91364
0.147739 89.1691 10.7674
20.4173 144.32 3.92415
11.1271 146.714 -7.03009
-13.2713 105.447 -11.5778
15.3085 129.942 5.86538
-13.4071 104.752 -11.3842
0.110178 89.0191 10.7291
19.3411 140.978 4.37732
7.85427 140.264 -7.32446
8.14556 140.991 -7.39986
9.52209 118.039 5.624
0.250817 88.9649 10.7073
10.7648 124.755 3.46138
-0.726904 123.952 -8.15421
18.6792 149.02 -0.606365
12.1957 147.276 -6.50762
7.71425 139.091 -7.09715
18.0746 137.809 4.38639
6.15598 132.547 -5.41016
11.7468 127.907 2.78248
-20.9505 78.6234 -6.45232
16.6359 131.885 5.78294
2.7677 126.698 -6.09076
14.9276 131.658 4.0799
5.53443 97.9668 11.3536
15.168 131.343 4.39983
-7.58913 113.482 -10.3597
14.2382 146.868 -4.50448
17.1119 136.146 3.9093
14.3742 146.731 -4.34802
5.86666 131.146 -5.33243
-4.94069 117.161 -9.52968
8.71659 109.678 8.56328
17.3579 135.673 4.35002
-13.9007 102.505 -11.5075
-17.0281 89.2764 -8.10445
20.7707 143.279 3.97688
19.6771 140.646 4.16307
-12.5032 105.897 -11.8447
-4.25798 83.6177 8.10106
8.32614 107.008 9.37317
8.5937 108.279 8.94973
-19.4683 83.5006 -7.85406
4.15024 93.6215 11.6724
-19.0566 84.1729 -7.82318
6.59901 99.0955 11.3384
16.5147 147.519 -2.91319
7.4627 134.904 -6.04854
-10.881 75.9986 4.70557
14.5645 146.215 -4.43503
-21.2894 77.3014 -6.91678
20.7749 147.186 1.50884
4.61531 94.1922 11.5447
18.4713 137.391 4.02925
6.74292 132.597 -5.82866
-3.24482 84.4027 8.22011
21.2892 143.645 3.71358
21.2901 144.821 3.09455
6.38906 98.084 11.2454
5.41754 128.061 -5.01544
20.5187 141.77 3.79389
4.90968 94.6177 11.4293
-10.2673 75.9983 4.99919
14.2211 146.075 -5.01641
-14.8974 98.4836 -11.2896
17.3982 125.482 8.76911
13.4924 129.471 2.64016
-19.0694 82.9332 -7.79558
8.04125 135.5 -6.17719
9.44945 112.101 7.16094
20.7742 147.845 0.738471
20.4055 141.048 3.79169
9.34621 111.105 7.43065
11.7193 123.928 3.3723
17.1957 147.39 -2.84645
1.72637 88.787 10.7646
-0.428586 87.0605 9.38594
-8.69188 110.978 -11.4587
6.88779 98.6207 11.1256
-20.8924 77.4267 -7.18532
11.8847 124.016 3.32942
-12.9445 102.406 -11.7256
15.3045 129.088 4.25402
15.3658 146.24 -4.40634
-17.3106 87.2437 -8.60335
17.7128 133.761 4.36626
21.3591 145.734 2.09068
6.616 130.395 -5.53682
-20.2618 78.2229 -7.19299
-10.8359 107.112 -12.0245
2.22648 124.562 -7.25375
1.84705 124.41 -7.5988
16.2464 124.791 7.26933
-12.8518 102.128 -11.7437
-8.54366 110.548 -11.5289
3.35732 89.9062 11.4117
14.4232 128.585 3.24365
14.303 145.299 -5.42345
16.2696 126.448 6.15814
14.286 128.177 3.19169
16.6091 146.782 -3.85886
21.8049 142.855 3.57385
-14.2559 98.4329 -11.5916
-21.1331 75.4571 -7.10553
-6.94551 111.828 -10.79
12.7883 125.278 3.0026
-4.24714 115.824 -10.0334
-2.80829 118.765 -10.0257
7.25479 98.3047 10.8723
11.539 143.272 -7.55422
-12.686 101.68 -11.7708
22.0122 143.466 3.28181
18.3598 135.261 3.60624
-8.15448 77.3917 5.26015
6.38865 128.062 -5.34261
3.81157 89.621 11.4944
20.1489 138.81 3.57252
8.81474 136.085 -6.92166
19.3081 147.691 -1.87356
9.75541 110.752 6.91141
7.32051 98.0413 10.8147
-12.7455 101.224 -11.8174
6.7905 129.184 -5.59604
20.5265 147.736 -0.671352
-15.7949 91.6926 -10.2202
20.0163 138.107 3.63705
17.704 128.556 6.03897
17.1314 122.029 8.74199
-20.8052 75.8548 -7.50475
-20.7113 76.2406 -7.6464
20.0278 137.896 3.6266
8.0928 132.883 -6.31339
2.11713 123.148 -7.63147
-20.4983 77.0506 -7.87843
18.4533 124.234 8.85017
21.9532 142.138 3.37644
18.6079 124.725 8.71084
17.0514 146.101 -3.81104
8.17265 132.801 -6.37539
-11.5767 102.481 -11.6236
13.1764 144.709 -7.23328
-20.6925 75.7566 -7.61834
15.1786 127.172 3.76647
-12.5851 100.72 -11.8323
-20.4378 76.9818 -7.99415
-5.84625 79.5547 5.93468
18.5155 135.74 2.81305
21.7998 146.911 0.556807
-6.8814 78.2351 5.4671
10.4233 113.529 5.62594
5.83947 125.82 -5.43048
18.118 125.921 7.3503
-2.20583 83.2084 7.72338
13.7709 144.672 -6.86474
-10.5164 105.65 -12.4435
13.687 124.676 3.19734
1.10479 86.9316 9.21267
-3.96706 115.079 -10.4092
-20.414 76.4696 -7.99514
10.4241 141.101 -8.62831
12.9849 122.474 3.51887
9.30701 105.956 8.0547
22.2673 144.427 2.04674
9.69486 107.616 7.60167
8.4431 100.848 9.70572
19.8303 147.325 -2.03807
5.79556 125.271 -5.53491
9.56976 137.661 -7.9546
-5.28708 112.967 -10.999
15.6192 124.782 4.85474
15.1621 126 3.75644
14.8516 125.758 3.55418
-19.269 78.2801 -8.00569
15.5867 124.407 4.96756
5.52901 92.3119 10.7516
18.4726 132.557 3.82887
20.1181 147.207 -1.94111
22.4117 144.252 1.91788
0.746027 121.669 -9.29015
-7.43949 78.3357 4.15118
15.2672 125.08 4.13845
-7.29086 109.097 -11.4502
18.6346 125.271 7.4031
-17.0122 84.9448 -9.40367
-20.1705 76.1272 -8.22749
-0.842534 83.4643 8.25486
18.5843 130.912 4.4374
11.822 142.078 -8.32356
-7.39101 77.8326 4.23661
18.5897 134.608 2.54237
17.2007 144.377 -3.93143
3.69147 122.414 -6.92298
15.5013 122.856 5.18194
18.323 133.609 2.61513
3.09137 121.752 -7.30719
15.8886 122.179 5.82043
17.3325 120.071 8.37421
18.1026 120.03 9.17615
-9.25864 106.159 -12.4293
-9.88489 103.919 -11.9519
22.4821 145.716 0.657881
-7.61099 108.072 -11.7033
15.1235 123.221 4.36089
-5.71985 110.94 -11.2699
-16.7727 84.7976 -9.54106
2.67863 121.381 -7.79681
-12.2739 98.8664 -11.9974
7.63764 128.554 -6.26636
19.8413 146.704 -2.73166
21.9851 146.633 -0.502958
-18.8606 78.2241 -8.46368
-20.1376 75.0521 -8.19675
-2.3422 117.114 -10.9667
-14.9952 88.8738 -9.86173
18.7162 125.54 6.75421
4.16199 122.16 -6.84774
16.7731 120.47 7.13245
16.0608 143.394 -5.30919
19.2204 124.904 7.35152
2.23793 86.8472 8.9297
19.5879 122.529 8.89322
14.4975 121.841 3.91214
14.3086 120.927 4.09789
7.82714 128.164 -6.39989
4.19393 87.6094 10.4024
-12.3912 96.7524 -11.6058
-1.96457 117.236 -11.1149
8.03959 129.154 -6.73684
3.31861 120.898 -7.48605
19.2101 133.314 2.80566
-6.71196 76.4561 4.56594
6.92771 124.758 -5.74472
11.2763 140.549 -9.23276
11.4699 140.639 -9.08449
18.7527 118.962 9.49372
9.28145 133.061 -7.6423
-1.01631 81.8189 7.61718
19.7727 146.029 -3.28478
19.4783 120.373 9.44952
6.01479 90.2124 10.6917
21.8943 138.662 2.66416
5.10678 88.1267 10.7764
7.35212 126.097 -6.18885
10.2187 104.879 7.5955
-1.24651 81.4914 7.45386
4.56573 121.55 -6.83804
18.3172 144.937 -4.37242
11.3871 140.144 -9.22606
19.1413 119.098 9.57421
-12.2414 95.2245 -11.1597
19.5856 120.216 9.42976
15.7209 121.338 4.79975
0.916839 119.79 -9.90386
-0.369377 118.857 -10.7856
-8.35662 106.106 -12.6653
19.5471 145.841 -3.72754
20.1131 123.099 8.39456
-16.2564 83.9876 -9.7991
-2.20986 116.051 -11.4482
9.86873 100.906 8.88054
18.2297 131.846 1.88882
-8.5728 105.61 -12.8147
21.8558 137.923 2.56583
6.26097 89.5972 10.8141
13.1676 116.634 4.26682
-17.3745 79.571 -8.88131
10.3934 136.318 -8.72447
17.5188 118.431 7.79847
-3.89031 78.7933 5.51713
10.0968 101.704 8.49921
16.4347 119.749 5.93751
14.8901 141.952 -6.99121
2.56609 119.803 -8.62644
-17.2774 79.4567 -8.9306
-5.2615 110.03 -11.9207
5.08581 121.147 -6.78904
3.36305 86.5984 8.97617
6.84392 91.9689 9.87797
-9.50868 101.3 -11.993
19.3558 130.588 3.28551
-18.8029 76.6794 -9.23262
13.1627 140.305 -8.15977
-5.24957 77.6831 4.40949
-13.8246 90.9889 -11.3793
10.0726 100.222 8.90671
3.46291 119.517 -7.85081
13.3003 140.245 -8.09844
10.3678 102.002 8.26916
21.0812 135.366 2.46242
23.6167 143.74 0.841304
-16.2492 81.8215 -9.40743
9.40193 98.1264 9.13888
3.30873 119.013 -7.85893
5.92749 121.771 -6.53266
21.7113 136.444 2.51728
-16.2789 80.3376 -8.72134
7.71832 93.4926 9.64733
18.6262 116.596 9.30926
8.56363 95.964 9.25958
-16.2191 81.376 -9.25738
-8.45509 103.542 -12.457
13.5288 139.938 -7.99443
-11.6206 94.4167 -11.172
23.2265 145.129 -0.513683
21.5765 135.452 2.67412
3.69745 119.14 -7.74845
-4.67111 77.2821 4.72089
17.038 141.004 -5.03568
14.9788 140.906 -7.15447
11.5776 108.147 5.89405
23.8972 139.491 2.83061
2.80846 85.271 8.33484
-19.1816 74.7005 -9.30889
17.3258 117.227 7.25235
10.8348 103.429 7.45348
20.7124 121.707 8.48697
8.31464 94.5121 9.34291
18.2602 116.114 8.76354
8.92258 128.919 -7.52256
12.6914 112.087 4.95361
0.0646191 117.466 -11.0473
7.89206 93.2043 9.45196
12.8186 139.185 -8.82955
16.6796 118.159 5.90023
-15.9588 80.4155 -9.05976
11.5515 107.301 6.04987
-10.1091 98.298 -12.0691
18.2671 115.745 8.72634
16.5644 118.246 5.66745
-13.5644 89.8953 -11.4504
20.6331 119.712 9.16172
3.95797 86.2217 8.74132
2.92519 85.0368 8.232
5.62987 120.404 -6.92431
-0.951629 115.913 -11.5321
-2.08392 114.398 -11.9988
8.33685 93.9669 9.28625
20.6387 131.668 2.92681
19.5008 131.541 1.78483
12.5318 110.228 5.29304
-17.0308 78.2456 -9.41438
0.822872 81.8202 7.43806
-15.9111 79.718 -9.04855
-7.7317 103.722 -12.763
20.8578 131.413 3.04348
-15.718 81.2336 -9.75146
5.66172 119.99 -7.10211
15.0767 139.799 -7.35624
-11.4147 93.1755 -11.3778
-4.18601 76.9166 4.44437
0.772653 116.855 -10.6862
19.265 114.933 9.61999
-2.18673 78.3386 5.74756
17.6325 115.309 7.677
24.3443 143.069 0.583348
-6.78928 105.875 -13.0925
-1.44823 79.5281 5.88839
0.498585 116.783 -11.0415
18.8527 129.809 1.5165
16.335 116.475 5.6447
-3.67742 77.351 4.60017
3.495 85.337 8.03803
20.2383 116.215 9.84691
9.84083 97.3525 8.55076
21.1853 131.106 3.21696
-9.56854 97.6438 -11.9563
14.3865 113.606 4.98824
21.3544 144.164 -3.26838
7.85851 124.048 -7.2171
11.0743 134.623 -9.24304
-4.74869 108.651 -12.6151
19.6701 144.322 -5.21353
-3.48876 77.4177 4.57213
17.6867 140.546 -5.37566
8.17137 125.624 -7.75479
7.82868 90.0229 9.98054
-13.6536 87.4433 -11.2041
-4.45036 109.151 -12.6271
22.4827 144.324 -2.3477
9.71464 96.2867 8.71255
8.68958 93.3616 9.12729
9.80229 130.151 -8.42073
22.8479 144.227 -1.95735
21.9747 144.11 -2.81765
12.6837 108.22 5.69952
7.79589 123.117 -7.05555
21.4 130.924 3.20735
16.4601 138.582 -5.94474
5.32604 119.352 -7.83115
11.5294 101.404 7.7666
-1.82137 78.7307 5.32102
2.10957 115.903 -9.48562
-11.3021 92.3485 -11.5541
8.05469 89.9918 9.89439
7.54355 121.454 -6.64274
4.52202 85.7663 8.33511
15.3819 114.149 5.21348
-1.80625 112.869 -12.139
22.8262 132.88 3.4458
-3.24837 77.3051 4.37795
10.2334 97.2313 8.34551
4.67095 118.683 -8.39584
24.7603 141.577 0.975568
-6.32641 105.564 -13.2706
-13.6088 85.8339 -10.865
18.8756 130.295 0.458748
-1.39574 113.086 -12.1015
12.9955 107.09 5.95204
18.6177 112.925 8.84322
-10.2595 93.0744 -11.3761
19.504 113.316 9.46032
23.3111 133.324 3.25349
14.578 138.139 -8.35507
21.008 123.374 5.80386
20.8414 142.976 -4.34018
20.7278 125.454 4.41995
14.8767 138.275 -8.26475
13.1758 106.577 6.05984
21.7209 122.007 7.12603
-7.99626 98.7095 -12.1706
15.5836 126.989 -1.89843
19.2283 129.951 0.334016
-1.45517 111.924 -12.1755
-6.92751 101.681 -12.7047
24.9745 141.641 0.354331
14.0682 108.055 5.95552
-2.99764 109.689 -12.7364
-14.6645 80.2241 -10.0261
14.7471 109.3 5.90013
18.2519 139.821 -6.06048
20.4452 126.704 2.88916
-3.61762 108.471 -13.02
9.63775 88.9773 10.7484
-4.90951 106.377 -13.3548
9.48718 88.6089 10.7434
10.9107 131.962 -9.83237
-1.63854 78.0357 4.44576
19.5268 129.397 0.469587
20.6862 142.5 -5.03155
17.8393 112.176 7.39243
20.6313 129.515 1.48316
-1.28973 78.3071 4.53131
14.2101 106.83 6.22548
15.2207 128.443 -3.733
14.7826 131.801 -5.97229
10.2804 91.1451 9.94367
10.4925 94.0012 8.71282
16.2658 127.184 -2.1294
16.1847 126.33 -1.80371
14.3227 137.545 -9.49692
24.9056 137.418 1.62841
16.4264 136.37 -6.77947
-5.66111 103.553 -13.2198
22.1603 120.716 7.13216
13.3864 103.684 6.59989
10.9535 90.6142 10.6953
23.2652 142.419 -2.80513
22.8058 142.363 -3.27841
2.07963 113.973 -10.5667
16.0479 134.686 -6.49343
12.7626 135.996 -10.6268
6.05528 118.357 -8.68159
20.5061 142.144 -5.66694
10.8798 91.1748 10.1767
10.9432 131.422 -10.2336
13.8469 104.25 6.6184
-6.71796 99.4983 -12.4964
-5.50393 103.428 -13.2339
19.5731 110.234 9.49793
17.1415 136.545 -6.44697
5.67034 85.147 7.65669
8.68445 123.863 -8.90096
16.3797 129.533 -3.75133
-10.2162 90.5197 -11.7533
16.4228 137.727 -7.92454
-8.29883 94.0312 -11.6427
15.0361 106.382 6.48279
24.5792 133.421 2.71559
4.62095 83.6672 7.09129
17.1691 136.291 -6.55932
15.9188 132.502 -5.96144
9.51052 87.5033 10.1904
20.9125 110.716 10.3084
-10.7668 89.1542 -11.8974
14.4625 104.108 6.89092
15.0896 128.89 -5.06469
19.9923 128.766 0.124063
17.0001 136.396 -6.89534
22.0368 115.993 8.74495
16.5796 135.235 -6.76307
20.7619 127.584 1.49446
25.5623 139.777 0.290486
15.0037 130.722 -6.16758
20.832 129.347 0.593324
19.4441 128.043 -0.205032
20.0624 129.067 -0.0941145
-8.42583 93.0705 -11.5973
9.17995 121.601 -7.6845
-11.9566 84.4939 -10.9338
22.6421 141.726 -3.85931
18.6664 109.641 8.27294
16.7883 131.856 -5.00686
19.4775 140.25 -6.48129
-4.95504 103.409 -13.3131
20.2079 141.432 -6.34559
3.22957 80.938 6.64487
22.4028 119.773 6.9511
14.7626 103.668 7.12163
16.9431 135.847 -6.96829
14.0803 101.587 7.42526
16.1149 132.929 -6.3957
24.2975 140.861 -1.9221
15.927 106.62 6.70805
-4.67311 103.528 -13.363
21.6817 127.561 1.97978
1.45667 79.9699 5.01575
-2.8923 106.911 -13.2379
6.52257 85.0743 7.71009
16.3826 129.653 -4.64254
16.2392 131.537 -5.75103
-12.1201 83.0988 -10.8128
25.1885 135.906 1.36552
16.7098 137 -8.12342
6.45363 117.883 -9.15343
16.0349 129.265 -4.92973
19.7054 140.12 -6.62316
14.6268 129.387 -6.49807
16.1984 129.443 -4.90551
2.84314 113.021 -10.5327
17.2642 135.952 -7.12202
-3.01576 106.441 -13.347
15.5822 133.526 -7.66915
13.7104 134.723 -10.2515
13.6346 98.6918 7.96933
20.8722 128.642 0.305986
-10.2944 88.5084 -11.9039
13.1936 133.97 -10.4615
4.08227 113.276 -9.58759
21.3588 125.689 2.16988
16.8877 129.597 -4.50215
-3.97062 104.299 -13.4816
19.4578 127.298 -0.677898
9.45537 124.645 -9.80257
-2.23634 106.993 -13.0697
-2.12471 107.168 -13.0429
20.3638 128.39 -0.309452
12.3922 132.912 -10.9634
13.862 134.119 -10.0684
-8.12147 92.0412 -11.6759
-6.5701 96.2919 -12.2251
-5.51379 99.734 -12.8741
22.5869 115.011 8.75381
17.3225 130.807 -4.79097
13.0826 94.586 9.15597
13.4582 95.8145 8.91491
17.8385 131.081 -4.4397
22.1408 140.692 -4.83285
18.4786 137.839 -7.21515
0.911898 78.1402 4.73416
18.4791 137.78 -7.21927
18.6142 107.86 8.12724
16.4606 104.956 7.34744
8.73092 120.466 -8.63081
17.6362 132.37 -5.37373
14.2991 134.352 -9.90305
17.0517 125.516 -2.53915
21.4759 124.107 2.79027
7.58158 85.4947 7.88501
8.8915 120.62 -8.61224
17.8717 107.593 7.35441
0.666436 110.453 -12.116
17.8248 107.445 7.33639
16.6395 136.272 -8.56937
22.1653 120.861 5.02902
16.3142 135.982 -8.82623
22.7236 111.857 10.1443
13.3531 92.2853 10.2914
20.1331 108.199 9.25114
23.9254 140.026 -2.96914
14.6227 134.007 -9.68366
5.74298 115.377 -9.51074
16.2644 135.783 -8.89314
15.739 129.119 -6.055
15.7643 97.1939 10.1904
18.1208 135.757 -6.95599
15.7412 100.406 8.5286
-5.2629 98.8031 -12.6346
14.6707 95.588 9.79447
14.7499 133.868 -9.59177
14.2302 94.6622 9.79633
18.9212 125.929 -1.19604
15.8231 133.894 -8.50163
21.2683 127.149 0.60994
9.08257 120.465 -8.77355
17.0041 99.9242 9.9517
13.9 132.8 -10.0197
15.9152 128.816 -5.9182
16.5507 101.244 8.75851
15.9634 129.137 -6.04442
15.0438 130.215 -7.58572
19.6546 107.542 8.75206
16.7311 135.606 -8.63068
17.3308 127.125 -3.69286
-13.7415 76.6121 -10.5271
20.2583 127.354 -0.763834
11.3499 128.676 -10.7619
16.7005 130.999 -6.34997
17.8359 131.811 -5.57692
17.7859 125.469 -2.41057
17.7062 134.93 -7.3154
14.3538 92.6086 10.6792
-9.9927 87.1607 -12.0333
10.1658 125.15 -10.2631
-8.17516 90.3315 -11.7491
18.7076 106.803 7.96039
17.736 98.6104 11.0867
18.4803 106.152 8.02931
15.2095 125.918 -5.44923
22.731 116.56 7.17544
12.8395 131.629 -10.8787
15.6074 125.507 -4.87399
20.1525 126.505 -0.627298
21.5499 124.539 1.81069
24.308 138.068 -2.19476
9.39275 86.5559 8.3775
16.5841 130.865 -6.65327
20.3308 105.821 9.96902
16.3756 130.813 -6.8794
14.2907 131.907 -9.62186
15.8944 130.409 -7.22187
20.1718 104.143 10.5906
19.6012 102.193 10.9759
15.9613 133.097 -8.57719
11.397 128.38 -10.9714
18.7985 100.693 10.8509
-11.5791 81.0311 -10.9413
-4.01445 101.104 -13.2366
-1.60025 105.865 -13.1337
22.0962 139.673 -5.54709
15.0491 128.993 -7.52333
-4.709 97.3121 -12.1035
10.051 122.673 -9.59088
-6.35395 94.3627 -12.3709
15.1797 131.332 -8.69239
23.2465 139.736 -4.53589
24.9467 137.616 -1.70038
22.6394 108.14 10.8417
22.9231 119.591 5.30651
12.1628 129.756 -11.1307
23.5018 139.381 -4.18905
24.1811 138.148 -2.85572
21.9932 107.777 10.2876
17.896 131.292 -5.9745
6.67659 115.626 -9.75596
-10.6693 83.1826 -11.409
25.5211 134.401 0.408473
-6.95658 92.0085 -12.023
15.1192 128.866 -7.67923
1.6667 110.082 -12.2084
18.0296 125.339 -2.87511
21.3379 123.672 1.43104
23.1364 112.229 9.07377
10.1394 122.625 -9.81507
17.8802 96.5836 11.4877
9.37494 119.271 -8.98732
17.603 134.207 -7.99707
21.3653 123.743 1.2479
17.8105 132.759 -7.09152
13.8448 89.2447 10.8801
-10.4822 83.0795 -11.4485
17.9906 96.5358 11.4994
23.3596 111.389 9.53841
18.2084 125.335 -2.98365
15.3971 125.596 -6.0706
22.7608 139.372 -5.37109
21.6129 106.582 10.0996
21.7728 106.935 10.0821
19.7213 100.363 11.2711
21.5181 120.336 2.98863
25.1573 130.58 1.56079
2.83286 77.3323 5.26748
18.6148 125.056 -2.50815
-2.74794 102.559 -13.4389
23.3979 111.347 9.44685
23.2267 118.724 5.51277
21.3058 120.352 2.65637
17.1074 129.095 -6.18795
16.4435 92.974 11.4769
6.4169 113.864 -9.65862
12.2364 88.073 9.51701
16.3683 92.5039 11.5803
22.5903 139.111 -5.64639
-7.49892 89.6022 -11.9552
15.9055 131.669 -8.90617
20.4867 125.796 -1.12973
-0.996467 105.422 -13.2524
16.2341 129.773 -7.61491
22.9328 119.758 4.48569
15.4906 130.541 -8.79196
15.4511 90.6051 11.4414
2.9709 110.801 -11.9354
21.6949 104.81 10.695
2.51184 110.351 -12.1953
6.4788 113.674 -9.75069
17.9022 126.646 -4.47065
10.2605 119.579 -8.88336
24.4013 126.455 2.39066
25.2532 130.716 1.04308
20.9538 120.277 1.84905
22.8299 125.186 1.30448
-1.51715 104.136 -13.5153
22.1568 119.967 3.14546
2.78134 110.288 -12.2144
16.5011 91.6549 11.6035
23.3993 138.415 -4.96013
-7.12526 89.426 -11.9901
16.718 132.988 -9.2167
17.3848 93.5479 11.5285
13.6307 126.315 -9.07877
24.0076 137.364 -3.85067
24.2721 136.157 -3.0001
-10.5735 80.3038 -11.0677
12.2062 127.94 -11.4598
-4.21029 96.0906 -12.4555
5.82667 111.67 -9.87798
15.4683 129.057 -8.6454
10.5687 122.374 -10.3942
18.0683 126.526 -4.69945
21.1906 122.59 0.56903
6.81311 81.515 6.40817
-7.76411 86.9329 -11.6119
21.5177 103.69 10.5019
23.4244 111.981 8.27854
23.5389 116.748 5.96958
20.3932 124.905 -1.4846
3.68676 78.939 4.37808
20.6545 125.312 -1.45842
20.3809 99.7669 11.2249
17.5826 130.624 -7.39671
-6.45312 90.6303 -12.2102
15.1224 129.779 -9.54533
6.20022 112.26 -10.0063
4.16161 79.4111 4.50831
13.6111 125.315 -8.94947
23.9368 125.35 1.81949
24.1231 136.285 -3.57351
-11.2246 76.977 -10.4001
21.5744 124.216 -0.124385
21.5875 103.407 10.4669
-7.01015 88.4965 -11.8761
16.5724 124.237 -5.39004
17.2776 130.639 -7.94057
23.8229 137.053 -4.42133
21.0176 125.032 -1.25141
26.6352 134.929 -0.408765
9.13265 84.7102 6.80645
21.4062 102.219 10.7136
22.421 137.999 -6.4208
23.9525 136.501 -4.06015
7.02843 113.686 -10.1897
21.1479 137.634 -7.59757
23.7029 116.548 5.79581
25.3277 135.999 -2.40098
14.7229 129.481 -10.1828
-0.349593 104.843 -13.4262
21.1476 101.352 10.7814
-11.2702 76.3187 -10.4139
25.8241 136.233 -2.08071
-8.67523 83.5403 -11.4267
2.5259 108.694 -12.6283
17.5579 133.277 -9.41807
21.6173 102.095 10.6803
-3.39797 96.4035 -12.6082
-8.11735 85.1791 -11.8548
16.0138 89.7771 11.0349
-10.8133 76.7574 -10.4154
20.8788 99.3907 11.234
20.4481 124.686 -2.0843
5.4308 110.126 -10.4191
-5.19882 91.5428 -12.1196
1.45185 106.977 -13.0147
24.641 134.906 -2.96925
18.534 127.297 -5.49181
23.956 110.758 8.57128
15.7255 128.939 -9.28715
13.8757 127.048 -10.2723
21.1017 125.259 -1.82366
9.28305 84.4334 6.56399
-0.124472 104.209 -13.3489
12.6143 126.606 -11.4492
13.3162 125.614 -10.2649
17.2512 91.2384 11.3132
23.8507 115.454 5.89528
17.4514 123.921 -5.10841
-9.15567 80.817 -11.0683
13.9696 128.126 -10.9548
4.26658 77.4342 4.62749
24.7886 134.615 -2.97825
12.2176 124.08 -10.7776
11.4544 122.107 -10.586
13.2974 125.617 -10.4683
22.3675 123.782 -0.0670986
16.2732 128.369 -8.81053
22.7884 103.542 10.6214
18.5577 127.331 -5.90285
12.2891 124.342 -10.9494
20.7705 123.928 -1.87063
26.2518 133.256 -0.912644
-3.74001 94.0005 -12.3479
23.9068 112.428 7.1612
-9.52298 78.9832 -10.8221
23.9057 113.008 6.84792
8.19462 114.836 -10.5369
14.9328 121.441 -6.85789
16.6092 123.528 -6.19129
23.3164 118.666 3.27634
7.63997 81.0737 5.9809
12.0709 122.553 -10.4825
21.6033 122.928 -0.704422
14.8714 121.505 -7.04712
20.8832 98.3452 10.9956
-9.92401 77.2772 -10.544
4.77498 78.284 4.31364
20.0738 95.8407 11.3884
15.9714 121.526 -5.96702
13.4405 126.807 -11.3045
18.1542 123.716 -4.803
20.8117 136.436 -8.52143
21.1036 124.374 -2.09123
20.0934 95.6842 11.4368
23.9972 113.508 6.44249
18.2181 123.692 -4.78827
-7.60594 83.4214 -11.3501
-7.61061 83.3794 -11.3352
23.9712 114.176 6.04461
26.8215 135.942 -2.0587
5.05068 78.3585 4.39572
27.0705 134.829 -1.30183
26.1496 130.936 -0.371768
23.5875 118.039 3.44002
18.5735 125.266 -5.49387
21.6109 121.898 -0.667412
22.4903 119.135 1.65378
5.41597 77.5292 4.922
1.16342 104.254 -13.1177
11.8376 117.686 -8.78326
-2.61446 95.6396 -12.6952
23.0011 102.872 10.425
23.0323 134.739 -5.76965
14.4551 123.762 -9.20391
16.3549 120.885 -5.76683
19.651 125.484 -4.66981
18.9312 125.965 -5.67586
16.898 122.778 -6.19527
24.3321 116.37 4.84034
19.871 134.814 -9.20976
18.2094 123.07 -4.98335
23.7282 134.485 -5.03011
21.5876 121.865 -0.864183
20.8294 135.167 -8.50384
10.6716 116.316 -9.61149
14.9342 87.0997 9.62778
12.3822 120.316 -9.94558
24.6806 108.769 8.75044
-3.90169 90.5668 -11.9066
-6.64754 84.1116 -11.539
-7.6739 81.0864 -11.0798
10.0631 83.6754 6.14288
24.11 116.923 3.91205
24.6184 109.865 8.03253
24.5111 110.278 7.70272
3.62415 107.5 -12.7918
14.6405 123.454 -9.38126
4.48047 108.258 -12.2877
18.6752 123.342 -5.1322
19.7086 93.4405 11.1464
26.7509 131.673 -0.984291
18.4395 123.324 -5.4524
18.607 91.3267 10.9913
22.7928 123.203 -0.840843
19.4918 92.7634 11.1811
2.55673 104.849 -12.6929
20.9192 134.281 -8.51484
21.2285 120.572 -1.22649
9.62554 115.212 -10.6663
-4.52222 88.9484 -12.138
17.0862 120.796 -5.7661
26.5634 130.403 -0.869831
18.4248 90.6516 10.8224
21.1946 123.027 -2.76163
22.6854 117.346 1.66874
18.8806 123.182 -5.29323
14.3121 123.83 -10.4103
16.9668 88.6534 10.2546
16.4774 125.204 -8.85477
15.1558 118.794 -7.01774
27.1206 132.655 -1.58236
22.3503 116.886 1.42071
21.2273 122.181 -2.45335
15.3733 120.32 -7.64603
25.5072 133.188 -3.60687
10.6281 115.478 -10.1868
20.6777 123.039 -3.55657
18.7813 121.796 -4.92097
4.65864 107.554 -12.4797
-5.7593 84.2096 -11.558
21.3534 121.705 -2.27943
8.50715 80.2665 5.35092
-5.14156 86.0347 -11.8799
21.7742 97.2611 10.5733
24.7268 112.556 5.84237
21.4762 116.515 0.419451
19.2552 116.56 -1.96671
7.5877 110.714 -11.2042
2.23925 102.559 -12.6536
21.3542 116.539 0.207746
19.9268 117.184 -1.62107
-4.06504 87.9734 -11.8762
18.2919 117.671 -3.59525
12.9106 84.5804 7.59103
16.7571 124.385 -8.64724
1.03059 100.278 -12.875
8.54036 111.956 -10.9753
21.769 121.96 -2.22741
20.2541 92.8511 10.9502
27.2369 131.432 -1.36639
24.7852 112.981 5.44987
24.4859 123.664 -0.2957
18.6321 120.439 -4.79587
20.3284 92.9267 10.931
20.6288 116.74 -0.872601
21.9576 117.708 0.0195319
5.92675 107.563 -11.6636
24.9669 110.173 6.91655
20.3447 132.609 -9.35178
24.1732 102 10.218
19.4728 121.363 -4.55191
25.0346 109.449 7.31792
11.4146 115.155 -9.89379
-6.6544 80.5988 -11.2349
3.61742 103.729 -12.2736
21.8859 121.857 -2.38081
10.6487 82.7155 5.74532
24.4226 131.899 -4.88641
19.9795 91.7539 10.8473
23.7526 132.474 -5.94521
24.406 131.874 -4.95712
20.0334 122.684 -4.88628
23.2252 116.377 1.58488
13.7624 120.996 -10.6659
-4.97205 84.2548 -11.6122
18.5753 122.81 -6.58346
12.0306 115.072 -9.53273
17.581 125.74 -9.15196
26.2147 132.82 -3.79729
12.7362 83.904 6.97324
17.4548 125.102 -9.06122
26.813 128.402 -1.02734
19.3614 122.375 -5.77679
19.9192 118.852 -3.42667
14.6264 120.353 -9.74517
20.727 118.354 -2.37062
20.3422 118.749 -2.98126
0.0254218 95.9222 -12.702
0.623009 97.2091 -12.7612
24.7923 123.491 -0.838078
25.4054 131.267 -4.16261
25.0953 113.565 4.51066
25.6342 123.963 -0.222996
13.1539 120.142 -11.3448
20.191 121.416 -4.67901
0.538754 96.8393 -12.7446
-4.23054 84.6491 -11.5548
23.9515 130.692 -5.48619
25.2639 109.594 6.4902
13.9271 84.3629 7.418
10.3151 113.731 -11.3159
25.0617 110.352 5.81957
16.3702 117.497 -6.91602
9.86782 112.545 -11.2017
12.8435 115.513 -9.65354
-3.74518 84.917 -11.4736
9.97885 112.947 -11.3698
-1.58998 89.5476 -11.6087
15.9314 85.5818 8.70394
23.2224 129.999 -6.25872
27.4789 133.03 -3.35628
8.05007 77.8107 4.32587
25.3792 102.285 10.0063
13.7227 84.043 7.05008
10.8063 81.4976 5.28368
17.9315 115.941 -4.78526
-6.30843 78.6496 -11.2404
0.414913 95.1876 -12.6245
20.3538 115.503 -2.10909
-2.27366 87.4637 -11.5379
13.9674 118.511 -10.3379
27.1432 124.751 0.241559
8.20296 77.576 4.37625
16.6145 85.8731 8.93105
25.4284 101.773 10.0458
25.3911 108.847 6.40786
20.9137 121.578 -4.80348
18.0168 115.801 -4.94571
10.5249 113.015 -11.3968
-3.21471 84.8723 -11.4788
16.8992 116.682 -6.61832
15.3195 84.7537 7.95552
20.2577 121.533 -5.65299
26.6739 131.847 -4.18453
21.4179 92.0281 10.5202
-1.59851 87.8938 -11.4696
-0.639037 90.5837 -11.8473
26.0796 104.967 8.7551
13.0592 115.109 -10.0307
-0.390808 91.197 -11.9608
5.71497 105.113 -12.7126
-5.80285 77.9869 -10.9848
-1.19456 88.3217 -11.4468
25.9546 130.583 -4.53463
0.0715032 91.6692 -11.8927
27.044 125.608 -0.954818
25.4007 130.072 -4.95741
25.4806 111.486 4.57628
27.1995 126.477 -1.26245
-4.83579 80.206 -11.2611
27.8945 123.757 0.836915
25.4503 112.822 3.80813
17.1307 122.518 -9.8641
-6.24004 75.36 -10.3518
13.9742 117.457 -10.6164
28.4422 132.427 -3.09621
23.2436 94.565 10.7143
24.1521 122.278 -2.46109
11.1458 80.6101 5.08097
-2.405 85.2519 -11.526
26.016 130.347 -4.74904
-5.25393 78.1706 -10.943
-4.62041 80.0466 -11.2374
26.2734 105.404 8.18036
26.3218 130.58 -4.57904
-6.02155 75.3187 -10.3398
17.1584 115.856 -6.7131
-4.47724 80.1788 -11.2354
19.8105 89.6067 9.37586
-5.13825 77.9296 -10.8602
28.6406 132.212 -3.13441
23.0142 127.786 -6.80358
-3.40637 82.1526 -11.2595
25.7724 100.324 10.0118
21.4431 129.863 -9.57013
27.5369 131.748 -4.20678
26.0883 130.156 -4.9243
12.1146 81.1865 5.34122
-4.89835 77.9208 -10.8192
25.7025 110.893 4.41557
24.2301 95.4384 10.6422
-2.3145 84.1906 -11.4206
-4.82265 77.5307 -10.7044
17.9013 125.326 -11.2387
6.20603 104.373 -12.8672
22.4484 126.796 -7.31519
24.4614 121.82 -2.71014
-5.40471 75.2934 -10.3079
17.4491 85.451 8.43885
19.958 121.424 -7.28834
24.3901 128.299 -6.17729
12.7695 81.4449 5.45447
18.4357 126.244 -11.4909
25.5288 112.451 2.93912
21.634 129.078 -9.66697
7.79689 105.407 -12.1368
19.1365 120.752 -8.07956
9.4318 107.4 -11.445
20.3981 128.594 -10.7711
14.9479 117.218 -10.6945
29.3908 130.536 -2.36964
9.5751 107.363 -11.3397
25.6163 111.846 3.15365
22.8137 92.4482 10.0769
25.3885 112.911 2.32172
3.26809 96.0745 -12.2665
13.3765 81.4242 5.6631
19.819 114.746 -4.57725
20.5595 89.0661 9.23729
21.6111 128.846 -9.89219
24.2589 121.541 -3.41641
6.66622 102.703 -12.2744
11.7013 109.398 -10.4358
2.15381 92.0706 -11.6441
22.6056 121.137 -5.06232
12.0693 110.376 -10.6488
26.7499 105.095 7.20608
-3.50214 77.5457 -10.4964
-0.390671 85.1967 -11.1505
26.8744 103.911 7.84186
27.4833 122.29 -0.925197
18.6104 125.377 -11.7941
16.7759 116.476 -9.34667
28.8783 125.386 -1.25522
23.6262 120.907 -4.48426
7.68669 103.87 -12.5548
28.1993 124.32 -1.50332
20.7226 114.365 -4.31504
25.2324 112.094 1.54593
18.3551 85.2581 7.99523
4.82547 96.9442 -12.173
-2.20796 79.7679 -10.8104
-1.39788 81.7889 -10.9959
19.4614 114.606 -5.86759
28.3397 122.735 -0.739289
5.45209 97.8626 -12.0529
27.7654 129.878 -4.99451
26.8881 129.088 -5.5336
-0.863288 82.6933 -10.9864
27.288 129.453 -5.31001
25.9338 97.1596 9.66663
26.9015 102.474 7.97372
26.7324 100.224 8.93395
18.8097 121.666 -10.2625
17.3097 83.9627 7.28902
20.4213 127.052 -11.3717
20.2877 126.97 -11.4697
28.5903 128.37 -3.50475
18.7289 124.783 -12.0234
28.6094 128.313 -3.49678
26.9053 99.6384 9.29981
19.0359 85.893 7.98948
3.79966 94.3292 -12.2516
13.0575 79.2728 5.0528
23.5759 120.909 -5.15879
24.8468 93.047 10.2841
4.27723 95.1862 -12.3335
21.9744 126.647 -9.85029
21.8205 127.214 -10.3012
29.0411 124.866 -1.57889
0.580048 84.5916 -10.9236
26.3262 108.532 3.79491
24.9505 110.29 1.40485
22.2643 125.483 -9.20517
8.64854 104.071 -12.5773
13.7882 109.738 -10.0995
26.1923 127.597 -6.2115
14.0987 110.426 -10.1384
13.8488 109.732 -10.0795
19.7159 125.948 -12.2079
4.31539 93.913 -12.0409
30.2422 128.066 -2.28924
3.85541 92.0735 -11.6062
-1.2164 78.7814 -10.1858
0.850697 84.4399 -10.9017
2.02053 87.6153 -11.3215
28.0267 128.362 -4.84268
13.3374 78.6844 5.00457
29.4261 125.596 -2.01761
18.8063 113.668 -7.09592
18.108 114.707 -8.35711
21.4368 126.718 -10.9823
19.4765 113.923 -6.53923
23.9684 111.177 -0.492172
7.98254 101.339 -12.2753
4.87266 94.2093 -12.0054
22.3743 113.458 -3.49191
23.1851 89.0639 9.75591
9.92046 104.169 -11.8067
24.2781 110.002 0.220145
1.65473 85.4551 -10.9959
23.7501 111.304 -1.03289
18.5529 121.49 -11.7457
-2.43262 75.3018 -10.2308
0.0997389 81.2184 -10.6079
-0.350363 80.4008 -10.6989
21.6016 86.6663 9.07776
-0.603763 78.4529 -10.0096
13.7058 78.4183 4.97396
14.0044 78.8775 5.00263
8.62275 101.905 -12.4641
22.5791 123.61 -8.9241
5.49822 94.4214 -11.9657
24.0222 89.3873 9.95162
24.6025 90.4501 10.0121
17.6689 114.063 -9.253
21.8553 125.376 -10.6585
22.4441 109.892 -2.17192
19.6324 84.8309 7.62894
30.0469 127.074 -2.99625
22.4517 108.91 -1.71138
22.039 112.086 -3.77186
3.70401 89.3414 -11.4136
26.7724 95.1792 9.73102
27.5781 103.612 6.21317
28.9285 125.761 -3.66272
23.603 108.468 -0.452746
4.80582 91.6004 -11.545
-1.64901 75.2044 -9.99646
12.7509 76.8006 4.25615
1.3553 81.9987 -10.3305
2.62767 85.0834 -10.5817
27.0031 106.607 3.97743
22.1948 124.767 -10.3096
26.9596 95.3709 9.62032
2.90551 86.0527 -10.8502
23.4522 87.7549 9.77971
21.0495 85.4536 8.40609
15.5532 79.8545 5.46128
19.9841 111.516 -6.13039
6.17435 94.3998 -11.9304
24.8853 108.355 0.548719
21.391 124.243 -11.2324
16.3512 111.64 -10.1152
20.6339 124.321 -12.1324
4.9666 90.785 -11.4825
3.35263 86.0593 -10.792
20.5119 124.279 -12.2743
23.9804 107.983 -0.365613
14.2052 77.6938 4.73747
19.642 109.173 -5.615
6.38447 94.0876 -11.8464
22.0369 85.5474 8.86727
24.1945 88.0876 9.74113
27.12 94.2177 9.66054
18.0945 111.388 -8.53886
20.6261 84.3456 7.85391
21.8363 122.073 -10.0708
27.3395 104.669 4.51711
27.6992 96.1121 9.17365
14.3193 77.4788 4.63161
18.8276 81.8476 7.079
1.19723 77.8446 -9.356
19.0233 109.535 -6.82337
21.4401 122.539 -10.9288
21.136 84.5009 8.09306
5.08818 88.7977 -10.9814
27.3555 94.2308 9.54947
23.1043 85.6473 9.4486
28.1668 100.029 7.32168
26.4577 106.402 2.24869
20.9616 121.967 -11.4384
2.11467 78.3803 -9.1992
6.3479 91.0089 -11.2094
25.7476 107.099 0.874292
12.6267 103.4 -10.9813
5.84666 88.9597 -10.7615
5.33813 87.6563 -10.6429
3.65046 82.8029 -9.96835
28.4076 97.8054 8.29449
4.64326 85.2412 -10.192
9.37346 98.5249 -12.0183
12.164 102.731 -11.2437
5.91441 88.5673 -10.5999
11.0632 101.602 -11.8743
7.16494 92.7257 -11.4422
28.0459 102.717 5.31616
19.7623 107.959 -6.06567
26.5002 90.6262 9.76632
11.4836 101.835 -11.6671
2.59708 78.5298 -9.13014
26.4835 90.4318 9.75082
16.9563 108.943 -9.72218
3.94867 82.5325 -9.90865
25.3917 107.092 0.00646102
3.56912 81.1847 -9.75607
19.714 121.146 -13.2278
24.4629 106.89 -1.02603
8.96215 96.3316 -11.8816
20.7435 82.5252 7.45464
26.8196 90.5571 9.66327
18.9604 108.58 -7.73204
14.4313 104.996 -10.6855
28.6165 99.2755 7.00851
26.5793 104.235 2.30824
9.62518 97.0497 -11.7943
18.9143 108.555 -7.93585
8.72148 93.7867 -11.116
26.0786 88.6957 9.55076
9.844 96.8101 -11.5927
6.56679 87.1008 -10.1102
22.5569 106.148 -3.14645
9.72348 96.1689 -11.5194
3.76715 79.0084 -9.02565
10.8069 98.1021 -11.3908
7.07771 87.9237 -10.1401
19.7921 80.2628 7.00713
11.1687 99.0457 -11.5925
20.8009 81.4118 7.40645
14.9448 104.811 -10.6392
6.09688 84.7457 -9.78714
18.5271 107.994 -8.6162
24.4715 85.2484 9.09961
25.7953 105.123 0.373083
23.3798 105.887 -2.54595
12.8929 101.224 -11.1763
19.3728 79.6043 6.5834
28.6208 99.1142 6.33693
10.9688 96.4443 -10.7858
10.6051 95.9063 -10.9012
11.8606 99.0978 -11.2155
25.9607 104.766 0.622628
28.2792 92.7674 9.1046
22.6883 105.368 -3.25315
11.5754 96.6734 -10.4815
10.6689 94.7057 -10.4659
19.6018 105.083 -6.40441
28.931 96.529 7.70441
8.94703 90.2046 -9.99551
15.9159 105.083 -10.3303
16.9439 77.4989 4.74437
16.4495 105.64 -10.0923
12.353 98.1351 -10.5625
7.37387 86.4293 -9.83016
15.4218 104.159 -10.5534
17.5423 106.885 -9.74187
4.89087 77.3846 -8.03258
27.0855 102.765 2.28147
10.8437 93.8534 -10.2027
10.0329 92.0392 -10.1525
11.5014 94.7945 -10.0624
3.89631 75.3749 -8.1559
8.6716 88.2334 -9.78015
23.4519 82.8497 8.40553
7.98211 86.7536 -9.76776
26.3167 103.959 0.627867
20.8788 103.718 -4.95231
8.88684 88.5851 -9.80619
24.2995 105.013 -2.0583
19.0237 105.699 -7.96553
10.5708 92.4346 -10.1577
4.69992 75.8039 -7.87443
19.1252 104.667 -7.55236
26.9929 102.861 1.56738
14.8457 99.2876 -9.32774
16.1841 103.703 -10.187
18.9409 105.172 -8.06736
21.847 80.1566 7.66993
5.20698 76.1115 -7.68808
16.1131 103.035 -9.98243
6.16172 78.6252 -8.04474
28.8803 96.2285 6.7069
13.6759 96.9361 -9.58709
9.79864 89.2088 -9.80717
15.5997 99.3081 -8.9663
22.7977 103.011 -3.3993
18.8498 77.7556 5.29736
16.8185 103.175 -9.85131
6.63962 78.1265 -7.77937
29.3632 94.4031 7.71326
9.69358 88.1364 -9.68079
29.2491 94.5829 7.50132
16.5667 100.992 -9.05255
21.4174 79.3222 7.02367
25.3664 103.841 -1.35564
29.0313 98.1712 5.18827
16.8522 100.7 -8.8525
15.5673 97.8156 -8.76641
15.7823 98.1134 -8.7268
11.5218 91.3142 -9.75859
11.134 90.0799 -9.65223
25.7918 103.372 -1.09002
23.9238 102.669 -2.7313
19.6609 77.8606 5.42084
7.46014 78.5387 -7.70107
15.0776 96.472 -8.87461
17.3273 101.116 -8.89912
10.5817 87.5454 -9.07263
24.1688 82.5953 7.65911
21.774 102.228 -4.839
21.9915 102.182 -4.61302
22.221 79.4692 7.1657
14.0033 94.7835 -9.22755
9.87682 84.9972 -8.57048
8.20258 80.0659 -7.82005
24.5549 102.587 -2.19776
19.7215 102.116 -7.02845
19.5598 77.6275 5.25313
23.8373 102.172 -2.81718
18.3688 102.389 -8.68013
20.7751 102.06 -6.07335
22.3582 101.94 -4.35623
16.7906 98.5984 -8.50077
21.1728 78.5389 6.23685
7.36235 76.5433 -7.22319
28.0756 88.1914 8.486
8.17911 78.3274 -7.34685
13.0157 91.6944 -9.0894
25.3399 102.424 -1.6549
27.1381 101.866 0.477087
16.0819 96.5102 -8.43551
26.7512 102.105 -0.131738
14.7682 94.4255 -8.81185
13.2599 91.3746 -8.94841
26.1004 84.8643 7.71988
11.463 86.4126 -8.38756
10.3685 83.7619 -8.2397
12.4641 88.4551 -8.54923
25.5645 101.78 -1.65275
25.099 83.3361 7.21318
28.9956 95.4568 4.9541
24.3853 80.2403 7.83559
13.8033 90.8555 -8.73761
23.1079 101.131 -4.2289
10.6059 83.0408 -8.14633
28.9544 98.971 2.79132
29.7308 93.6578 6.28453
28.1628 99.8948 1.38893
12.8525 86.3751 -7.75766
13.1777 86.931 -7.72653
18.865 99.575 -8.23668
10.7059 80.1306 -6.9258
18.4105 98.1431 -8.10175
20.8312 100.308 -6.72465
9.97581 77.3122 -6.42679
11.1098 81.4564 -7.36913
16.7062 93.9657 -7.87755
16.8629 93.9922 -7.82322
19.1331 97.3111 -7.15799
19.2825 97.8068 -7.28277
19.5507 98.5395 -7.43158
11.4428 81.9149 -7.47128
19.0243 96.6023 -7.04352
16.5177 93.0324 -7.86909
23.397 78.8388 6.51153
27.6162 85.5252 7.40265
21.7269 99.2537 -5.74579
29.3389 97.7843 2.86143
30.0738 91.3353 6.88328
20.7288 97.96 -6.2735
12.0608 82.5622 -7.52
18.6704 95.6143 -7.26727
20.7666 97.279 -5.92167
24.8957 79.659 7.347
21.0333 97.9371 -6.0361
25.5845 100.164 -2.42223
18.3428 95.2531 -7.51759
21.5631 98.3192 -5.73126
24.3616 79.2174 6.87767
29.2819 97.5993 2.582
22.4296 98.2751 -4.96133
12.3197 81.3092 -6.91527
13.4712 83.8667 -7.07049
22.2154 97.1903 -4.69689
24.1226 99.1958 -3.74858
12.7548 82.0122 -6.97374
24.4112 99.1564 -3.50399
17.3129 92.2339 -7.47589
18.8424 94.2176 -6.89795
25.2413 99.67 -2.98228
23.7482 97.1512 -3.28681
21.6654 94.1721 -3.99046
20.326 94.406 -5.51348
19.8733 94.4186 -6.0912
29.9316 88.5624 7.32019
23.8709 96.2022 -2.93575
16.7697 90.607 -7.62674
25.7995 98.2699 -2.15397
20.1468 91.3786 -4.71877
16.0653 87.7497 -7.25515
14.1701 82.3726 -6.50589
27.5287 98.3545 -0.742495
24.5565 78.481 6.18929
19.9629 91.9233 -5.50804
30.4376 91.1359 5.81841
28.9496 91.2577 4.16556
14.2535 81.768 -6.43321
17.0446 88.4103 -6.90769
21.181 91.5165 -4.16038
21.2265 91.5375 -4.14109
22.2975 92.648 -3.5997
29.449 96.1692 2.08125
29.0172 90.7859 4.33784
27.924 84.5885 6.28328
28.2609 84.9466 6.39652
25.7059 96.1262 -1.99917
17.8416 89.4262 -6.88931
29.0193 96.3227 1.27013
30.5126 91.0636 5.48791
25.2211 95.512 -2.33237
12.7788 75.9318 -5.39839
25.0345 78.3847 6.13859
19.5756 88.2553 -4.63382
17.4454 85.7653 -5.61417
20.6838 90.1269 -4.46922
16.9299 85.1849 -5.97233
19.8663 88.3231 -4.6001
27.0166 96.3281 -1.29303
14.0518 78.5801 -5.86686
27.5521 83.5607 5.7097
13.6227 77.3918 -5.74333
17.0807 84.165 -5.57044
30.7436 90.1741 5.57524
14.8345 80.3335 -6.20243
13.5477 76.2208 -5.46206
28.8115 89.5544 3.7019
27.8584 96.1953 -0.693738
17.2299 83.3757 -5.43321
30.7653 89.8605 5.42144
28.1606 81.1757 7.10122
24.4657 93.2707 -2.9478
29.3317 94.2222 1.62941
27.8333 95.0802 -0.443707
28.0124 82.4047 6.16312
27.5571 94.7863 -0.639883
18.3673 84.2128 -4.88303
13.9688 76.0719 -5.37878
16.0655 80.8864 -5.70926
26.5708 94.5568 -1.7533
27.5727 79.3895 6.95698
16.5084 80.7575 -5.32111
21.5734 89.0638 -4.24751
30.496 87.0014 6.12528
18.1162 82.4694 -4.57559
25.7641 93.2626 -2.26861
28.2315 83.4475 5.29176
29.3945 86.0003 5.10745
27.2644 92.9101 -0.644714
24.1774 91.3882 -3.11669
17.2446 80.218 -4.70207
19.4245 84.0056 -4.36698
20.1834 86.0961 -4.64013
28.6714 84.2968 5.03241
29.3814 91.9261 1.88045
28.084 79.1174 7.00091
29.7385 88.3406 3.98864
28.9857 88.8057 2.88755
29.166 84.3378 5.34612
27.7221 92.3907 -0.311247
29.518 84.5332 5.45933
19.7694 83.791 -4.36956
26.3076 92.0955 -1.80144
29.3458 82.7036 6.11224
29.5376 90.0487 2.5091
30.1327 83.3984 6.50608
27.3976 91.9235 -0.749679
29.9118 84.5671 5.52556
29.401 85.2799 4.47403
15.9991 76.0179 -4.84973
26.618 91.3401 -1.576
27.8707 91.4432 -0.391257
30.9301 87.6451 4.71835
29.7863 86.4336 4.05696
29.5755 80.4365 6.87537
16.1198 75.7493 -4.82607
27.4821 91.2259 -0.833622
23.6947 86.8343 -2.61085
24.2574 87.4775 -2.46267
20.2128 83.0723 -4.45615
25.7682 88.8639 -1.78402
25.1091 88.0462 -2.06588
22.7496 84.9259 -3.17677
31.7192 82.3542 7.15378
29.6075 89.175 1.45754
31.8701 82.4932 7.1165
17.9063 76.7069 -4.56854
18.5745 78.255 -4.66151
21.4154 83.0517 -4.32034
32.2257 82.7484 7.0504
29.2012 87.987 1.161
31.898 83.8135 6.0295
19.5609 78.8363 -4.40842
21.1888 81.3776 -4.16807
28.8855 87.5432 0.644858
28.8182 87.5092 0.524361
30.6929 85.6134 3.38269
30.7682 84.0883 4.17854
29.497 87.3459 1.01754
30.2123 85.1124 2.47337
20.3652 77.1392 -3.78581
29.2592 86.7584 0.626957
30.3959 84.2953 2.77822
32.9057 83.8917 5.52819
30.5972 84.7865 2.65668
21.7945 77.7687 -3.26835
31.5272 84.458 3.36183
29.5513 84.1052 1.30606
22.5003 77.5059 -2.86563
32.4478 83.4377 4.50036
26.8728 84.2415 -1.91041
33.1119 83.45 4.96464
28.9414 85.8447 -0.663408
26.9803 83.9774 -1.97086
33.7032 82.0497 5.6264
24.0644 78.0718 -2.49418
25.3871 80.8352 -2.55975
30.2037 83.7387 0.97349
28.7253 83.6223 -1.29204
30.0779 83.3998 0.0922149
29.1248 81.5978 -0.152476
28 81.5777 -1.43415
26.6414 79.0797 -1.63462
27.7723 80.8074 -1.35785
27.2668 79.9967 -1.50399
28.8097 81.1335 -0.482641
30.6191 79.6783 1.98034
33.3795 81.3358 3.92011
28.7815 78.938 0.225165
31.7968 81.6917 1.96111
31.8756 80.3929 2.70098
31.4896 80.7832 1.9555
28.1907 78.367 -0.320713
