ply
format ascii 1.0
comment Created by Open3D
element vertex 1918
property double x
property double y
property double z
end_header
2.87231 100.676 -15.5034
-3.24142 103.453 -15.5099
-15.8562 119.612 -2.07615
4.74915 113.734 2.32631
-15.6173 119.55 -2.07786
-10.6675 107.755 -14.385
29.4999 97.6601 -4.04962
-4.67566 104.146 -15.599
-14.2433 110.239 -13.335
-7.66737 105.588 -15.5016
8.62387 97.8902 -15.9708
5.58097 113.203 1.91943
-21.1187 126.195 3.08371
5.00396 99.9827 -15.4652
29.6424 88.8201 -15.5433
-6.13606 104.997 -15.5807
33.9834 87.428 -14.8757
23.8882 102.175 -1.78819
-15.223 111.822 -12.1057
-14.8841 117.463 -4.67479
8.51731 98.1336 -15.9533
5.2381 113.833 2.31363
25.9863 100.961 -2.1869
-12.8395 121.927 2.19003
21.5357 101.881 -3.62219
2.88576 115.543 3.10424
-5.7538 104.911 -15.682
18.2712 102.273 -5.12886
-15.9673 118.634 -3.97601
-16.6537 114.566 -9.61057
25.9264 101.155 -2.20128
-15.3316 125.804 5.52268
-21.5485 128.055 4.77464
-15.3928 118.812 -3.56444
-2.88728 119.196 4.17403
22.6365 90.8945 -17.4433
-12.178 122.227 2.61375
4.45161 100.565 -15.5873
29.6074 98.1321 -4.11246
-0.970927 103.014 -15.6485
19.9611 92.2034 -17.41
-21.37 128.46 5.1791
-15.272 118.79 -3.74774
33.6997 95.1245 -5.75511
31.092 88.992 -15.1828
-16.1883 114.05 -10.5103
8.56363 111.532 0.61275
5.97661 113.959 2.22428
-5.60126 105.123 -15.8603
8.9415 111.133 0.278304
-15.8837 120.348 -2.37955
-18.2161 127.279 5.16106
38.2779 87.2279 -13.5501
-17.7498 120.124 -3.8065
-20.589 128.988 5.91864
41.106 86.2515 -13.1971
-12.5308 122.741 2.51886
-15.8425 113.55 -11.2229
-16.3506 126.327 4.899
-15.9629 113.841 -10.9532
-11.5105 123.236 3.64214
12.0854 106.447 -4.25238
-8.35837 121.818 3.63442
-15.6248 119.314 -3.83217
-15.8289 119.39 -3.85605
-15.7399 119.377 -3.83824
-15.7993 113.628 -11.2772
-2.50587 103.986 -15.999
17.8225 103.151 -5.30991
-4.14988 121.237 5.15913
9.15525 98.6649 -16.1728
-12.1678 122.977 2.64804
-15.1754 112.897 -12.0561
-16.2776 117.951 -6.23426
-20.2989 129.24 5.91202
3.77958 101.393 -15.9072
11.6264 97.3058 -16.6207
2.80699 116.491 2.891
-11.8491 122.865 2.53965
-12.1949 109.969 -14.3456
-8.03131 107.015 -15.7352
-15.1861 119.722 -3.59539
37.9446 86.5627 -15.4263
-5.94064 105.944 -16.03
24.5556 103.354 -1.67676
37.4611 91.8874 -8.93931
-14.9401 121.246 -1.62997
29.8548 99.1639 -4.07905
17.7773 94.0187 -17.8165
-12.068 123.541 2.76966
32.1444 97.7189 -4.78261
11.2966 108.409 -3.21599
4.53088 101.589 -15.9846
17.3875 94.4613 -17.8013
40.5902 86.6749 -14.3414
16.0843 95.1395 -17.6964
37.8654 91.809 -9.33458
-16.2665 116.141 -9.56778
16.4582 104.393 -5.67457
-15.1647 120.069 -3.89666
13.0687 96.9352 -17.253
-15.0511 121.057 -2.62705
36.2287 93.9062 -7.78561
-20.1196 123.391 -2.62354
29.7934 90.5869 -15.8515
26.5736 102.675 -2.2548
-20.8377 127.408 1.998
-0.708007 104.111 -16.2756
-15.3677 118.195 -6.69711
-14.678 118.799 -5.59469
-1.47523 120.265 3.91854
8.74035 113.096 0.597856
-14.929 120.409 -3.80384
34.849 89.0044 -15.2945
-15.4071 119.973 -4.66627
-3.15256 105.257 -16.4901
-15.1818 119.695 -4.93574
-16.0523 115.697 -10.5837
-9.82835 109.833 -14.5421
-14.4155 113.407 -12.6269
8.20201 113.976 1.22843
14.7279 96.2776 -17.7855
20.3679 103.951 -4.66802
-2.27308 121.542 4.76713
1.1456 103.478 -16.4747
1.87602 118.565 3.26458
24.0553 104.555 -1.91785
34.3904 89.6872 -15.0277
27.2976 91.3581 -17.0023
20.4957 104.092 -4.61152
-15.5831 119.469 -5.81623
-12.4461 111.58 -14.136
30.3677 100.296 -3.79949
-14.9502 121.745 -2.5533
-10.2263 123.508 2.43234
-14.515 118.454 -6.5661
38.3377 88.0701 -14.9665
-6.15106 123.538 4.7886
39.0229 90.2291 -11.8145
40.793 87.7662 -13.9676
39.8822 87.1437 -15.3373
1.74962 103.323 -16.6823
-18.709 130.286 6.09168
-2.2573 121.922 4.88243
-15.0533 128.065 5.31708
5.88338 101.853 -16.2308
37.376 93.2184 -9.06036
-15.5158 120.057 -5.27063
20.594 104.293 -4.57375
-4.76899 106.848 -16.0544
-15.0538 121.226 -3.60658
16.1603 96.1014 -17.8465
24.1943 105.011 -1.81154
-15.7343 117.334 -9.20499
-20.2657 124.269 -2.95591
10.9978 110.165 -2.9422
24.9355 92.2894 -17.8464
5.02834 102.376 -16.4765
-0.0448553 120.447 3.79703
28.7186 102.572 -2.54008
-12.7867 127.639 5.55902
-5.12745 108.012 -15.2246
-2.60901 105.72 -16.7264
30.3354 91.5519 -15.8222
32.5486 99.4638 -4.39956
-14.3812 114.511 -12.316
-14.6324 118.035 -8.12467
-15.7539 120.829 -5.2105
25.0233 92.5875 -17.8572
12.0077 99.1814 -16.9375
-17.2282 130.429 6.21593
-20.3018 124.594 -3.08454
-18.0656 131.024 6.46702
-10.0758 110.881 -14.8182
33.6168 98.7455 -5.09314
-11.2452 125.063 2.62194
8.41832 115.046 1.1606
10.2067 112.287 -1.36311
26.6373 92.3281 -17.5478
-12.6831 127.947 5.40421
6.51573 116.79 2.16943
-20.1154 125.944 -1.52455
28.1151 92.3748 -16.7344
38.0387 93.041 -10.1259
9.83975 113.019 -0.823449
38.9912 91.1821 -11.9939
27.0191 92.4363 -17.3334
-14.3425 120.296 -5.5419
-14.9864 128.914 5.14877
8.85263 114.637 0.624507
-6.20986 109.543 -14.6724
-14.0162 118.562 -7.70006
-14.4939 121.048 -4.80703
-5.04501 108.808 -15.0675
-16.8324 121.643 -5.42239
-9.31738 124.174 2.16648
-3.52071 107.542 -15.8611
-11.0678 126.504 4.11774
25.7679 105.494 -1.50599
8.58854 115.285 0.959972
36.5963 89.6382 -15.764
31.7633 92.3613 -15.0699
-12.6971 113.677 -13.49
-20.3212 128.889 1.62712
22.7909 94.3328 -17.7646
-19.9854 131.088 4.63209
-15.7202 121.385 -5.38442
-0.590156 122.258 4.48759
34.1009 98.7463 -5.62433
25.2697 106.037 -1.48654
9.67874 113.666 -0.732585
-17.3862 123.028 -4.42777
-19.9081 126.847 -1.0132
-15.6136 117.762 -10.2372
2.82265 119.595 2.77382
33.4497 99.6769 -5.05288
-15.7042 120.466 -6.91067
-1.51378 106.139 -17.1285
-20.0565 130.905 3.92494
-15.61 130.159 5.50811
-14.2404 118.701 -8.51574
-14.3869 121.194 -5.40428
-18.3489 132.558 6.88232
9.89895 101.395 -16.7784
-2.77539 107.897 -15.7857
13.5399 108.717 -5.37125
-14.6734 129.661 5.09828
-10.2994 112.482 -14.5014
-12.0507 113.963 -13.6372
15.4675 107.767 -5.63534
-4.70277 124.315 3.84521
8.94541 115.356 0.206828
-6.87088 124.588 2.86773
3.94957 103.952 -17.3787
-12.3609 128.748 4.98925
5.38935 103.531 -17.1826
-2.31626 108.297 -15.5757
7.13659 117.774 2.08311
15.7411 107.939 -5.61532
-9.52207 112.305 -14.6734
-13.997 120.082 -7.28181
33.7874 99.9452 -5.42951
-17.6966 132.897 7.01877
-5.97904 125.403 4.18536
11.4934 111.177 -3.9687
-14.0996 119.835 -7.7155
13.4838 99.5543 -17.7735
7.23053 103.233 -16.7145
-8.77853 112.031 -14.7584
24.8433 106.862 -1.90242
39.3481 91.4303 -13.3238
2.68082 120.786 3.02778
4.36763 119.102 1.82398
16.1732 108.002 -5.59121
-19.3576 133.148 6.02062
-15.0632 120.366 -7.92467
-3.05615 109.528 -14.9229
-1.37999 106.864 -17.3906
27.018 93.795 -17.7053
-14.6367 130.41 5.16398
5.79859 103.821 -17.1723
-8.45208 125.985 2.93235
2.50768 121.172 3.07746
37.8626 90.093 -16.3505
-16.3191 132.901 7.20758
-9.18522 112.697 -14.6255
39.5858 90.8857 -14.3676
-14.3736 119.845 -8.48537
9.65829 114.814 -1.0545
-1.53834 123.812 4.0103
-15.1725 121.724 -6.59387
-9.26868 112.847 -14.5961
38.4685 89.6617 -16.7026
-19.4756 127.207 -2.11828
30.1993 104.569 -2.38842
38.301 93.5407 -11.8674
26.3562 107.102 -1.37752
-7.53397 112.226 -14.4699
18.2781 97.5858 -18.306
-15.1216 121.629 -6.79642
20.5102 96.8163 -18.0932
-19.685 132.478 4.36781
2.32516 105.512 -17.5216
23.069 95.7961 -18.0258
-19.0651 133.609 6.11394
-16.5701 123.442 -5.52333
-11.0885 129.092 4.9088
10.2581 114.141 -1.97062
1.34285 122.658 3.7557
30.8374 104.004 -3.10396
-12.5408 116.36 -12.4402
-16.1233 122.828 -6.20691
-13.434 130.42 5.08986
-7.08777 126.163 3.29481
-14.3654 120.598 -8.09317
-15.1271 119.057 -10.5271
36.2763 96.8823 -9.19635
26.0668 94.4027 -18.3299
28.122 106.774 -1.29572
8.82825 116.518 0.00521824
18.7511 97.8291 -18.3193
37.9076 94.7302 -11.1862
-15.3417 132.598 6.56938
-0.418741 107.362 -17.2793
-15.2321 123.871 -4.70458
-7.86911 113.251 -14.0932
8.42683 117.354 0.626614
20.9136 107.66 -4.63285
33.5113 101.523 -5.21663
37.5484 95.3534 -10.8079
21.9669 107.459 -4.31042
31.3974 103.626 -3.79723
-1.59426 110.145 -14.5724
15.2859 109.544 -5.55519
-10.3047 114.697 -13.8167
-12.2906 116.814 -12.2497
15.3781 109.526 -5.55701
34.4723 93.0809 -15.6305
35.0645 92.8448 -15.5924
-13.955 122.368 -6.12324
31.3727 103.838 -3.73533
-1.12236 109.827 -14.9267
-3.94734 111.341 -14.6533
2.64549 121.941 2.75204
-19.5015 130.43 0.805277
-0.71305 109.066 -15.773
36.4341 96.9415 -9.84653
-18.6823 125.5 -5.16639
19.3432 108.428 -5.06186
-12.5124 131.115 5.58871
38.6276 90.8157 -16.6453
17.3968 98.9666 -18.4937
-19.5392 129.366 -0.882294
-6.25798 113.083 -14.1076
11.1735 113.482 -3.48573
-13.7393 121.065 -8.20231
16.3145 99.4186 -18.594
12.9088 111.614 -4.9555
-19.0494 127.974 -2.47949
38.4018 91.1461 -16.5212
-19.201 127.722 -2.96392
25.1222 95.7526 -18.3873
-11.0792 116.744 -12.4438
38.8364 91.9303 -15.3661
38.8921 92.3601 -14.8474
-7.1004 127.154 3.15571
14.3978 110.729 -5.5004
-14.351 133.606 7.19752
-13.9239 123.743 -5.23182
15.1478 100.178 -18.6506
6.56458 105.107 -17.3158
-13.8662 121.181 -8.54157
-19.5153 130.593 0.220735
9.15967 104.194 -17.0704
37.9575 94.2578 -13.128
5.77562 105.391 -17.5683
37.5612 95.8735 -11.3847
-0.98508 125.157 3.85227
-13.7965 121.659 -8.11085
26.4887 95.407 -18.5204
31.5646 104.606 -3.81462
0.149796 108.598 -16.9358
13.1026 112.026 -5.02753
-19.1219 129.065 -1.839
38.7535 92.9308 -14.7528
-15.2501 125.636 -4.07672
-8.63533 129.048 4.14426
22.4828 108.687 -3.96584
-12.9901 119.016 -11.2892
-19.3659 129.784 -1.15242
-8.74428 129.198 4.21678
1.84514 107.234 -17.917
30.3931 95.8728 -15.9657
10.725 114.839 -3.00682
-12.8405 133.196 6.90253
-13.8458 124.499 -4.88216
24.4892 109.576 -1.82219
9.37859 116.883 -1.20594
-4.60064 113.373 -13.8638
36.6199 97.3064 -10.5946
25.6169 96.1725 -18.5276
17.5541 110.094 -5.3579
-14.2567 124.553 -5.24116
-7.28174 115.221 -13.2198
37.7926 94.9967 -13.0769
27.9383 95.9518 -17.5797
-14.3931 124.462 -5.53126
30.0146 106.952 -2.26166
-14.0092 119.958 -11.1279
7.10634 120.942 2.36277
21.304 109.219 -4.47701
-5.21465 127.657 3.78473
-3.48296 113.497 -13.4138
-3.55139 113.526 -13.4254
-17.6307 135.451 6.53899
33.7064 94.6447 -16.1745
-14.217 122.713 -7.92106
-7.58647 115.633 -13.1904
-7.73092 128.587 3.35748
-1.56187 126.12 3.67475
26.0432 96.3725 -18.5342
0.50692 109.398 -16.6223
6.24864 121.372 2.0652
27.3524 109.819 -0.609428
15.9803 111.098 -5.58147
-8.6957 130.055 4.45397
-18.1085 126.628 -5.47579
-4.79454 114.457 -13.4184
25.8873 96.6297 -18.5486
1.81656 108.27 -17.5678
-13.579 122.419 -8.37763
-14.1834 126.157 -3.92541
27.842 109.602 -0.859361
0.870002 109.134 -17.1877
4.55296 121.937 1.38937
7.68149 105.907 -17.4742
-12.6675 134.205 7.03911
33.0671 95.4626 -16.218
-3.19526 126.915 3.14542
-6.24334 115.941 -12.7312
20.9285 99.1304 -18.5681
-14.2697 121.666 -10.0587
-14.3744 122.921 -8.53055
28.5191 109.243 -1.21661
6.34943 121.921 2.19113
9.34415 117.836 -1.35521
-19.4655 132.451 0.676016
-5.34532 128.181 3.3288
27.9851 96.8328 -17.6184
-14.3092 126.082 -4.59743
37.87 94.3685 -15.0733
3.84266 122.725 1.58156
24.669 97.7026 -18.5114
-18.7681 128.368 -4.31959
-14.4444 125.751 -5.19025
-17.6375 136.261 6.45552
0.866942 125.393 3.22441
-14.129 126.115 -4.55691
-0.0447128 111.867 -14.698
23.0403 110.771 -2.71802
22.226 110.224 -3.89812
14.8879 101.932 -18.8209
23.3776 98.4757 -18.3627
3.61122 123.002 1.66785
-13.8005 135.329 7.31665
-12.2679 120.449 -10.9858
-0.676955 126.694 3.73997
-11.1797 133.168 5.93209
-8.71738 130.999 4.56521
-2.08685 127.119 3.41433
-14.1476 123.375 -8.54826
-5.86823 116.606 -12.4438
26.4273 111.381 -0.419833
-3.95696 115.972 -12.2493
-18.3742 128.372 -4.6992
30.793 107.49 -3.00277
27.0796 111.167 -0.473472
33.4362 104.468 -5.39804
-8.29802 130.704 4.05757
-6.75688 117.066 -12.5871
-18.6377 134.802 3.30652
-18.6604 133.839 2.00794
25.2556 112.165 -0.376692
16.7059 112.119 -5.47711
-16.6349 127.268 -5.36849
-12.4115 134.962 6.9595
-8.7306 131.543 4.63013
-3.74347 116.332 -12.0516
22.2365 111.246 -3.71058
-8.71709 118.309 -12.6453
36.8562 98.5761 -11.5652
-7.70586 130.733 3.81753
-10.1848 119.41 -12.1773
-19.4016 131.883 -1.5023
-14.1579 124.849 -7.6482
16.2742 112.778 -5.51364
-18.0699 136.814 5.42012
-1.17893 115.248 -12.4928
22.3853 111.642 -3.4691
28.0602 98.1514 -17.5724
-14.0878 136.584 7.29834
8.97561 119.747 -0.955254
7.21417 122.808 1.94874
33.773 104.716 -5.90744
-3.89081 117.228 -11.6935
-8.27074 118.743 -12.3653
19.8757 101.08 -18.7421
-13.5097 136.305 7.15086
12.1056 115.606 -4.59428
14.2841 114.088 -5.29646
-19.1428 131.835 -1.8947
-7.73574 118.581 -12.3474
25.801 98.6198 -18.5698
-13.288 122.573 -10.4797
-13.3265 123.85 -8.89873
-18.8547 132.544 -0.972505
10.9787 117.109 -3.58128
3.70798 109.8 -17.218
6.98122 123.306 2.0275
2.17211 110.559 -17.1657
23.4391 99.9933 -18.4755
11.9407 105.073 -18.6363
-13.7764 123.735 -9.59005
-18.994 132.315 -1.64082
-18.8794 131.754 -2.29845
36.6582 99.5426 -11.4612
4.95754 108.989 -17.7437
-13.6192 136.777 7.17175
-18.3861 136.559 4.10208
36.1795 97.7516 -14.1071
28.8588 110.629 -1.8291
-6.21815 118.613 -11.9586
-11.0743 121.384 -11.2249
8.18956 122.436 1.28101
24.3778 113.848 -0.365321
-18.2118 135.963 3.33095
16.4505 113.469 -5.46898
-2.39677 117.456 -11.2983
6.32756 108.113 -18.3099
-13.3058 123.095 -10.4915
26.0015 113.429 -0.105951
-7.95083 119.63 -11.8508
-16.1977 127.956 -5.98655
-6.80885 119.625 -11.3284
6.29126 124.411 2.40738
-15.963 137.909 6.82302
-6.60357 119.703 -11.17
2.38427 111.099 -17.0404
-8.75221 120.213 -11.8049
-13.8501 127.179 -5.81334
20.6461 112.644 -4.48764
17.0667 102.789 -19.2558
20.3262 101.776 -18.6792
-18.0772 137.426 4.8078
-13.8359 126.045 -7.37078
5.27821 124.858 2.13512
21.7009 112.688 -3.97845
10.6093 106.344 -18.622
-14.1027 128.158 -4.99142
-17.9589 133.435 -0.467182
-13.7483 129.297 -3.43243
-18.5478 132.024 -2.75537
-4.50942 118.998 -11.3797
9.45678 107.216 -18.4241
18.2588 102.729 -19.1254
-18.0367 133.272 -1.0029
-14.0249 129.544 -3.48104
35.4385 102.381 -9.68703
-5.73385 131.082 3.27538
8.84694 121.949 -0.0202629
-4.64736 119.403 -11.1532
-8.89727 121.153 -11.3831
-0.21037 116.499 -12.335
-0.862936 128.311 2.46282
4.4956 125.405 1.82032
35.3484 99.0576 -14.1352
-2.20417 118.66 -10.7494
-7.6776 121.186 -10.6809
-16.9943 138.218 5.78708
16.4652 114.372 -5.44054
-13.5505 125.745 -8.2467
29.4065 99.757 -16.7235
34.224 104.434 -7.93077
35.2641 99.0098 -14.3445
13.4796 116.073 -5.06361
28.7727 99.8686 -17.0538
-9.20293 121.42 -11.4017
13.3433 105.155 -19.2579
-3.93057 119.541 -10.8358
9.72222 120.209 -2.08426
22.393 101.771 -18.4314
33.1267 106.521 -6.12559
-0.2098 116.909 -12.1258
32.827 106.822 -5.93205
-16.3203 138.721 6.49809
-3.18547 119.536 -10.5525
-17.9291 136.451 2.57098
-14.2891 129.844 -3.86783
-13.7078 138.281 7.30228
32.7819 106.956 -5.97429
16.3273 103.978 -19.4063
-16.9316 131.078 -3.88937
26.4075 100.149 -18.5786
35.7711 100.072 -13.245
-7.57704 121.943 -10.3227
-4.73169 130.853 2.76888
17.483 114.581 -5.29297
23.3545 115.359 -0.890003
-5.30264 120.871 -10.4451
-14.3356 130.152 -3.76631
-4.27046 120.439 -10.4191
-1.14609 118.461 -11.1695
12.7993 105.919 -19.2039
17.9763 103.494 -19.3738
31.2417 99.7899 -16.4448
0.704594 128.013 2.07687
-18.3137 132.687 -3.00231
30.9476 100.003 -16.4166
33.3166 105.985 -7.3552
3.27259 126.676 1.7431
28.1268 100.457 -17.5548
11.9806 118.197 -4.19663
8.33329 108.793 -18.4287
-11.1297 123.257 -11.1764
-13.064 125.903 -8.90079
20.8256 114.147 -4.34692
22.0627 114.479 -3.21992
5.11775 111.415 -16.9954
32.9103 99.4163 -16.3597
11.4217 106.92 -19.1936
29.2511 100.591 -16.9965
-10.0361 136.236 6.00015
23.5448 116.254 -0.215155
-5.68216 132.124 3.17934
-10.4019 123.531 -10.6148
-13.6719 129.664 -4.63776
3.62981 112.777 -16.3566
-14.4119 129.512 -5.32748
26.1971 115.11 -0.281183
29.3709 100.694 -16.9674
-4.59765 131.275 2.57471
17.196 115.404 -5.2848
33.1036 99.6982 -16.2598
18.478 103.877 -19.3818
-7.75744 134.262 4.38486
9.06648 108.661 -18.7674
-3.41972 121.037 -10.1858
21.5621 103.256 -18.5617
34.5456 104.385 -9.69156
-13.7088 130.784 -3.83444
1.19105 128.715 2.13254
26.9475 101.066 -18.4582
29.3902 101.051 -17.0746
18.0901 104.357 -19.4083
29.8129 111.685 -3.20648
29.7489 101.088 -16.8974
23.4509 116.987 -0.120989
30.5469 101.068 -16.469
6.94351 126.421 2.40936
-13.4559 129.045 -6.08177
15.1253 116.813 -5.26286
-16.7475 132.165 -4.06225
19.5234 104.104 -19.1214
-17.0868 133.463 -2.64243
7.48766 109.914 -18.6914
34.0026 105.018 -9.60492
-13.374 139.408 7.09161
-13.6365 130.664 -4.3087
-5.96328 133.22 3.42366
16.9798 116.098 -5.30162
-7.01169 123.352 -9.91443
27.8373 113.963 -1.77933
30.9987 110.091 -4.96941
-10.1021 137.361 6.21779
-3.323 131.196 2.10843
-11.894 125.238 -10.5389
-17.655 138.676 3.35149
13.3334 118.318 -4.88754
-12.0028 139.063 7.05531
9.43813 109.307 -18.767
-15.6231 133.226 -2.6621
7.40037 110.511 -18.5224
16.9871 105.462 -19.4604
5.06388 127.753 2.26799
27.7033 114.598 -1.55542
29.8966 101.655 -17.0061
15.4393 106.183 -19.5822
32.9621 107.621 -7.57358
-1.80586 130.79 1.95133
34.2192 101.244 -15.1226
-16.2274 135.768 -0.0567482
9.29228 109.803 -18.6447
20.9738 104.515 -18.7049
32.5445 101.328 -16.1085
34.7388 103.369 -12.2165
-13.3152 129.458 -6.59402
6.9566 111.346 -18.1052
25.1641 102.554 -18.8385
10.8754 109.508 -18.2116
-7.96391 135.262 3.90742
13.8461 118.459 -5.02928
3.3815 114.716 -15.9681
-11.7973 126.18 -10.1084
-16.1338 134.188 -2.33887
34.3344 104.881 -10.7127
34.3755 102.22 -14.1802
34.4309 104.307 -11.4699
-10.3232 125.772 -9.88013
-15.0788 133.222 -3.07209
28.6021 102.027 -17.8184
9.73645 110.214 -18.277
25.9914 102.511 -18.7678
12.9773 119.332 -4.73817
23.327 103.813 -18.6812
32.4866 109.304 -6.35202
-12.5229 140.016 6.9701
5.70979 128.409 2.61125
10.7251 121.676 -3.13315
-0.589125 130.726 1.87137
31.4419 110.395 -5.70012
19.0172 105.442 -19.3798
1.02069 119.012 -12.4269
0.22399 130.226 1.5132
14.3393 107.469 -19.5712
21.4841 117.817 -2.15609
25.4463 117.595 -0.141674
33.5377 101.897 -15.6398
34.2964 103.994 -12.5236
16.1589 106.718 -19.5844
-10.6823 126.411 -9.93901
15.8944 118.096 -5.25678
12.3811 109.356 -18.5491
-4.83061 133.445 2.41089
-0.564681 121.96 -9.88416
-0.615628 131.243 1.97989
33.1646 102.033 -15.967
-4.67389 133.323 2.27886
-17.2718 139.451 2.84204
-13.0816 130.547 -6.17758
33.1838 106.675 -10.017
29.0725 102.532 -17.7295
11.8257 120.945 -4.09706
-16.5726 140.658 4.73133
20.6701 116.97 -4.10124
19.4973 105.723 -19.2411
-10.0587 138.649 5.87426
-3.93636 123.533 -10.0158
-16.7378 140.39 4.21704
-13.7285 140.948 6.67924
-15.024 141.147 6.1518
-14.3142 133.536 -3.24828
31.5637 110.756 -5.9215
17.5938 117.671 -5.15462
-12.6901 129.209 -8.00828
3.20672 129.942 2.12829
-15.4061 141.195 5.77486
31.3141 111.28 -5.59987
-13.1399 132.283 -4.41674
-12.9796 130.047 -7.19925
30.7119 112.146 -4.87183
29.7371 113.564 -3.62091
-16.7497 140.376 3.74271
-0.511151 131.781 2.04438
33.7701 105.241 -12.1764
-7.57609 136.142 3.52761
26.501 103.435 -18.7845
19.5663 106.214 -19.2934
-2.81094 123.785 -9.70137
-12.2725 127.813 -10.0536
0.133398 131.419 1.77178
-6.08884 134.792 2.48034
28.4484 115.435 -2.38949
2.22485 117.785 -14.5982
9.74569 112.741 -16.7337
-14.9583 135.069 -2.41072
23.7982 104.795 -18.8473
9.07198 126.482 0.436686
7.95207 113.483 -16.9553
-1.45054 123.671 -9.32158
0.0987181 122.431 -10.0444
-5.74002 125.178 -9.97318
-5.07384 124.877 -10.0015
25.5596 118.592 -0.318385
20.8398 118.538 -3.1698
4.66392 115.603 -16.3345
3.31629 116.878 -15.5149
10.1302 113.238 -16.2617
26.9776 103.903 -18.5238
9.94901 125.617 -0.513985
23.3347 120.337 0.446237
2.89337 117.608 -14.9885
-1.63858 132.856 1.94594
-13.3022 133.119 -4.50755
3.56215 116.84 -15.6515
-4.94539 134.729 2.34385
26.4105 104.091 -18.8422
-15.7305 138.37 0.741492
10.5982 123.863 -2.65371
29.6861 114.504 -3.63072
4.87612 115.811 -16.3638
28.1904 104.269 -17.7027
-15.2418 136.159 -1.93499
32.1728 108.288 -10.2546
15.2764 119.871 -5.20471
32.0809 105.471 -13.9593
-11.1728 141.099 6.70142
9.62124 114.013 -16.0491
-11.5065 129.903 -7.90363
-2.04897 133.223 1.85054
21.8783 106.163 -19.1214
29.378 115.05 -3.36916
-11.8545 141.47 6.61844
30.7728 106.179 -14.0332
-10.1478 140.008 5.67751
-0.117701 123.791 -9.35123
13.4117 121.22 -4.8236
-1.37533 124.621 -9.05901
16.9596 119.489 -5.01504
11.5788 123.01 -3.69309
28.869 104.833 -17.0917
10.6979 124.399 -2.49985
23.4913 105.72 -19.1196
24.5703 120.388 0.348416
7.90911 115.361 -15.7964
30.0663 105.61 -15.485
20.6431 120.28 -2.10246
-5.8603 135.846 2.44976
30.7941 106.828 -13.5835
15.1982 110.314 -18.1904
32.5658 107.633 -11.6152
0.403324 123.724 -9.68451
-5.85799 136.004 2.45758
-3.68737 126.12 -9.07314
-5.24891 126.258 -9.84218
1.36824 122.112 -11.3569
18.7192 119.541 -4.59355
-15.6595 142.204 4.54046
17.5417 109.132 -18.7121
20.4177 120.519 -2.41998
1.57196 121.831 -11.786
20.6097 121.919 -0.656084
0.444435 124.122 -9.54036
25.0015 105.497 -19.2239
1.83171 121.316 -12.3495
5.95957 116.758 -15.813
10.6596 114.167 -16.4376
-4.82565 135.476 1.95456
-7.92105 127.431 -10.2038
26.6409 106.576 -16.9526
25.7165 106.313 -17.8425
17.1273 109.661 -18.5579
13.5305 111.586 -18.1753
3.9446 131.298 1.57938
-16.3788 141.265 2.50656
-9.86336 140.833 5.68663
-9.66239 127.908 -10.8501
-4.39711 126.942 -9.08874
-4.77279 126.973 -9.28225
-5.84802 136.569 2.42094
23.2407 106.503 -19.3515
20.2533 121.444 -1.89502
22.0812 107.072 -19.4059
-5.57979 127.204 -9.61971
4.81209 131.322 1.59621
10.1902 115.605 -15.5307
1.59066 122.928 -11.129
17.1796 110.34 -18.293
31.7287 109.102 -11.4646
-15.0892 139.518 0.414148
31.5937 109.395 -11.2221
6.83833 117.132 -15.6621
27.4768 118.355 -2.13086
31.487 110.371 -10.0713
15.6115 121.464 -5.03935
-14.0999 143.106 5.5216
25.6407 108.153 -16.3911
7.01477 117.266 -15.5165
31.4791 110.487 -10.0332
19.1426 120.421 -4.44363
13.2115 122.958 -4.72525
3.31999 132.039 1.15983
1.67814 123.654 -10.6083
5.82516 118.025 -15.4364
25.3928 108.39 -16.5076
-5.19981 136.334 1.61841
-7.84581 139.127 3.66663
25.1855 108.259 -16.8494
18.325 109.792 -18.8625
19.2686 109.142 -19.1934
26.4367 109.43 -14.7034
23.0588 122.907 0.578568
8.0057 130.664 1.79757
30.3049 109.34 -12.6833
30.4354 112.15 -9.03376
-4.15969 127.968 -8.80929
-7.15691 138.698 3.21816
19.6944 121.49 -3.31872
11.0334 125.961 -2.60872
-3.04227 127.716 -8.58179
30.4421 109.608 -12.421
18.3308 121.165 -4.68518
28.5476 117.946 -2.91048
25.0236 108.581 -16.9981
-15.6391 141.726 1.99734
3.00546 132.567 1.01372
22.7182 123.438 0.689981
-6.40934 138.074 2.58075
23.2934 107.567 -19.4063
28.86 111.847 -10.7053
31.1703 114.186 -6.36219
20.9304 108.666 -19.4766
29.5105 116.837 -4.05671
4.57498 119.836 -14.7139
-6.39081 138.213 2.51206
-12.9449 135.291 -5.09221
12.2071 124.64 -4.23773
21.5229 108.612 -19.4605
24.2584 108.354 -18.2515
25.633 109.934 -15.4736
9.53004 129.297 -0.000399005
25.029 109.383 -16.6098
28.5592 118.372 -3.01571
-11.8688 134.459 -5.82186
20.0433 123.402 -1.54925
-14.2458 143.951 4.95643
-14.4102 140.256 0.108242
29.5136 112.733 -9.77051
11.3033 115.658 -16.582
26.2343 110.974 -13.958
30.016 113.338 -8.75788
6.05707 132.107 1.45674
-13.0066 135.615 -5.15572
11.8315 125.317 -4.01155
25.9764 110.549 -14.8378
3.1528 122.298 -12.9963
-15.2973 142.363 2.05341
5.54538 119.898 -14.7732
6.75151 120.11 -13.8187
27.3808 120.014 -2.02984
19.4742 122.584 -3.36889
27.5513 111.416 -13.0505
14.8586 123.598 -4.88744
-10.0472 130.468 -10.5888
22.8946 124.323 0.592915
24.9168 110.09 -16.6325
24.26 109.342 -18.0591
13.6549 114.677 -17.3615
4.8064 133.019 1.02448
22.2208 109.379 -19.3385
-0.554637 136.02 1.64565
2.56613 125.107 -10.596
1.83538 134.645 1.23198
19.7415 125.779 0.170322
-7.96687 130.067 -10.4532
1.86648 134.709 1.21538
-9.11669 130.015 -11.2042
26.1955 112.675 -13.0091
11.7654 116.293 -16.832
-12.9988 137.378 -4.14967
-0.808143 136.388 1.65357
-14.2557 141.41 0.298982
-14.7845 143.733 2.94732
9.21889 131.358 0.931871
9.26134 131.272 0.838971
6.6436 121.274 -13.5364
1.96806 126.221 -9.8934
2.73438 134.342 0.941986
-9.1375 142.64 4.66607
7.49768 132.646 1.4709
-11.2974 135.064 -6.43684
-9.1334 142.699 4.60261
11.8989 116.505 -16.8808
28.9714 113.856 -10.3856
-10.0474 131.884 -9.86478
9.06202 119.17 -15.1187
21.7637 125.512 0.383761
30.4021 116.149 -6.69256
10.8497 129.692 -0.646369
25.2284 112.026 -15.0288
19.6702 124.383 -2.37898
-8.2593 141.792 3.72086
6.65075 121.674 -13.5042
24.3189 110.428 -17.7134
-9.67745 132.995 -8.51073
4.26258 123.054 -13.2472
8.09688 120.353 -14.4948
27.4379 120.835 -2.67347
-14.1933 144.391 3.43519
26.9706 113.49 -12.4119
-10.9728 134.779 -7.09246
17.121 123.904 -4.85271
-10.559 134.42 -7.42482
6.06492 122.083 -13.6665
28.4416 119.566 -3.9384
6.84764 133.181 1.01847
-9.68019 132.393 -9.63823
24.8083 112.074 -15.7372
10.7862 118.466 -15.6676
11.4002 128.313 -2.66121
19.5591 124.909 -2.3031
-3.4294 138.068 1.263
-3.75472 130.759 -8.33188
-4.47335 131.055 -8.61245
10.9479 118.587 -15.7249
-8.53948 131.147 -10.9252
3.1316 135.005 0.799111
16.6987 124.482 -4.85732
-1.93196 130.865 -7.52312
19.4547 125.553 -1.97142
27.7323 114.186 -11.789
26.1755 113.711 -13.3188
29.2978 118.535 -5.33143
29.4706 118.278 -5.56638
-12.7403 141.401 -0.369516
28.3221 114.457 -11.2099
19.4235 125.709 -1.93094
26.0873 122.667 -1.97503
10.4337 119.13 -15.6072
1.29839 128.911 -8.38805
-13.3965 142.312 0.295934
-11.1053 144.933 4.96908
29.2207 115.18 -9.883
-0.153648 130.368 -7.43814
-4.45774 139.314 1.50354
-9.1058 143.529 4.12838
16.4023 125.012 -4.87001
15.7635 115.177 -17.9078
-12.6372 137.951 -5.13111
3.66671 125.905 -11.1695
13.1436 116.683 -17.5406
-2.9969 138.798 1.489
-12.2036 137.363 -5.72704
20.7116 112.717 -18.308
-2.3311 131.59 -7.46656
25.605 122.948 -2.37679
19.4199 126.686 -1.18879
29.1282 118.967 -5.51475
19.3478 125.4 -2.9382
25.8064 122.809 -2.58425
8.63865 122.151 -13.4121
26.9186 122.047 -3.07279
11.6459 118.904 -16.1041
-12.9473 145.788 4.16381
13.0583 117.256 -17.4114
-13.5182 143.543 0.915832
29.1274 119.085 -5.7785
-12.5227 137.998 -5.68121
26.5388 119.099 -7.30182
29.6501 116.663 -8.65773
-11.7499 137.369 -6.07876
9.15034 122.366 -13.2335
25.762 118.796 -8.19724
29.9588 117.095 -7.95897
-6.31935 141.289 2.07662
29.5081 118.332 -6.65299
29.5488 118.214 -6.8315
27.5194 121.271 -4.11003
-3.87659 132.637 -7.74857
-5.56254 132.623 -8.85303
25.3637 114.338 -14.4159
28.3665 119.167 -6.47312
11.0511 132.032 -0.0744195
26.9155 119.494 -7.03911
23.8106 112.903 -17.324
20.0676 128.13 0.0589273
-3.71713 140.306 1.8172
28.6867 116.988 -9.45288
23.7247 114.029 -16.1475
-9.61093 135.037 -8.52286
3.41051 128 -10.0109
2.4851 129.198 -9.02599
12.1687 128.876 -3.84261
-12.7827 140.15 -3.86845
5.02139 125.624 -12.2294
8.24362 134.331 0.775518
11.4439 130.051 -2.89004
-13.4008 145.893 3.04726
-13.2644 146.015 3.2682
11.8214 129.349 -3.64353
-12.6061 141.6 -2.10764
-13.1877 146.067 3.28244
27.8945 120.172 -6.17144
-2.00368 139.959 1.86381
-2.68707 133.161 -7.28131
23.8064 114.679 -15.6592
15.9995 116.301 -18.1255
18.6284 126.367 -3.72944
4.47111 126.635 -11.6336
21.4506 113.828 -18.268
1.47231 137.924 1.0817
16.1818 116.359 -18.1405
-1.01221 139.53 1.63953
6.05808 135.459 0.510446
-12.6762 141.612 -2.46038
16.5378 126.647 -4.75234
-11.1614 137.679 -6.66336
-4.22728 133.728 -7.71932
1.31092 131.112 -7.88558
10.4984 123.08 -12.907
26.8371 115.67 -12.9966
10.5739 122.1 -14.2131
18.8474 129.339 -0.146622
11.8266 120.032 -16.1847
25.1568 123.842 -3.61482
18.798 128.549 -1.28148
-6.75389 133.76 -9.43605
26.0046 119.674 -8.52856
19.8648 129.419 0.38689
-10.0306 145.834 4.12937
-11.4909 138.743 -5.8361
1.66794 131.078 -8.08792
10.3179 134.039 0.683641
-9.39241 135.905 -8.39482
-1.47384 133.49 -6.91095
27.7191 121.189 -5.81083
18.245 126.831 -4.06024
16.9092 127.024 -4.5986
10.8037 122.1 -14.4757
-10.4341 137.345 -7.24586
-5.97756 133.923 -9.11094
24.6452 118.636 -10.9884
16.4499 127.234 -4.71327
-0.724698 139.905 1.50778
-8.20828 144.561 3.13407
6.82791 126.428 -11.4657
-12.5589 144.592 0.592115
15.4685 118.579 -16.5924
-10.0228 137.229 -7.45352
27.6667 117.039 -11.5433
-3.71975 134.478 -7.38561
-12.4542 141.43 -3.53861
21.3271 127.951 -1.29609
26.9023 120.774 -7.31699
18.1258 130.17 -0.349392
-1.68559 140.726 1.67459
-10.9134 138.722 -6.26127
-10.9607 138.888 -6.10305
7.87858 135.457 0.388433
22.3675 127.242 -1.83689
26.3712 120.757 -7.94201
23.2459 126.926 -1.83533
11.6356 131.093 -3.23419
1.20345 139.137 1.02167
25.6155 118.025 -12.0139
4.42766 128.871 -10.4183
20.0917 129.886 -0.0309794
5.84221 127.789 -11.016
19.0275 128.491 -2.46659
15.01 128.601 -4.67028
-11.9789 141.059 -4.36048
8.24974 126.635 -11.1699
12.0281 121.498 -15.5798
23.4821 126.954 -1.93164
12.0003 130.801 -3.65971
12.2659 121.463 -15.5323
17.3108 117.156 -18.2099
15.6088 120.036 -15.5093
-1.01765 140.817 1.47937
25.1352 123.273 -5.94067
15.2845 128.757 -4.65751
-0.109059 140.36 1.27583
25.6097 121.181 -8.47781
9.49265 126.137 -11.4826
-12.0723 141.691 -4.0499
11.6988 124.256 -12.7672
10.6164 134.629 -0.0971153
25.1757 123.716 -5.67367
-9.98283 146.988 3.82454
-0.900328 134.978 -6.35463
-12.0105 143.193 -2.27514
-4.33163 135.357 -7.97266
11.8661 122.616 -14.9491
-0.00268907 140.636 1.21018
22.9531 116.816 -16.1134
-10.5264 139.868 -6.01189
25.2759 122.006 -8.21436
17.0634 119.246 -16.5404
10.1778 135.791 0.61769
21.1642 129.011 -1.72355
18.4435 117.657 -17.9211
22.5349 120.716 -11.6217
19.2806 117.21 -18.0314
20.5521 130.164 -0.679081
16.6914 128.982 -4.44678
24.8767 126.193 -3.2829
25.4326 117.429 -14.2401
-0.864601 141.464 1.35959
25.6521 121.279 -9.24056
22.4392 127.991 -2.48425
25.3986 124.666 -5.09421
12.4557 122.896 -14.973
-1.90724 142.075 1.32383
17.9248 129.117 -3.82478
12.166 124.392 -13.2606
25.0396 117.776 -14.3184
17.588 131.844 -0.594205
17.6145 118.973 -17.14
18.5713 129.998 -2.41725
-2.29963 136.239 -6.62561
12.1331 132.051 -3.73416
12.3305 124.031 -13.9406
18.8078 131.892 -0.0829272
6.06138 129.954 -9.98007
-10.2889 140.708 -5.68134
3.09123 132.877 -7.98825
24.7754 126.827 -3.19481
20.9621 119.49 -14.8593
20.9939 116.9 -18.1993
12.3912 124.413 -13.5541
20.9589 119.886 -14.4288
-1.0158 142.025 1.21629
20.7881 130.551 -0.899298
16.0505 129.842 -4.57424
4.49463 132.003 -8.60883
5.80118 130.548 -9.73377
19.7648 131.548 -0.374561
21.2902 129.967 -1.67454
-2.25322 136.785 -6.62979
20.4001 120.589 -14.3513
-11.783 148.149 2.36837
0.847693 135.861 -6.14254
23.2997 118.692 -15.1924
2.64998 134.459 -6.96844
-7.56835 146.461 2.46937
-7.19341 137.352 -9.05033
7.72468 137.727 0.0861189
-11.4947 146.273 -0.0981752
8.1241 137.654 0.0718581
18.6906 121.568 -14.5139
17.0551 133.646 0.0448334
17.9047 132.025 -1.57122
19.7749 123.131 -11.9988
-8.11368 138.738 -8.16566
1.99345 135.541 -6.42722
2.95448 134.826 -6.8443
-11.588 147.616 1.11139
16.0918 121.946 -15.8977
-5.45139 137.714 -8.17513
-9.31401 140.381 -7.04569
19.2007 123.522 -12.1749
-4.80197 144.964 1.44797
10.8997 126.981 -12.5722
19.3233 132.679 -0.443908
-11.5345 147.694 0.865651
-9.33054 148.408 3.04907
26.0195 123.825 -8.0926
17.2074 133.758 -0.479674
-11.561 148.017 1.14645
-9.93884 148.668 2.91641
26.0754 124.183 -7.69611
-6.13771 137.785 -8.91449
4.56791 141.116 1.55298
13.9721 124.517 -14.3402
-4.9293 138.43 -7.45714
18.6979 121.323 -15.7326
21.6094 130.766 -1.91259
10.5401 137.688 0.540372
-4.3504 138.571 -6.98399
11.173 136.56 -0.634006
24.7625 124.775 -7.92023
21.1504 131.201 -1.79552
6.24807 132.339 -9.00554
4.72259 133.848 -7.9903
22.6621 129.246 -3.4945
1.44881 142.936 1.76817
24.2494 128.366 -3.74699
0.879947 143.295 1.86016
-8.61281 140.209 -7.64255
3.93188 134.929 -7.15833
9.8755 128.99 -11.4367
17.2851 121.213 -17.1473
6.69175 132.194 -9.20673
-6.39163 146.843 2.01126
25.5778 127.303 -4.62938
22.7547 123.027 -11.8124
8.54824 138.797 0.208031
19.9124 127.952 -7.20966
20.0357 128.557 -6.37173
2.53927 142.945 1.9406
0.520401 143.82 1.88038
22.2555 127.773 -6.13631
18.5087 122.615 -14.9645
-11.3822 147.946 0.228556
24.7433 124.477 -8.99111
21.3863 120.262 -16.3883
-4.7068 145.927 1.44061
4.80653 134.235 -8.06639
-4.67108 139.298 -7.10617
16.7798 121.643 -17.3626
3.77194 135.636 -6.93743
12.6306 125.995 -14.1952
-8.11249 148.288 2.41376
10.9858 136.856 -1.20398
10.9151 137.178 -0.845244
16.6971 134.987 -0.322139
22.4183 130.455 -2.87285
16.8673 132.287 -3.74953
-2.22813 139.042 -6.2699
19.7742 124.429 -12.2888
-2.8003 139.265 -6.3408
12.8645 134.88 -2.96097
25.4934 127.934 -4.56086
19.3175 128.447 -7.56379
3.58541 136.139 -6.83261
24.4554 126.427 -7.28618
16.8224 132.75 -3.59352
-4.76609 139.831 -7.10498
24.9879 126.433 -7.07496
18.541 124.246 -13.6308
-3.89359 140.065 -6.38804
23.1855 125.7 -9.16491
17.3031 134.044 -1.87173
22.6981 130.672 -3.10565
19.1037 133.933 -1.00904
17.4792 133.37 -2.72533
25.0668 126.562 -7.07937
5.00242 134.716 -8.25428
-8.60734 149.195 2.41816
-0.481487 139.395 -5.45996
-11.197 148.161 -0.456487
22.821 128.27 -6.29477
-3.53318 140.239 -6.22133
-9.94974 143.724 -5.46857
-10.5896 149.414 1.45216
-7.84188 140.992 -7.78804
25.9246 125.29 -8.42592
14.6579 133.491 -4.44322
23.0177 124.828 -10.7267
12.6384 126.415 -14.7187
18.1352 121.527 -17.8456
26.2337 125.723 -7.7866
13.4347 134.765 -3.6078
25.6847 126.667 -6.92684
-10.602 149.474 1.30561
20.4342 127.311 -9.20173
13.0386 135.338 -3.19118
17.4372 125.605 -13.1733
21.7145 123.523 -13.3661
10.5786 139.609 0.833757
23.2116 125.685 -9.73191
21.8583 126.478 -9.50308
24.453 126.442 -8.07311
19.7397 133.615 -1.60551
18.676 124.404 -14.062
8.3757 131.878 -10.4755
-6.0838 140.575 -7.69801
0.409999 139.519 -5.36866
21.5212 129.291 -6.32198
11.9372 127.006 -14.844
11.8304 127.163 -14.7471
10.7375 139.042 -0.132119
21.1795 125.658 -11.2847
22.5751 123.809 -12.8513
12.9227 135.734 -3.22316
9.44716 130.5 -11.9732
23.8975 124.196 -11.7006
-1.07265 140.36 -5.48595
17.7012 125.581 -13.5863
17.9562 128.938 -9.14762
16.6169 136.169 -0.633123
23.7453 126.434 -9.01401
17.2695 123.116 -17.0456
25.961 126.683 -7.46839
17.8884 129.716 -8.30495
13.1291 126.309 -15.4713
17.2968 123.337 -16.9015
25.9656 128.273 -5.54817
12.1968 136.411 -3.08348
-8.4016 149.852 2.21852
18.6744 128.326 -9.74704
21.4137 124.257 -13.4009
20.9951 130.264 -5.93108
6.84041 133.926 -9.48635
-6.07037 141.664 -7.11322
-10.9738 147.8 -2.08369
16.8853 123.138 -17.6547
17.5569 136.848 0.285506
25.0052 128.098 -6.67517
27.2764 124.601 -9.86179
4.25118 137.121 -7.22045
21.5105 126.682 -10.6744
23.3488 125.327 -11.3505
22.4009 124.342 -13.1687
20.7639 124.452 -14.005
17.106 123.873 -16.9667
22.6481 129.281 -6.88781
22.2088 126.925 -10.1754
24.5803 124.033 -12.5309
27.5494 125.89 -8.42986
23.5873 123.415 -13.9278
24.6605 124.506 -11.9675
-6.76331 149.423 1.69343
18.1412 129.039 -10.0619
-3.93854 142.22 -5.96281
21.3708 130.424 -6.43746
19.3949 136.042 -0.461818
27.1001 124.331 -11.0994
19.3847 126.968 -12.2593
-10.1014 146.422 -4.38804
16.5349 135.262 -3.28514
19.2916 128.02 -11.0297
25.7589 128.003 -7.30799
22.8615 131.833 -4.0826
23.1904 129.481 -6.92839
21.6539 125.49 -12.9692
6.06975 142.93 0.395407
5.1083 143.521 0.500047
16.5464 124.371 -17.4734
21.7951 126.516 -11.703
14.7519 135.524 -4.27135
23.9558 124.632 -12.9291
2.79292 139.258 -6.4353
25.1473 124.613 -12.2814
16.4617 136.176 -2.48273
11.3985 138.783 -2.08227
16.3036 135.548 -3.41788
13.447 136.371 -4.09432
21.3384 125.774 -13.1364
17.8253 126.379 -14.412
25.669 124.834 -11.8531
22.5159 132.341 -4.05864
25.1303 129.499 -6.2428
-10.7543 149.061 -1.95284
6.98017 142.912 0.424337
18.0017 125.481 -15.6705
21.6514 125.869 -13.073
20.0082 136.126 -0.847964
9.28692 142.961 1.70947
15.9798 125.46 -16.9979
17.6168 126.765 -14.3726
8.48908 143.391 1.66825
28.1324 126.83 -8.26607
16.2042 137.354 -1.67552
11.1043 139.864 -1.42543
-9.93541 147.132 -4.33111
25.1243 128.553 -7.88566
-0.643407 142.523 -4.94538
16.7154 128.638 -12.7726
22.0874 133.131 -3.88768
14.3003 126.939 -16.3892
11.2308 139.937 -1.48273
21.7269 126.022 -13.2823
4.75085 137.892 -7.91477
9.09073 132.606 -12.1946
-8.68328 151.055 1.16696
26.6552 130.464 -4.84636
26.916 130.071 -5.27579
16.591 126.431 -15.9779
23.0867 130.258 -7.30258
7.09338 143.477 0.389472
22.3692 128.576 -9.9355
22.9007 132.005 -5.25338
19.5832 132.33 -6.82901
1.14885 141.693 -5.57274
-2.94172 144.159 -4.82147
19.7354 132.366 -6.87537
23.9691 129.891 -7.62462
20.2667 126.714 -13.8672
18.1225 126.696 -15.1453
26.8446 124.469 -12.9578
24.9916 130.219 -6.68746
19.8896 128.53 -11.8358
10.2093 131.604 -13.5265
-10.0521 150.902 -0.521518
18.8452 131.954 -8.10617
10.5306 131.28 -13.8075
19.8337 132.372 -7.04776
17.2651 128.989 -12.9087
25.2284 130.412 -6.50983
-9.56409 151.452 0.330373
-4.72971 144.824 -5.39475
12.1475 139.59 -2.32738
16.1976 138.305 -1.63529
19.9935 131.194 -8.58655
20.932 136.291 -1.59246
0.434204 142.932 -5.0766
25.6918 131.061 -5.69258
18.4194 131.649 -9.16449
19.1427 126.991 -14.7316
17.4485 139.945 0.762036
10.247 142.178 -0.585761
18.6723 129.319 -12.2957
16.4279 129.244 -13.7377
26.3768 131.857 -4.63934
24.1422 130.74 -7.46729
20.8044 130.155 -10.1632
25.4081 130.911 -6.6323
3.85998 140.028 -7.45218
25.2876 131.446 -6.09883
19.6004 137.86 -1.16633
12.9228 129.615 -15.6411
13.8862 138.506 -3.67111
16.952 132.949 -9.05843
16.631 133.422 -8.65985
-1.5255 145.02 -4.30354
17.3643 129.83 -12.8647
-5.16162 145.826 -5.39411
16.0626 138.864 -2.07467
2.64257 141.469 -6.60283
21.6717 136.34 -2.16712
24.2119 132.196 -6.04258
27.7614 131.555 -4.8374
18.8367 130.736 -11.1138
16.3739 129.475 -14.199
28.9701 128.463 -8.19786
24.6783 132.078 -6.04521
17.1195 140.513 0.383927
17.0327 128.118 -15.6499
-2.96595 146.059 -4.22006
17.2043 130.247 -12.8552
22.9583 134.229 -4.42427
24.2824 133.37 -4.78547
16.6951 132.08 -10.8616
23.2627 134.61 -3.80501
19.4776 131.984 -9.41228
20.4352 132.374 -8.38665
18.4924 139.642 -0.219538
25.1233 132.413 -5.70509
25.9893 132.703 -4.86466
24.7543 131.476 -7.21106
-5.18719 146.56 -5.23957
20.3515 132.298 -8.81797
24.576 131.473 -7.42788
19.4498 138.916 -0.879271
23.9225 132.433 -6.61626
26.759 133.065 -4.21851
29.6202 127.17 -10.1732
18.3278 140.36 0.223373
17.4789 132.402 -10.5188
-1.67792 146.033 -4.13659
15.8298 138.995 -3.03944
20.2462 132.218 -9.23701
16.7947 131.853 -11.7625
1.97689 142.91 -6.216
-3.04514 147.05 -3.82345
26.1632 134.016 -3.64609
1.09613 143.846 -5.5949
-2.94105 147.1 -3.79999
25.8806 134.209 -3.65114
19.3523 131.812 -10.5399
-8.56398 152.801 0.150328
16.3956 129.857 -14.8587
17.1702 141.594 0.596787
29.7531 127.49 -10.2884
-7.86026 149.187 -4.27687
18.3176 129.571 -14.3328
-1.2377 146.234 -4.27466
3.22363 142.18 -7.00236
13.2456 141.028 -2.68787
-4.94963 147.68 -4.72795
18.5131 132.719 -10.3385
26.1052 134.439 -3.80646
29.6144 128.381 -9.57872
16.6562 132.475 -11.8929
9.93123 145.375 0.752754
16.4969 133.836 -10.2769
20.5347 133.157 -8.84767
22.7755 136.872 -2.81876
8.61101 136.528 -11.5203
21.6276 138.015 -2.05773
18.2732 133.261 -10.1699
18.5001 129.594 -14.826
17.5756 132.045 -12.2434
-6.28998 148.934 -4.51777
20.9201 126.655 -17.3775
0.608849 145.361 -5.14066
13.9461 131.043 -15.8064
-7.31754 153.4 0.554129
25.6623 135.145 -3.90894
29.7621 128.932 -9.57075
9.94245 144.897 -0.585851
19.0102 132.812 -10.8682
19.9542 132.79 -10.4087
8.29413 137.488 -11.1971
25.2846 135.528 -3.87299
14.1259 131.309 -15.8344
30.2608 130.266 -7.99793
-4.80234 149.263 -3.9568
10.8681 143.855 -1.86248
9.91468 144.65 -1.43802
20.0585 128.091 -16.8398
14.183 131.57 -15.8244
15.7089 141.771 -1.88225
20.1496 133.98 -9.38189
-7.46435 153.408 -0.459637
10.2126 144.61 -1.56023
15.701 142.014 -1.73027
16.7628 131.491 -14.6833
-0.472219 147.269 -4.43461
18.4108 135 -9.29237
15.7772 131.19 -15.8311
20.2339 128.218 -17.1209
9.96588 146.635 0.559442
19.9295 134.369 -9.43306
22.1963 126.673 -18.0235
0.0127306 147.074 -4.71632
4.83428 142.127 -8.29062
27.7999 134.384 -4.98976
-7.18967 154.349 0.358119
14.1424 142.071 -3.12736
21.1235 127.604 -17.6956
9.28448 147.461 0.909148
30.9424 131.8 -6.68953
31.0157 131.754 -6.7633
-3.55718 150.502 -2.79823
4.21515 143.271 -7.62962
-3.72902 150.711 -2.69981
21.971 127.2 -18.0124
24.8142 137.142 -3.80826
12.5467 143.77 -2.43827
15.6245 144.077 -0.306419
32.3103 129.83 -8.93333
16.9562 136.504 -9.355
-5.86455 152.119 -2.5348
11.2806 144.82 -1.97981
31.4123 128.208 -11.6794
26.016 136.375 -4.33004
13.819 142.996 -2.92067
31.7964 130.698 -8.34732
32.2943 129.926 -9.11885
26.441 136.114 -4.61527
17.748 135.772 -10.1059
1.17517 146.899 -5.42643
20.4131 142.353 -0.117188
15.6231 132.952 -15.0616
17.2646 143.932 0.000295412
16.6321 144.224 -0.00377466
21.5156 141.32 -1.02424
2.16752 146.145 -6.07131
22.0968 128.099 -17.9502
3.25863 145.352 -6.7956
9.45388 147.106 -0.950324
13.0187 135.004 -14.4406
12.8915 135.309 -14.1484
3.22158 145.449 -6.76401
8.80569 139.494 -11.3208
1.56027 147.204 -5.6662
7.75953 140.317 -11.0135
-3.46167 151.84 -2.7201
32.2516 129.053 -11.3003
4.04372 144.932 -7.27131
17.2636 135.2 -12.1292
30.8987 132.236 -8.08986
32.8396 130.011 -9.8422
10.693 146.752 -1.30058
-4.35807 152.898 -2.15452
32.9746 130.011 -9.94003
15.4873 145.448 -0.253091
21.6827 129.269 -17.4836
22.4688 140.895 -2.15123
19.0678 134.892 -11.8638
29.891 132.909 -8.14027
31.9165 130.882 -9.59095
20.8824 143.234 -0.173341
17.68 135.388 -12.1741
11.9921 145.918 -1.98002
18.4151 132.94 -14.9654
16.3002 145.51 -0.0805478
17.4391 137.551 -9.68816
10.7078 147.195 -1.20206
9.79316 147.958 -0.859862
27.6715 128.61 -15.4677
19.3322 132.445 -15.4756
21.0767 130.672 -16.7808
13.0645 136.967 -13.3519
20.0095 144.216 -0.0440973
22.9483 128.934 -18.0238
18.9603 133.442 -14.7177
18.6704 135.624 -12.1686
11.7513 147.038 -1.51828
18.0036 137.299 -10.4154
13.3821 137.041 -13.5226
19.7217 132.619 -15.5424
0.577368 149.567 -4.93415
13.8802 136.437 -14.1061
23.9135 131.174 -15.0519
19.3435 133.744 -14.4622
18.5424 137.519 -10.0816
18.8623 136.011 -11.8489
21.3807 131.124 -16.714
18.205 137.525 -10.417
23.2879 131.738 -15.0577
22.0247 143.267 -1.00517
13.8049 137.013 -13.8384
16.7706 146.795 0.384455
26.2624 139.396 -3.6353
15.454 136.509 -13.6327
17.4273 136.139 -12.9987
12.7547 146.969 -1.79586
28.1704 137.16 -5.54909
11.6172 148.208 -0.971368
13.72 137.391 -13.6647
23.591 132.97 -13.6566
21.5676 131.648 -16.5431
23.3851 132.856 -13.9587
23.7838 141.553 -2.5627
1.56141 149.436 -5.41793
23.1147 130.162 -17.7445
17.8965 138.511 -10.1137
9.20528 150.64 0.427115
17.7072 138.72 -10.08
30.7633 132.909 -9.97423
2.67029 148.604 -6.1291
9.47651 150.606 0.360154
18.1605 135.69 -13.7859
32.8307 131.01 -11.3091
28.7739 131.045 -13.6281
28.5261 131.012 -13.8166
3.82967 147.433 -7.11297
14.4526 137.065 -14.3057
-1.99741 153.679 -2.52204
25.7272 131.201 -15.3217
29.9874 133.365 -10.0958
5.03161 146.286 -8.03407
30.5121 132.483 -10.9946
14.0357 147.351 -1.47232
24.9267 133.054 -13.582
14.9787 136.855 -14.4891
27.1015 130.531 -15.5953
18.8853 137.762 -11.0784
28.2405 137.077 -6.53015
12.4426 148.635 -0.948444
30.8396 132.532 -10.9684
23.8445 134.129 -12.9856
16.6373 142.488 -6.50367
30.1627 132.111 -12.0006
16.0409 147.762 -0.118728
20.9516 135.053 -13.6063
18.0096 141.108 -7.53844
23.3099 142.953 -2.09167
18.2954 140.518 -8.14624
13.4655 148.042 -1.34914
18.1983 147.307 0.447765
32.2136 132.152 -10.9778
29.0011 134.664 -9.64619
22.7987 134.652 -13.2758
17.9233 147.665 0.588538
29.2631 134.107 -10.2764
17.0212 137.717 -12.7709
30.6628 132.673 -11.3377
21.5148 135.159 -13.5211
25.3469 134.008 -12.7888
4.63072 147.434 -7.56256
14.927 137.498 -14.4759
30.4746 132.754 -11.5863
22.8753 144.183 -1.44055
12.2009 149.858 -0.343706
16.1953 148.268 -0.104352
8.88119 142.946 -11.1913
0.252159 152.906 -3.48617
11.25 141.345 -12.0003
26.7438 140.241 -4.46004
11.0607 141.562 -11.8882
4.95217 147.717 -7.56585
2.78225 150.115 -5.75735
22.6354 144.86 -1.02477
17.4132 148.464 0.565601
11.4502 141.317 -12.1206
7.81839 153.485 1.31298
10.0449 152.056 0.767326
16.6684 142.167 -8.15558
18.5136 148.042 0.446288
9.35447 152.603 0.950468
33.7291 132.286 -11.0415
19.081 137.117 -13.3554
17.5861 140.317 -10.118
20.9343 136.246 -13.4262
14.7441 149.045 -0.574793
16.4905 144.383 -5.55356
29.3225 134.802 -10.5402
17.3801 148.808 0.516767
6.24663 146.837 -8.51178
24.7671 135.584 -12.3808
15.6084 148.977 -0.518593
20.191 147.341 -0.0250191
26.1776 134.149 -13.5745
26.3128 133.79 -14.0203
4.79574 149.012 -6.95455
20.8753 137.055 -12.9949
18.7308 138.732 -12.2238
19.4725 137.735 -13.088
17.0828 144.302 -6.11023
28.5113 136.951 -9.0047
12.3979 151.563 0.393662
3.86473 150.5 -5.94399
7.05278 146.756 -8.91433
8.0149 154.39 1.42864
15.9842 140.685 -11.5747
17.1464 145.837 -4.29077
2.95155 152.908 -3.47163
26.7762 140.473 -5.62824
20.4714 137.738 -12.9454
16.516 145.778 -4.93382
7.11155 146.965 -8.87241
12.6958 141.369 -12.8499
11.3456 152.455 0.603887
29.8225 135.164 -10.9029
25.2834 137.029 -11.1445
21.004 137.97 -12.4842
10.4004 152.938 0.577355
10.8358 143.157 -11.766
21.1332 138.047 -12.3639
26.5095 136.151 -11.7682
14.2026 150.929 0.0142102
26.2201 142.362 -4.06862
29.2634 132.854 -14.537
16.386 140.395 -12.3369
27.6198 138.621 -8.09838
24.2886 144.982 -1.85755
17.1881 149.89 0.305698
22.9306 138.411 -11.1624
29.6065 133.283 -13.886
26.987 135.642 -12.3859
3.93339 153.112 -3.3749
15.8602 146.298 -5.2215
27.7658 133.673 -14.5434
24.3045 138.126 -10.832
17.3653 146.301 -4.36397
29.5919 134.549 -12.4471
30.4382 135.389 -10.9032
17.1056 147.162 -3.52407
15.3309 146.315 -5.65723
23.4913 138.736 -10.7046
27.0947 135.581 -12.6873
20.8931 147.88 -0.511617
11.7398 152.809 0.498486
12.6204 152.296 0.346599
4.36759 153.145 -3.40779
24.4093 145.081 -2.15198
26.8419 136.83 -11.3893
27.0744 136.398 -11.8212
6.91521 148.397 -8.10768
4.35735 152.404 -4.48171
4.7036 154.09 -2.16836
9.7038 145.531 -10.2697
17.4465 146.686 -4.37304
11.5483 153.125 0.445121
10.0538 154.142 0.847746
27.6261 134.479 -14.2529
8.6901 153.324 -1.14706
27.2928 136.409 -12.1004
18.7106 143.931 -7.46054
29.5092 134.445 -13.3864
27.4331 136.091 -12.4798
12.1687 143.836 -11.4407
7.43772 153.909 -1.24894
17.9229 150.4 0.300543
7.80761 148.333 -8.24664
16.0008 151.136 0.00699817
25.6344 144.32 -3.19189
7.7231 153.465 -1.87248
5.50008 153.105 -3.67915
7.52362 153.497 -2.02042
17.585 147.029 -4.51005
26.2082 142.921 -4.79208
19.9754 139.963 -12.2524
7.83263 148.89 -7.87917
10.1471 153.201 -1.02421
15.5094 148.729 -3.72761
13.5397 145.695 -8.80811
17.9466 150.675 0.118256
26.1842 143.264 -4.63156
20.8198 148.669 -0.830892
20.2198 140.232 -12.0746
25.4052 141.075 -7.9919
21.6743 140.087 -11.4603
29.734 136.783 -11.0364
29.3176 135.737 -12.6833
14.4129 148.08 -5.47202
9.10238 152.955 -2.35884
29.109 135.737 -12.9262
15.5667 149.647 -3.08735
21.9777 140.492 -11.1525
11.9302 153.732 0.0258115
19.9365 149.483 -0.790016
23.1897 140.562 -10.3718
27.9749 136.12 -13.3486
17.2163 151.516 0.160118
25.5522 142.553 -6.53857
19.2988 142.729 -9.94961
22.9592 140.686 -10.4871
16.1946 150.142 -2.26454
20.2076 149.455 -0.906571
9.81219 152.573 -2.95693
9.34494 148.765 -8.12371
29.7725 137.508 -10.744
10.0582 147.387 -9.51107
15.2136 149.588 -3.70093
6.96429 152.093 -5.28117
18.2733 147.964 -4.02347
25.0121 142.14 -7.62662
9.69184 148.089 -8.92349
24.475 141.508 -8.85555
19.1608 143.77 -9.1063
21.7168 141.002 -11.1898
18.2275 151.039 -0.33864
26.1589 144.437 -4.22443
25.9069 143.065 -6.18283
12.2914 151.587 -3.16562
23.4738 141.196 -10.0482
27.1029 140.277 -9.16443
13.4094 153.181 -0.546731
18.9748 144.698 -8.24838
13.1567 152.61 -1.49784
20.3569 142.612 -10.3258
7.88456 152.345 -5.10375
26.7341 142.251 -7.17834
14.0133 152.704 -1.15236
30.6265 136.759 -12.1049
27.3657 142.621 -6.50289
26.938 142.068 -7.54582
27.8094 139.072 -10.9461
26.7417 143.559 -5.85451
11.1892 148.62 -8.43436
11.2649 148.622 -8.40448
30.6727 136.865 -12.2627
19.1335 145.604 -7.76363
26.5663 143.981 -5.6099
21.466 143.227 -9.59597
27.5744 143.295 -5.97898
29.6059 138.85 -10.5383
12.2082 151.503 -4.40612
10.7543 151.898 -4.76519
12.0199 148.79 -8.05285
12.6124 148.812 -7.81748
10.3024 150.261 -7.31456
17.3644 150.343 -3.18574
29.3515 138.538 -11.4065
29.8348 138.88 -10.7613
19.6151 146.421 -7.01226
12.3229 149.969 -6.85618
20.5934 146.039 -7.13592
22.6297 142.96 -9.91804
16.5481 151.55 -2.5424
19.6225 147.516 -6.13873
17.2147 151.699 -2.26793
17.3724 151.635 -2.3377
22.1868 145.049 -8.21583
