ply
format ascii 1.0
comment Created by Open3D
element vertex 1688
property double x
property double y
property double z
end_header
0.497291 82.1725 2.59228
17.3242 122.162 12.0235
-0.124183 104.643 -6.01811
11.6347 146.604 -4.27164
1.42856 82.5969 3.77982
8.4763 134.146 -4.30573
0.428614 105.66 -5.55465
15.9543 130.151 7.44382
16.5748 150.729 1.20081
16.6474 150.474 1.43716
4.75094 112.788 -1.95734
0.355168 79.3187 3.55071
17.2922 122.966 11.8603
6.26451 91.3645 7.55999
0.450234 92.6533 -0.896663
9.12195 139.932 -5.24739
17.8488 131.581 9.69807
8.70475 136.732 -4.69529
10.6192 117.415 4.62993
12.7471 131.223 2.80177
17.0257 123.028 11.5463
8.42039 124.212 -0.729157
11.7819 126.012 3.37289
8.17316 120.883 0.179064
-1.00679 77.8535 2.38321
14.7742 149.171 -0.462446
13.4424 134.101 2.97161
3.87583 83.2793 7.33164
0.790263 97.1322 -1.69234
-1.85481 98.17 -5.65124
0.7708 80.3037 4.17823
11.2289 122.281 4.13468
8.64852 138.94 -5.18933
12.6106 147.344 -2.61043
10.535 146.674 -5.23792
-1.52749 101.145 -6.14779
12.6199 147.992 -2.75954
9.65037 107.987 6.99073
7.87407 130.924 -3.39157
-2.76959 76.5373 0.760084
-2.22646 98.5561 -6.09788
10.6248 147.343 -5.21307
12.583 148.384 -2.86693
-1.75398 97.8566 -5.18359
15.4767 138.715 4.50911
11.6464 146.992 -3.63941
5.59688 87.0511 8.76018
9.48259 144.556 -5.71131
15.0965 134.545 5.52064
-1.23811 81.2424 1.39116
14.658 149.566 -0.253063
-1.34146 97.5863 -4.36399
7.66234 118.61 0.828476
17.1161 144.37 4.99554
7.27891 98.5681 7.29885
-3.54928 75.9084 0.249395
-0.077846 93.1421 -0.89745
7.58657 130.789 -3.22515
-1.43761 97.4406 -4.15271
2.8963 113.745 -3.79347
9.8674 114.587 5.55068
-0.916452 79.7696 2.75252
-2.00278 82.4568 0.329296
9.95732 116.443 5.11111
-0.0387829 93.8052 -0.816257
13.0259 134.345 3.24152
3.59783 114.487 -2.84605
7.97997 125.293 -0.511529
0.845137 109.584 -4.9331
5.46331 116 -0.76215
5.57108 91.267 7.98033
17.2216 142.103 6.53059
-3.9114 79.7237 -1.08785
6.37453 90.4511 9.42734
16.8899 140.873 6.51756
10.0568 117.873 5.03611
0.704081 109.662 -4.95703
9.74624 114.999 5.6917
5.04021 86.8426 8.93284
10.8111 123.387 4.28652
9.35815 109.53 7.09102
16.8905 128.822 10.8333
11.6105 129.848 3.19577
11.7729 131.001 3.02258
12.6597 137.561 1.98184
16.963 138.995 7.43324
13.5133 139.011 2.66782
7.75329 137.884 -4.8865
15.6477 137.846 6.04925
16.6679 133.289 9.08528
15.7148 138.282 6.05469
16.1102 141.73 5.42095
15.2702 141.306 4.46514
7.43487 129.193 -2.15784
16.4249 131.898 9.37128
5.36409 91.5372 8.08703
-4.47054 74.8483 0.292121
15.6235 134.342 7.49445
4.90054 116.16 -1.00823
4.87863 87.3234 8.93899
0.397883 81.1084 4.91248
-2.4543 81.2986 0.925797
7.40561 136.708 -4.58466
11.459 129.843 3.39478
16.1149 129.37 9.99159
10.8095 125.22 4.11571
7.64103 125.247 -0.229731
16.4256 145.334 4.95879
7.43876 128.12 -1.47096
6.99233 120.325 0.616851
-1.59435 79.2252 3.01447
5.52917 88.4966 9.69581
3.70104 115.357 -2.10786
-0.689716 94.7553 -1.0331
2.96725 115.414 -3.07385
4.62871 86.7812 9.15355
16.4078 135.874 8.45471
-3.92769 77.2534 0.642941
14.0397 141.016 3.42533
11.425 129.927 3.65192
15.8767 132.444 8.94552
-3.98254 96.588 -5.99433
0.822968 111.749 -4.56215
15.9124 134.054 8.59966
15.933 134.574 8.53624
-3.83294 98.0246 -6.10569
12.3995 139.197 2.12404
9.65883 118.162 5.69413
7.39811 101.205 8.44744
-1.47407 96.1558 -2.03289
5.2867 118.724 -0.498082
5.09062 118.44 -0.658469
-3.90893 98.2834 -6.10575
8.99811 111.796 7.09043
15.1744 149.646 2.54041
3.80521 85.3816 9.0709
-3.87442 101.081 -6.91441
-1.13347 107.753 -5.41279
-4.33821 95.4675 -5.57789
8.04944 102.84 9.00912
9.60098 119.008 5.57159
-2.28057 79.2097 2.93072
-0.00324837 81.8057 5.19265
-3.64338 96.1338 -4.78645
13.4909 151.671 -0.288504
15.4189 148.06 3.67557
3.70032 85.5326 9.15458
7.0969 125.221 0.134504
-4.63727 92.2063 -4.6419
-1.84592 95.8411 -2.03489
15.9799 144.056 5.94311
3.66623 117.442 -1.83363
-4.40891 95.0268 -5.2294
-4.07336 99.8903 -6.41453
-2.92222 104.684 -6.38285
4.54389 91.2478 8.62501
-2.05998 84.3331 1.89766
-5.10461 79.15 -0.487125
3.78467 118.446 -1.76824
3.19721 117.483 -2.23432
13.6096 152.52 0.049612
11.476 132.701 3.95613
-5.44442 80.5877 -1.37012
14.7857 143.25 4.92966
5.26745 120.185 -0.226151
11.1194 129.235 4.73871
-2.32078 87.688 0.613442
-3.24378 93.8679 -2.68847
6.49178 99.2535 8.89669
-2.29254 84.3102 1.9455
3.50748 118.946 -2.01789
9.49211 120.19 5.82459
9.74504 150.299 -4.22318
6.83738 128.571 -0.718345
-5.31739 75.9388 0.742358
6.5627 99.7392 8.92568
-4.598 78.4253 0.887979
4.1372 119.79 -1.332
-6.98071 75.5934 -1.36819
-5.45953 78.9788 -0.399936
12.9191 152.477 -0.382608
14.3948 149.781 2.60997
10.7416 127.907 5.151
-4.94171 77.5621 0.915065
6.72375 100.858 8.99471
9.37459 119.07 6.38609
13.3767 152.35 0.445078
-5.43044 76.2779 0.789072
14.0228 143.589 4.40967
3.68007 119.892 -1.67456
-2.61361 80.0818 3.42692
14.3243 149.472 2.85091
-4.4511 82.5063 0.126484
6.31692 131.047 -1.76879
-5.66158 95.7863 -6.08377
-2.64511 88.998 0.431515
1.39783 117.087 -3.68776
-2.9364 89.0201 0.0905008
-4.33713 82.645 0.373961
-3.38866 90.5078 -0.974547
11.0112 136.385 3.06405
-6.06904 90.0004 -4.48439
0.14403 114.371 -4.31977
13.4219 151.921 1.05394
-7.17717 89.3213 -5.7155
-4.00485 91.9331 -2.21419
10.2056 126.841 5.35882
6.46065 100.627 9.26242
14.6782 145.983 4.94986
10.642 128.206 5.52311
4.62772 93.5792 9.20128
-5.60824 93.3986 -4.83323
10.7991 135.33 3.35143
0.847018 83.7721 7.44518
13.8525 150.057 2.49467
-7.85775 87.3936 -5.803
-3.33342 87.6348 0.37815
-7.79861 89.7654 -6.48591
8.02595 107.468 9.26881
-5.15762 90.7308 -3.13239
-3.94005 90.6274 -1.38296
2.04802 118.824 -2.8532
14.274 145.463 4.83232
7.0284 104.353 9.06869
-5.4134 90.3382 -3.20081
-8.21424 88.3608 -6.3761
7.30912 145.341 -4.6067
11.7944 143.259 2.31927
-8.26925 88.6572 -6.48174
-3.26928 87.1993 0.970428
-6.10452 98.2425 -6.76357
5.516 124.148 0.372849
-6.22687 95.453 -5.90676
6.05329 139.457 -4.15693
7.90889 107.917 9.36888
11.0562 136.466 3.86633
-0.505876 113.804 -4.25704
3.94855 91.6099 9.59599
4.40234 122.138 -0.322094
-4.26469 85.9189 0.239476
9.91976 126.671 5.76268
-5.52139 102.273 -7.11975
-7.63727 86.8364 -4.70375
-3.79824 80.3574 2.86627
13.6382 147.271 3.83771
-5.01879 86.1526 -0.792353
-9.38123 77.0746 -3.65885
10.7541 133.006 4.89963
-6.55174 88.6388 -3.65995
10.5172 137.584 3.00099
-5.02675 87.5123 -1.08561
-4.98661 88.7853 -1.44935
8.15131 149.807 -4.39356
-8.77337 89.3395 -6.8504
-8.64119 89.7833 -6.80856
4.81349 123.52 0.113496
11.0571 136.368 4.30774
-6.12161 77.6677 0.892618
-8.11921 86.9097 -5.0495
-0.139213 83.7787 7.08522
-5.29287 87.3715 -1.26609
-4.20353 85.3286 0.972354
10.6172 134.989 4.31501
-5.95295 100.568 -6.60877
-9.0789 89.1191 -6.96294
10.6568 130.086 6.16182
12.4357 145.437 3.33215
5.73125 98.8676 10.1992
2.6484 121.793 -1.92297
-6.8947 85.2896 -2.48068
8.7328 151.401 -3.75164
-9.34662 88.4467 -6.94323
5.50122 126.551 0.39045
8.10599 111.907 9.13281
3.76482 93.3894 9.55496
2.94746 122.416 -1.56433
8.03958 113.335 8.61284
-5.75804 103.112 -6.90706
2.29922 121.594 -2.1091
0.758864 118.45 -3.10669
12.3393 145.99 3.38999
9.47531 126.313 6.2962
2.88023 122.778 -1.5832
-4.4223 105.83 -5.8033
-6.94347 99.0354 -6.91487
-5.9909 103.233 -6.98042
5.57102 130.193 -0.27358
-1.95594 111.575 -4.21083
9.76755 151.952 -1.86467
10.6168 131.957 6.23531
-8.63423 76.1108 -1.0242
-9.70327 87.583 -6.44901
-6.11572 79.6272 1.29051
10.4223 133.223 5.61485
-7.83376 76.2885 0.0909417
-7.13858 84.7019 -1.84664
4.97258 126.842 0.337926
-5.30381 84.9455 0.639962
9.13164 123.764 7.16054
7.05413 148.615 -4.29348
-11.6809 80.0283 -6.43519
-4.9334 84.3597 1.39108
7.77206 111.471 9.56931
-7.47828 98.8296 -7.10648
-10.1239 79.5599 -4.08246
-9.79276 87.5947 -6.39099
6.97124 107.991 9.71367
9.24401 125.755 6.71852
6.88235 148.306 -4.31075
-7.9725 93.1167 -5.73516
0.0575883 85.2614 8.09263
-8.60458 80.2722 -2.13175
5.16991 136.243 -2.42165
-6.28355 82.6242 0.352868
12.4639 148.131 3.62247
-10.9922 78.0039 -4.48323
-10.2107 85.1595 -5.85575
-0.874963 84.4751 7.2861
3.25922 125.057 -0.968995
-11.7771 80.2606 -6.22527
4.53227 96.0601 10.8896
10.9491 137.957 5.28236
9.90774 142.261 2.39826
7.14568 109.626 9.88209
4.86286 128.443 0.223099
-8.58668 96.3207 -7.20549
-5.7292 84.3977 0.877887
10.7078 139.41 4.578
-7.25946 79.0175 0.648949
8.57472 152.325 -2.81228
-6.40221 104.463 -6.94009
4.38436 95.9628 10.9085
-10.3859 86.2097 -6.07669
6.84412 108.898 9.92357
-5.63425 105.582 -6.15644
-7.45334 100.157 -6.75332
9.0165 125.616 7.24406
4.92351 139.168 -3.0731
-5.01109 81.7185 3.10111
-4.99232 106.837 -5.53991
8.4375 152.42 -2.72974
-9.52241 79.2459 -2.22344
-7.2154 84.498 -0.836186
-7.28576 100.976 -6.61919
-0.294579 118.056 -2.84225
4.58641 97.8233 10.8981
2.6983 124.924 -1.07244
-9.7621 80.0085 -2.73944
-8.88219 84.6034 -3.10951
2.72461 92.6081 10.1818
0.788432 86.955 9.53316
-7.09109 79.6109 1.19984
7.17737 111.469 9.89993
-9.27678 96.0005 -7.43228
6.70793 109.443 10.0026
1.68448 88.0145 10.5192
11.4219 152.167 1.78761
4.03917 128.402 -0.157725
-11.4294 84.5032 -6.25523
7.87411 116.164 9.47077
-10.7142 80.4892 -3.83806
-2.2546 113.359 -3.48432
1.02463 121.703 -1.8177
-10.5867 90.4456 -7.01167
7.6924 152.303 -3.11333
-6.87058 80.1405 1.7348
-10.8318 86.4324 -5.90234
-8.30292 81.6032 -0.715942
4.58875 138.084 -2.36871
4.60486 101.343 10.3685
9.59079 139.908 3.92281
-8.6008 99.437 -7.19505
-7.55248 83.3881 -0.192659
8.76085 125.137 7.92849
-6.17226 106.508 -6.22029
4.54841 137.598 -2.15011
10.1184 134.82 6.53319
9.21634 140.015 3.52588
9.81596 139.02 4.71034
9.38317 131.405 6.7592
5.48 146.776 -3.93446
9.63495 142.47 3.31395
3.63727 96.3311 10.989
-7.74166 82.7794 -0.0413829
-5.19121 108.277 -5.33332
-3.97551 83.2728 5.02652
-1.13955 86.9772 7.672
-5.04362 108.618 -5.19692
4.47214 137.953 -2.18872
-9.85518 93.7944 -6.70131
9.81385 146.136 2.36665
-2.20537 85.1667 6.85258
6.36424 110.11 10.0886
9.66278 136.699 5.46878
8.30781 122.204 8.63502
-8.03184 101.494 -6.7624
-10.8736 91.2127 -7.11307
-5.01813 109.012 -5.15156
4.48296 140.641 -2.95681
-9.34868 80.227 -1.16053
9.75462 133.973 6.66144
-12.2767 80.6197 -5.29684
4.36553 134.017 -0.766641
-7.94574 104.785 -7.63785
9.48691 144.772 2.63142
4.18777 101.317 10.3471
-4.24194 83.349 5.00968
7.12023 113.797 10.2284
-2.85345 84.6452 6.54591
9.16386 137.479 4.89045
-10.4709 80.1488 -2.40029
-9.9165 98.0461 -7.81713
6.01649 150.017 -3.77933
-11.044 92.039 -7.28342
-12.8091 80.2247 -5.60661
4.60404 143.8 -3.53765
4.09607 103.15 9.82946
-8.30775 102.067 -6.92115
-8.06174 105.036 -7.59966
-12.7346 80.8843 -5.68594
-11.3966 81.1494 -3.92712
7.55757 117.698 9.61936
-6.72992 107.17 -6.46849
-10.8085 93.5363 -7.33443
-0.564563 87.9087 8.7729
8.9134 142.621 2.95824
-11.0816 87.3316 -5.50061
0.352964 89.1919 9.65606
1.08479 123.243 -1.10469
-9.12824 81.906 -0.866562
9.71235 144.015 3.68696
-4.47479 83.4751 5.03762
4.29308 141.415 -2.87461
2.50135 93.2577 11.3179
-11.3222 80.237 -3.26733
-6.76604 81.479 2.59989
-12.9076 79.8091 -5.29364
0.111594 121.575 -1.7505
2.54555 127.527 -0.399621
9.24258 132.521 7.13684
4.17931 140.789 -2.67864
9.22923 135.633 6.08398
-12.5056 82.6503 -5.60035
-10.1047 80.3864 -1.40367
9.53183 142.288 4.3553
6.32134 112.115 10.4217
-4.41534 111.567 -4.19776
-7.23505 81.1944 2.42128
-9.8637 100.01 -7.69234
-13.1794 79.0627 -4.96744
9.27526 133.251 7.31254
3.53446 102.804 9.91904
9.39872 142.767 4.28354
4.70131 108.292 9.74375
-12.5379 77.9406 -3.54082
8.26407 137.787 4.53974
-8.46787 80.1816 1.36362
3.33494 100.819 10.5327
0.10644 89.7588 9.9746
-13.6258 80.0187 -5.62297
3.33032 102.829 9.92076
8.04765 142.553 2.70368
8.48006 136.27 5.48839
0.52065 123.464 -1.07173
-4.78657 112.203 -4.48928
-11.0444 97.1062 -7.89122
-10.2418 100.085 -7.81041
-3.61133 86.1159 6.19821
8.4726 131.103 7.3346
-9.94302 81.9238 -1.06023
2.47367 96.3328 11.1624
9.74647 143.97 4.74968
9.61616 144.895 4.25022
5.31762 110.9 10.1022
-3.92702 85.7332 6.03838
6.33027 113.832 10.4957
-13.4099 77.5082 -4.20065
-3.43308 86.996 6.30337
8.35028 128.755 8.14995
-13.3779 79.3936 -4.76702
-8.05187 80.9201 2.06751
-11.801 83.7117 -4.04614
2.99035 102.296 9.99254
5.57941 151.265 -3.3145
-1.33335 120.041 -2.0592
3.60138 136.451 -0.912961
-5.1626 113.033 -4.89572
9.67724 143.95 4.91988
-11.7039 83.6168 -3.71863
-1.28655 89.6941 8.57797
-9.50054 79.4851 0.770269
3.3278 133.725 -0.266079
2.91364 100.585 10.6495
-5.4952 112.732 -5.16494
8.13619 127.527 8.55646
-9.92748 101.483 -7.37558
2.20666 128.978 -0.0605375
-11.9732 88.1663 -5.51275
4.24806 147.061 -3.46898
-0.703875 121.788 -1.48303
-12.3295 89.2298 -6.27013
-6.58702 83.0543 3.82574
2.72606 101.034 10.4726
-1.90341 119.138 -2.15304
-12.9497 86.2623 -5.93235
-6.46963 83.2393 4.09058
-13.9815 83.5131 -6.35553
-10.5982 77.4665 0.433006
2.48183 101.852 10.1136
3.30762 136.314 -0.646089
-9.81195 103.855 -7.51869
7.72133 126.796 8.80169
-13.3738 81.7376 -4.74892
-13.0534 77.442 -2.78132
-13.361 82.5614 -4.96409
8.59748 154.589 0.468672
-4.81711 114.9 -4.33279
-7.793 109.29 -6.47311
-12.6095 82.7033 -3.9107
3.74284 145.886 -3.16572
-14.8173 80.9555 -6.31628
1.58485 129.002 -0.261823
8.18669 132.456 7.70123
-5.12697 85.8917 5.41625
3.85484 109.506 9.66726
0.698268 91.3295 11.605
2.32915 100.834 10.574
-7.12974 112.029 -6.34648
1.67894 96.3687 11.2763
-10.1174 104.18 -7.68372
-0.983891 122.479 -1.35397
-4.17672 116.592 -3.70099
3.0651 135.925 -0.336215
2.72318 106.683 9.31008
-6.02967 115.288 -5.72133
-13.9693 79.2063 -4.20105
-4.57272 116.027 -3.95123
7.77154 135.111 6.5015
6.80357 142.503 2.65924
-5.40823 86.2564 5.24203
-12.944 90.1104 -6.49104
0.0326765 91.0906 11.1185
3.11998 141.05 -1.84209
1.22435 129.744 -0.449719
-14.7797 81.2747 -5.76439
-13.4429 81.4439 -3.96237
3.62726 147.53 -3.19435
7.82509 134.395 7.18207
1.87576 100.935 10.541
-5.5176 116.493 -5.03057
2.455 133.98 -0.0442581
-14.6832 81.1796 -5.41736
6.57364 142.585 2.71376
-6.05774 116.578 -5.73451
2.90147 140.061 -1.47848
-2.8747 119.647 -2.39428
5.8637 118.975 9.92072
-12.2716 96.3087 -7.28417
-12.8092 81.7798 -2.98953
3.40987 146.604 -2.99623
5.8392 117.049 10.6031
-5.6897 116.945 -5.25208
-13.2512 90.0905 -6.3882
-10.609 105.333 -8.00184
-14.6391 83.5385 -5.9996
-12.7374 94.4805 -7.11038
-2.28918 91.0073 8.53386
-12.957 93.2924 -6.96665
-12.29 97.2615 -7.41162
-11.1032 78.5983 0.685464
6.42415 142.471 2.83516
-13.235 87.2543 -5.17872
2.95016 142.818 -2.02868
-12.5515 81.5547 -2.24879
8.58121 152.468 2.42171
-15.2162 81.3216 -5.81762
-8.036 112.997 -6.83672
-2.8712 90.9815 7.9183
-1.72132 122.654 -1.44365
0.54636 129.269 -0.577371
-4.9319 118.322 -4.33355
3.09882 145.919 -2.75283
-13.8317 77.519 -2.46652
-5.75639 118.304 -5.4118
-8.70802 111.404 -7.08695
-2.43113 121.576 -1.89304
-14.5309 80.6521 -4.43796
8.50081 147.981 4.1037
5.06243 153.185 -2.4357
-11.6425 101.218 -7.53673
-15.3702 81.4852 -5.80107
5.96307 122.484 9.48898
-7.39978 85.3128 3.91017
2.58496 140.506 -1.37454
2.87246 144.156 -2.23165
-8.40907 83.2223 3.26384
4.99656 115.032 10.8073
-15.3964 79.8393 -5.18816
-11.6731 78.5267 0.414767
-14.637 81.364 -4.61699
5.88967 122.749 9.43639
8.73301 145.609 5.48671
-5.03667 120.014 -4.65549
-14.1332 83.1307 -4.46143
-4.69196 89.8473 6.26376
-5.7547 88.4157 5.29829
0.169994 129.423 -0.67951
8.33208 149.114 3.78829
8.3331 153.363 2.32926
8.3351 153.26 2.3682
5.32604 121.07 9.35196
-0.400431 127.178 -0.654027
0.937874 97.9648 11.3272
0.19326 94.1961 11.6071
0.494306 96.1648 11.3975
-15.4121 81.0553 -5.32989
-15.1297 81.2982 -5.01898
6.75109 135.084 6.68004
-7.24993 116.65 -6.27487
-13.9416 81.2006 -3.23497
6.12008 137.306 5.09822
-12.4829 99.9963 -7.65834
-13.624 91.8661 -6.41962
-12.6573 78.1873 -0.327582
-14.2376 77.7071 -2.33151
-14.962 81.253 -4.55405
-6.21422 88.4284 5.0492
5.79825 154.797 -1.30543
-3.74832 91.3111 7.47536
-10.9069 81.1467 1.11411
1.61927 133.805 0.220524
-7.20522 117.429 -6.26218
4.84667 121.429 9.00472
0.911396 103.47 9.78308
7.94875 154.453 1.87667
-11.2372 105.635 -7.7161
-0.0492788 130.464 -0.848604
1.75385 135.116 0.0497975
1.73449 135.068 0.0589549
5.32774 143.3 2.17591
-10.982 81.2397 1.11676
-6.07369 119.512 -5.30771
7.98502 153.503 2.35682
-3.56068 122.343 -2.80316
5.94707 139.871 4.26892
-11.9522 78.9914 0.608383
-13.4265 94.2879 -6.66818
-10.8652 107.73 -7.72487
-0.450371 129.422 -0.80599
-0.336688 93.5313 11.8885
-15.5281 80.9157 -4.68452
-6.37378 89.1231 5.14434
-3.61217 123.278 -2.84656
6.44172 131.57 8.20659
-13.6505 94.0338 -6.53153
-14.0718 78.0247 -1.54124
-12.4174 102.943 -7.87096
-16.3391 80.2149 -5.42364
-15.9546 81.9981 -5.49194
-9.39454 113.416 -7.2846
-15.8604 82.8684 -5.64471
-2.38374 92.257 9.74328
-13.2554 96.8997 -6.83465
-11.5124 106.158 -7.6216
-13.7152 94.2622 -6.48092
-3.29414 124.032 -2.36942
0.803655 133.955 -0.129609
-11.4664 106.754 -7.66238
-3.47373 124.081 -2.59691
-7.27138 88.5352 4.49984
-10.8265 109.673 -7.71783
5.49515 136.486 5.58416
4.77733 124.706 8.67514
-1.9724 92.6416 10.4675
-14.8899 78.1975 -2.34004
4.91334 125.53 8.70217
5.46753 127.783 8.70034
5.59692 128.106 8.77794
-15.1549 79.7113 -3.09829
1.17533 136.863 -0.183802
-11.899 81.2449 1.00036
-16.1354 81.2276 -4.84117
3.79078 123.015 8.23291
4.07725 154.029 -2.07834
5.12904 141.205 3.83359
1.86759 111.572 9.59165
-0.395662 97.2938 11.4105
5.64841 130.304 8.37681
-14.5419 91.5513 -6.01832
-4.04884 124.528 -2.92106
-1.77573 93.2913 11.1132
-4.37899 92.5438 7.89663
-14.4758 92.6217 -6.06485
2.30371 150.09 -2.75999
-0.134125 103.934 9.84618
-3.39351 125.154 -1.99136
3.39014 115.257 10.8253
4.22514 126.523 8.12478
-7.19462 119.658 -5.25609
-2.42055 127.412 -1.33726
-6.45826 121.217 -4.72835
-12.8165 80.2518 0.694905
3.34984 153.574 -2.30351
-0.197415 134.326 -0.539249
4.78666 138.782 4.81128
-13.7365 100.943 -7.67285
-8.45371 118.069 -6.26186
4.55243 140.168 4.08161
1.00351 139.911 -0.702027
1.13387 110.863 9.64093
4.79429 134.311 6.59464
-3.58031 93.3539 9.19423
4.41883 139.595 4.29078
-7.38442 89.9931 5.15868
-11.6727 82.8686 1.70444
-8.96663 117.643 -6.57361
-9.75594 86.869 3.00131
4.51327 132.356 7.02406
-8.11426 89.1747 4.52526
-9.82575 86.8787 2.97462
0.641208 109.443 9.62981
-10.0827 115.095 -7.12416
-3.64586 126.002 -1.95819
-1.61362 94.4135 11.7723
4.60945 129.498 8.2419
-0.429701 134.945 -0.576826
3.17956 123.489 8.37711
-7.86513 89.6473 4.84913
-2.43535 94.2458 10.8128
-5.39753 124.859 -3.83424
0.338533 137.674 -0.330106
-0.0571052 136.438 -0.403658
-13.2682 103.966 -7.40827
-5.6541 124.896 -4.07654
-1.56606 133.155 -1.26509
-9.64769 116.913 -6.79442
0.725949 110.771 9.65999
0.863653 111.388 9.63739
-15.8149 79.11 -2.22269
-8.88805 88.6578 4.04914
0.116196 137.419 -0.372858
-10.4747 85.5291 2.97363
1.1149 144.944 -1.50609
-2.82523 129.629 -1.5898
-15.2375 87.6108 -4.17874
-14.6904 79.4399 -0.589386
-4.38235 126.862 -2.74264
-2.46922 130.887 -1.4505
-12.1065 110.4 -7.6763
2.70419 117.584 10.3053
0.18601 138.621 -0.434984
-12.9851 82.1011 1.02427
1.35145 148.664 -2.18315
-15.7182 81.4116 -2.47836
4.12715 136.488 5.89741
-1.48035 100.765 10.6627
-16.2639 84.7574 -4.20996
-15.3743 87.8439 -3.93641
-15.2162 95.2111 -6.18807
1.51958 151.41 -2.47911
-5.47096 126.518 -3.51832
3.64509 130.515 7.71298
-15.4109 94.3351 -6.08678
-16.3693 81.9787 -3.13098
-14.1416 103.287 -7.31088
-1.98004 134.387 -1.23915
0.122343 141.956 -0.916406
-17.142 81.2943 -3.78084
3.18185 139.546 4.16213
-16.1475 80.2375 -1.97028
-15.6356 89.5825 -4.44875
2.50565 121.608 9.58445
-13.2912 107.8 -7.44217
1.57817 115.258 10.6433
-17.0075 82.2174 -3.60108
-15.8711 93.0707 -5.76276
-11.8389 113.734 -7.25803
-9.20948 119.828 -5.72164
-10.1998 89.0028 3.5716
2.76258 135.369 5.44973
-3.88065 131.611 -2.4164
-1.01913 107.581 9.851
-5.43985 129.434 -3.79863
-7.77324 122.752 -4.67589
-9.26127 90.175 4.54476
-8.78756 90.5927 5.06054
-7.69468 125.5 -5.46989
-12.8794 110.76 -7.51607
2.78101 141.426 3.57393
-14.012 105.366 -7.14408
-14.4358 81.2244 0.639191
-10.9405 88.5271 2.94383
-15.586 80.2047 -0.58866
1.36765 115.402 10.6778
-16.0504 80.0692 -1.12989
-15.3149 99.6741 -6.84353
-1.76862 104.396 10.239
-15.802 95.8826 -6.19877
2.40767 135.051 5.43031
-17.6866 82.8191 -4.25542
-1.111 108.622 9.73341
-2.14805 101.016 10.9569
-13.7712 82.8033 1.21604
-2.08436 137.263 -1.45172
1.6367 118.217 10.3102
-7.35432 92.7457 6.73057
-15.2504 101.312 -7.10973
-16.2969 81.4446 -1.63001
-1.94634 137.984 -1.28047
-16.4695 80.3586 -1.25837
-7.75192 92.739 6.51727
1.85377 132.855 5.95503
-17.6568 84.4775 -4.2413
-13.3154 85.3034 1.49806
1.73539 125.968 8.28055
-13.5469 84.5281 1.51942
-8.73559 125.064 -5.81573
-7.15645 129.932 -5.29628
-1.20319 141.336 -1.01305
-12.8821 112.734 -7.22762
0.0257843 114.08 10.1383
-10.9798 118.472 -6.50001
-2.42038 102.656 10.8446
-17.4026 83.5901 -3.23839
-2.09167 140.002 -1.59375
-13.4949 86.5799 1.15715
-6.28279 132.585 -4.71553
-2.69158 99.8551 11.5968
-0.0586032 149.16 -1.80579
1.60466 123.993 9.19888
-6.96504 94.7669 7.50626
-0.221116 148.14 -1.62322
-6.01646 135.916 -5.37025
2.03977 142.69 3.42836
-11.3965 118.066 -6.57785
-14.1451 85.9573 0.837728
-7.33921 132.623 -5.86751
-10.2371 120.885 -5.80668
-16.6407 82.2223 -1.27214
-16.8764 93.6768 -5.54272
-7.05095 134.325 -5.97493
-6.66446 136.832 -6.30079
-16.9938 88.8507 -3.94605
1.24837 137.265 4.52384
-13.8146 111.296 -7.29194
-8.22465 131.115 -6.39317
-6.38516 137.489 -6.00553
-15.4257 103.853 -6.82068
0.725806 116.97 11.011
-2.57097 105.249 10.5171
-18.0671 84.2545 -3.61562
-14.9814 84.4763 0.59791
-8.88125 129.049 -6.36012
-16.2526 99.5586 -6.33596
-17.1127 93.2524 -5.34151
-17.0745 87.1559 -3.15781
-4.04322 97.5379 11.2636
-16.7634 81.0916 -0.60326
-0.856696 146.471 -1.20739
-0.429928 150.054 -1.84794
-3.27937 99.0889 11.8541
-0.287879 115.25 10.4165
-3.59382 140.146 -2.75328
-4.51234 97.3139 10.795
-9.67481 126.028 -6.22798
1.19825 125.898 8.84061
0.71512 128.387 7.35117
-9.70037 129.436 -7.36301
-5.28766 138.881 -4.47328
-7.85767 134.787 -6.5524
-9.5605 127.769 -6.46876
-11.4483 91.2601 3.60864
-17.5694 88.0296 -3.65924
0.696489 134.182 5.61202
-15.8917 83.9828 0.0611025
-4.59899 140.182 -3.67655
0.975995 124.178 9.57897
-1.3748 146.179 -1.24188
-8.97275 94.3238 6.22989
-1.43689 146.183 -1.25424
-8.48054 134.128 -6.81249
0.12746 154.358 -1.90476
-2.92904 142.434 -1.96385
-16.3637 101.668 -6.33444
-14.1089 112.538 -6.94649
-15.2943 86.5885 0.392097
-10.2455 124.078 -5.59291
-12.8012 115.726 -6.21821
-15.0443 87.5295 0.469422
-17.6637 91.7512 -4.60807
-0.206319 128.145 6.94029
-17.8152 88.4415 -3.60671
0.141515 134.888 5.15655
-11.4557 121.449 -6.19073
-2.0998 111.717 10.0977
-0.424668 128.778 6.62576
-7.7089 96.1396 7.85344
-16.09 104.464 -6.59903
-17.3583 95.0709 -5.07369
-5.20792 97.866 10.794
0.134697 119.611 10.6805
-12.9531 90.1701 2.78521
-7.45057 137.768 -6.01342
-10.7432 127.347 -6.94187
-0.13194 137.224 4.29951
-0.924887 152.094 -1.87586
-17.9493 87.2111 -2.93956
-8.43765 135.25 -6.37015
-17.1905 98.3806 -5.61768
0.429735 125.826 9.23849
-7.09383 138.815 -5.62558
-16.903 84.6658 -0.416319
-4.15879 143.402 -3.10596
-17.3628 97.0251 -5.30489
-11.8797 121.723 -6.25516
-3.20575 107.538 10.6719
-18.1209 88.4639 -3.32603
-1.26612 151.044 -1.64125
-10.8991 128.422 -7.11551
-0.464641 134.113 5.36308
-0.595824 134.177 5.29974
-0.364174 120.239 10.4533
-0.5245 127.468 7.76268
-3.3465 107.572 10.7467
-0.441649 120.088 10.4601
-15.4416 109.768 -6.68819
-16.2455 104.648 -5.98357
-7.41886 97.0701 8.86224
-11.6 122.536 -5.68378
-0.720013 118.959 10.6292
-17.8796 84.1988 -1.01175
-6.8784 97.4649 9.59611
-12.3096 121.777 -6.20681
-15.7605 107.013 -5.86451
-2.63789 112.86 10.2482
-4.29072 144.975 -3.09085
-15.6973 109.545 -6.59098
-5.17098 143.818 -3.88294
-11.2843 127.165 -6.5675
-2.69387 147.881 -1.81534
-5.13137 144.015 -3.82387
-9.60678 95.7611 6.69078
-9.58666 132.156 -5.84618
-16.4041 103.948 -5.44298
-9.498 132.327 -5.69596
-6.12679 142.784 -4.6417
-0.976142 128.247 7.54257
-7.8708 139.263 -5.72099
-18.6679 83.864 -1.42924
-18.7066 83.974 -1.47141
-1.34151 132.011 5.94332
-2.44017 149.623 -1.61316
-9.32643 134.68 -5.94611
-1.0153 138.656 4.16198
-0.263353 125.068 9.98197
-4.02605 106.622 11.2027
-18.879 86.6398 -2.38723
-18.8109 88.0527 -2.75173
-9.52017 132.927 -5.39832
-18.4544 85.477 -1.29999
-18.5676 85.4877 -1.45908
-18.9431 86.39 -2.20959
-1.58556 129.536 6.87512
-6.73826 143.132 -4.91658
-16.0063 110.247 -6.30885
-10.9961 95.1012 5.84913
-15.6095 89.591 1.40097
-3.56146 148.182 -2.18533
-18.5582 91.4397 -3.27355
-18.5418 91.7286 -3.31692
-16.1477 106.64 -5.08939
-8.24972 139.568 -5.52262
-12.1775 123.953 -5.52894
-13.0196 121.444 -5.82449
-12.1001 127.915 -6.73757
-14.7083 90.8498 2.53958
-8.78052 136.951 -5.17541
-8.77509 137.002 -5.18503
-5.95707 100.344 11.3882
-3.72548 110.766 10.8715
-18.0272 98.0612 -4.48436
-2.17783 153.505 -1.74324
-4.62538 105.544 11.4855
-3.00306 150.552 -1.82745
-13.7794 118.44 -5.60398
-3.33216 114.812 10.0921
-0.816676 124.219 10.3528
-11.3317 95.2516 5.84848
-2.45662 116.753 10.6853
-18.3501 94.3238 -3.48825
-9.51449 135.199 -5.41595
-6.64575 144.861 -4.74708
-17.5631 91.087 -1.22528
-17.635 91.4352 -1.41174
-9.85792 134.434 -5.49931
-16.0911 89.8202 1.33854
-10.949 130.915 -5.76623
-5.37695 102.925 11.6088
-17.9096 91.1894 -1.61551
-1.18337 123.599 10.3479
-7.98563 141.731 -5.25646
-2.42621 130.479 6.31363
-11.583 129.5 -5.91536
-17.7962 88.7029 -0.3355
-9.41416 135.917 -5.04424
-17.2075 89.9098 0.121176
-1.9129 139.558 4.08158
-6.41601 100.843 11.2583
-16.1701 111.786 -5.97296
-16.3412 92.2439 0.554869
-1.42211 124.388 10.1061
-3.0458 116.53 10.5841
-11.9365 127.66 -5.53682
-1.8919 128.998 7.88061
-16.6244 108.498 -5.33936
-7.71175 143.131 -4.97166
-18.2032 92.3658 -1.89138
-15.3316 91.9359 2.22861
-18.4449 92.3154 -2.14946
-5.69266 103.501 11.6745
-16.4138 111.473 -5.81783
-4.93714 149.155 -2.9874
-12.758 127.716 -6.34742
-17.7642 92.964 -1.22956
-18.3782 94.9524 -2.71596
-8.77452 140.258 -5.09297
-9.55066 98.48 8.30075
-18.362 94.5533 -2.49525
-3.40234 152.649 -1.84107
-16.8935 106.218 -4.40201
-6.97223 145.956 -4.42725
-3.37734 131.161 5.684
-9.79791 135.955 -4.83773
-9.98061 135.33 -4.86317
-8.86518 140.304 -4.98467
-2.74515 126.707 8.23851
-12.9269 95.1379 5.09671
-18.3841 99.3844 -3.86644
-3.7775 116.354 10.4437
-4.5112 150.468 -2.34709
-8.137 143.224 -4.81861
-17.6463 102.64 -3.91478
-11.6142 96.7139 6.54702
-8.98129 140.297 -4.88442
-7.92326 144.114 -4.74135
-4.43733 114.991 10.2149
-8.8888 99.6085 9.38727
-3.54526 137.967 3.5387
-2.30971 122.988 10.4374
-3.73984 117.5 10.3639
-16.4906 94.9302 0.600403
-3.80414 131.809 5.3759
-4.00799 132.404 4.89336
-7.96507 101.673 10.2111
-3.8568 133.353 4.9664
-7.23438 102.491 11.0106
-15.1101 94.6726 2.87387
-3.46994 135.023 5.00265
-6.43245 103.951 11.6864
-15.8251 116.439 -5.55044
-5.91561 105.988 11.7622
-3.84304 118.888 10.1745
-13.3404 126.147 -5.40568
-4.19446 132.459 5.10495
-18.3872 94.406 -1.33171
-14.3926 121.914 -5.30531
-6.06252 105.913 11.8051
-5.3673 111.454 10.8624
-3.05985 125.487 9.21139
-3.86189 129.928 6.57231
-13.3563 126.639 -5.36967
-11.1069 98.6183 7.44062
-18.4362 100.577 -3.32327
-17.6233 106.079 -3.74603
-3.68596 140.44 3.63741
-5.76209 111.118 10.9293
-14.1739 96.0552 4.57276
-5.18642 115.473 10.3095
-16.4966 116.06 -5.50414
-8.86667 143.834 -4.54643
-10.8029 136.024 -4.49515
-17.5417 108.666 -4.33321
-17.6917 98.6765 -1.04392
-4.61259 153.575 -1.88852
-11.9784 99.0592 6.79584
-8.9051 103.137 9.72886
-4.25138 125.672 8.37126
-10.3352 101.121 8.5651
-13.2514 97.5331 5.79835
-17.622 108.691 -4.08247
-6.12621 109.324 11.577
-6.12613 112.099 10.8359
-5.97229 112.984 10.7448
-5.06005 131.833 5.49994
-4.38536 154.65 -1.40462
-15.315 97.0295 3.42751
-14.7658 97.0308 4.21337
-7.93262 147.818 -3.90044
-18.226 100.066 -1.59206
-8.5056 146.608 -4.21204
-6.17372 151.644 -2.69678
-12.7964 99.2907 6.29669
-5.15497 137.413 3.7134
-14.8679 97.382 4.18145
-17.3957 112.032 -4.3602
-17.4106 97.2069 0.792137
-11.6915 130.734 -2.88997
-16.5192 103.609 -0.175607
-3.9785 124.987 9.77241
-15.9824 119.289 -4.73818
-17.4461 112.445 -4.32253
-8.23839 105.504 10.843
-4.60376 143.053 2.89128
-14.4458 98.4611 4.78275
-17.1554 100.871 0.238883
-14.0262 98.8043 5.30578
-12.0361 100.75 7.38907
-7.69515 149.405 -3.43424
-9.39692 104.935 9.61124
-11.9297 100.972 7.48679
-16.8208 117.388 -4.91615
-16.395 118.752 -4.75895
-17.9527 104.288 -1.82451
-5.53059 137.594 3.81864
-5.60135 137.5 3.84216
-16.372 104.823 0.269691
-6.17116 114.745 10.931
-13.3645 128.122 -3.6292
-16.33 98.2838 2.64438
-16.1108 98.53 2.87389
-9.84688 105.281 9.23502
-6.34816 114.031 11.0722
-16.1511 119.333 -4.22617
-13.9403 126.159 -3.47704
-5.92241 134.009 4.90892
-11.8972 102.493 7.56175
-5.24845 142.796 2.81858
-16.3489 102.334 1.54691
-14.8036 123.035 -3.46626
-8.52871 106.761 10.8606
-5.71026 130.56 6.54262
-14.82 100.896 4.22406
-11.2133 138.185 -3.68851
-4.91332 121.701 10.7166
-11.4424 135.13 -2.93961
-5.87197 135.073 4.77546
-6.15402 128.772 6.5734
-15.8815 118.061 -3.11805
-8.93501 106.441 10.5183
-15.8764 105.644 1.21781
-15.0077 101.043 4.01948
-15.8292 120.326 -3.78276
-11.9096 103.785 7.37716
-18.1408 107.933 -2.66223
-14.3404 101.757 4.73484
-14.9351 123.604 -3.52175
-13.3811 102.182 6.04972
-16.4887 104.462 1.00779
-14.0065 102.103 5.26684
-15.4601 105.613 2.05954
-14.7686 123.558 -3.16041
-13.4547 128.119 -2.85735
-5.11544 146.647 2.25866
-6.04677 134.886 5.05022
-14.5706 123.622 -2.80593
-10.2992 106.323 9.0893
-11.2326 105.121 8.26115
-15.8182 106.914 1.33302
-11.1214 139.16 -3.31323
-15.6429 118.064 -2.20182
-15.215 102.547 3.75502
-16.0889 101.68 2.90753
-13.1907 102.769 6.53826
-9.43095 107.118 10.2658
-16.1733 101.774 2.80744
-15.4424 102.777 3.49597
-16.6639 106.406 0.576793
-6.72082 128.482 6.71446
-15.8332 117.999 -2.20143
-6.49495 116.448 11.2637
-13.8723 108.702 3.78612
-15.6906 103.12 3.22311
-13.4019 107.332 4.95933
-13.0735 107.465 5.4118
-11.5208 138.712 -3.18602
-12.1815 108.531 6.4064
-15.2617 121.084 -2.18714
-15.8738 119.985 -2.55087
-6.21222 141.905 3.22334
-6.86758 129.269 6.75281
-18.1077 112.395 -2.92003
-13.568 128.111 -1.98011
-13.068 104.471 6.89659
-14.641 104.371 4.77585
-14.1616 104.892 5.2964
-16.2459 119.716 -2.70102
-7.87269 124.703 7.17329
-17.9858 106.398 -0.45995
-13.9001 105.568 5.48046
-12.0542 110.031 6.48845
-7.04637 125.583 8.03986
-14.0729 126.724 -1.92168
-10.1993 146.264 -3.293
-6.44904 141.538 3.52214
-12.2838 132.608 -1.42446
-16.0549 117.881 -1.51061
-14.0987 126.74 -1.84672
-10.1807 146.46 -3.24936
-11.8753 109.096 7.34863
-7.1338 115.465 11.7445
-11.7005 107.393 8.25475
-6.33514 119.602 11.459
-14.6721 125.739 -2.14235
-6.32315 144.684 2.88356
-18.2131 108.527 -1.03063
-12.0725 111.03 6.60752
-6.39592 144.327 2.97822
-6.71338 140.446 3.90445
-7.62755 151.879 -1.28945
-8.11173 123.916 7.74941
-13.386 130.021 -1.64626
-6.28512 120.176 11.5712
-10.6037 145.452 -3.02598
-9.45325 109.646 10.9558
-9.52558 110.647 10.6103
-17.0424 107.746 1.29894
-18.47 110.133 -1.38053
-10.792 109.512 9.47677
-11.0046 144.337 -2.85356
-11.9967 112.859 6.68695
-14.8794 122.705 -0.686891
-14.9477 109.451 3.87664
-10.4836 111.772 9.29218
-13.0596 112.546 5.47163
-7.64039 124.33 8.88687
-7.1426 153.386 -0.471651
-15.7635 108.835 3.05029
-9.89278 111.882 10.1128
-13.016 112.764 5.53363
-7.32448 135.136 5.68139
-11.3534 110.686 8.5834
-7.86208 123.554 8.98254
-6.58289 146.491 2.82361
-13.5699 111.957 5.11799
-11.658 113.665 7.24236
-10.2524 147.986 -2.63723
-14.5212 126.757 -1.14735
-7.41645 117.415 11.9022
-7.29482 118.506 11.7756
-14.4698 126.96 -1.03506
-15.6559 121.624 -0.820576
-11.9904 141.189 -2.51089
-7.58346 117.226 11.8635
-10.2533 112.58 9.85024
-10.1999 114.238 9.44472
-9.34 150.081 -1.75419
-14.6253 124.283 -0.078679
-7.61051 131.599 7.10198
-12.8819 137.827 -2.29275
-8.09044 122.202 9.80192
-18.1917 110.507 -0.102305
-15.6658 123.233 -1.00077
-14.7644 123.121 0.286588
-14.7272 124.086 0.0181054
-13.2751 136.604 -2.27149
-7.56695 133.177 6.8543
-14.3283 125.244 0.292444
-8.18601 116.799 11.7256
-13.3401 113.218 5.85433
-15.5869 121.568 -0.135666
-14.1283 112.627 4.98024
-6.96406 149.796 2.12819
-16.4431 117.332 0.298762
-9.00548 122.818 8.69248
-14.287 128.37 -0.51762
-17.304 116.829 -0.688082
-15.0285 127.359 -1.17326
-14.8864 126.222 -0.56595
-9.69928 113.503 11.0233
-7.09235 149.1 2.38219
-13.1884 132.566 -0.282259
-16.1446 120.905 -0.303204
-16.408 121.933 -0.99929
-15.4866 110.541 4.22184
-9.05981 115.474 11.4111
-13.2186 113.581 6.3396
-16.7009 115.089 1.00843
-12.9932 133.296 -0.120767
-10.5654 148.562 -2.04449
-16.7689 114.893 1.03968
-14.0645 129.173 -0.162105
-15.1793 121.85 0.836273
-16.772 115.502 0.846979
-7.25917 151.388 1.57752
-17.1817 115.368 0.334824
-7.69588 133.76 7.1392
-15.3447 126.631 -0.925768
-16.1113 123.722 -0.960992
-14.6609 123.739 1.04053
-7.70411 139.795 5.11238
-7.51816 146.109 3.20881
-8.15506 132.519 7.0476
-14.8847 122.777 1.13781
-7.78637 120.951 11.5773
-15.5613 127.754 -1.49389
-8.93 151.546 -0.560416
-7.9539 136.736 5.92222
-10.184 126.068 6.54623
-12.2847 139.177 -0.886714
-15.9764 117.387 1.58407
-15.1426 128.446 -1.06602
-18.2176 112.581 0.224375
-8.83364 151.828 -0.371739
-8.09342 136.343 6.01039
-13.3233 113.813 6.58474
-16.3542 121.294 -0.139772
-13.0729 139.331 -1.80838
-17.7417 110.495 1.72122
-13.7161 130.438 0.412487
-15.7287 120.529 1.10177
-9.18704 117.357 11.2595
-14.7077 125.67 0.786078
-12.0111 114.983 8.21346
-16.3109 121.197 0.160236
-8.39232 130.407 7.94453
-14.8904 130.417 -1.02919
-7.9312 133.982 7.35291
-8.20854 152.178 0.681406
-17.0543 114.464 1.58575
-10.6026 126.151 6.45656
-14.8971 124.04 1.25743
-7.85022 144.674 3.86061
-17.4981 110.415 2.39296
-14.7781 124.127 1.42419
-14.4163 128.373 0.461046
-15.0226 127.329 0.0484505
-16.7959 110.713 3.34606
-7.66667 150.355 2.31193
-13.6093 130.554 0.976907
-15.7643 112.336 4.31119
-13.5247 114.069 6.82338
-13.327 114.275 7.08758
-16.5504 120.522 0.476688
-8.30978 137.76 5.93193
-10.7933 126.531 6.46497
-15.0016 124.297 1.46355
-9.29709 128.4 7.97178
-13.3096 134.762 0.246417
-13.6272 114.314 6.91486
-12.0324 144.075 -1.13284
-15.7182 122.327 1.30571
-14.3537 123.367 2.83548
-16.2553 112.146 4.1048
-13.7334 131.202 1.0306
-14.9658 126.579 0.934347
-15.3428 124.253 1.28382
-15.1953 131.559 -1.03731
-14.8718 130.776 -0.319504
-8.0491 148.3 3.06142
-14.9702 130.865 -0.46328
-13.6989 132.051 0.884855
-13.4447 114.963 7.17108
-10.3522 150.194 -0.692015
-14.4123 132.389 -0.131187
-12.7022 141.687 -0.954344
-17.3184 112.09 2.99598
-16.4221 122.648 0.59723
-15.195 122.272 2.42771
-15.6245 124.05 1.27264
-16.8762 127.436 -1.62572
-8.39242 150.91 2.00539
-10.1391 122.305 9.49326
-14.5691 128.705 1.18009
-13.0019 115.861 7.82169
-13.0157 115.87 7.80357
-13.7933 134.307 0.412742
-11.615 116.655 9.5596
-15.6477 120.867 2.58199
-16.6429 116.971 2.56881
-12.2903 140.174 0.567479
-8.50312 141.545 5.38589
-15.1909 121.165 3.20785
-15.4028 124.209 1.91099
-11.8181 124.471 6.77377
-11.0189 117.439 10.3857
-13.3863 136.248 0.651874
-16.4248 120.373 1.993
-9.08381 131.381 8.35921
-16.7277 113.043 4.16469
-14.5656 123.649 3.51759
-16.6699 122.697 0.946622
-16.5241 123.588 0.850656
-10.9812 119.986 9.79065
-8.60551 142.665 5.26115
-10.1152 151.025 0.289881
-8.70524 141.653 5.55346
-8.54357 145.925 4.36296
-17.1152 113.033 3.95432
-11.5857 147.661 -0.339323
-11.6569 147.432 -0.310114
-15.9126 120.801 3.06501
-14.8963 123.841 3.43237
-16.1817 121.198 2.59353
-8.64613 147.392 4.00057
-15.9432 120.704 3.15134
-17.0865 113.358 4.1225
-10.6111 128.379 7.90204
-8.70692 148.423 3.60446
-13.8943 116.881 7.39555
-8.73515 135.143 8.21058
-17.612 127.429 -1.3414
-16.7382 123.717 1.15741
-16.1616 123.722 2.1157
-8.87542 149.678 3.20626
-14.6312 134.946 0.499162
-12.3341 118.508 9.35965
-16.4344 114.577 5.20031
-8.91949 145.32 4.95925
-12.1211 144.6 0.878424
-14.852 135.097 0.40052
-17.1011 119.391 2.72708
-11.9977 144.209 1.19699
-16.6237 122.431 2.3845
-9.95062 131.617 8.46428
-14.9135 136.018 0.0958321
-15.8168 115.393 6.04028
-13.1437 139.512 1.3979
-12.4656 124.994 7.40084
-12.9902 139.982 1.52168
-17.3985 115.514 3.95702
-11.4332 127.193 8.1984
-11.4717 126.031 8.5717
-10.0252 149.825 2.37306
-17.1316 117.231 3.92322
-13.4575 123.317 6.90201
-11.1509 130.058 7.75883
-17.4343 116.492 3.83687
-17.3357 115.612 4.29599
-12.1546 145.141 1.2492
-17.4585 116.272 3.94807
-9.12917 143.375 6.08076
-13.8516 118.129 8.30409
-11.075 130.375 7.91724
-17.3982 118.496 3.30142
-12.4385 121.883 8.98203
-9.34852 141.142 6.61318
-17.4935 116.809 3.80768
-18.364 126.209 -0.630187
-17.4685 116.705 3.94095
-16.6297 121.109 3.69831
-15.5316 116.682 6.77129
-14.9484 137.04 0.593552
-15.6987 134.734 0.363685
-11.2424 149.669 1.36356
-17.9656 124.923 0.70322
-18.5503 127.582 -1.0084
-15.483 117.062 6.87334
-11.3537 130.542 7.99612
-11.7442 148.46 1.26232
-17.1536 119.618 3.81809
-18.6408 126.438 -0.589965
-14.0116 138.992 1.54257
-16.3667 119.16 5.19121
-16.5927 118.778 5.04857
-15.7545 120.506 5.62471
-9.57711 146.283 5.25256
-15.3546 118.355 6.94142
-12.4906 143.399 2.23838
-15.2565 119.879 6.62783
-15.9517 124.232 4.16823
-14.2109 122.406 7.27501
-12.7823 124.584 8.5106
-16.8317 118.538 5.01459
-12.1007 147.463 1.56206
-15.5427 118.834 6.70853
-16.3647 134.009 0.359377
-15.78 119.521 6.24154
-13.2475 124.582 8.12544
-16.8609 119.917 4.75837
-15.3844 119.271 7.12767
-14.0167 123.138 7.72208
-18.0153 122.892 2.28518
-15.6965 119.324 6.7335
-18.4492 129.787 -0.521699
-18.0854 123.681 2.13776
-12.1662 128.37 8.70851
-17.8737 123.96 2.37501
-16.9822 120.869 4.68721
-15.0045 119.408 7.97762
-12.6557 127.223 8.56957
-10.9059 132.7 9.12843
-13.3511 124.261 8.75268
-16.7083 122.531 4.73354
-16.6031 119.522 6.0667
-16.664 119.79 5.93269
-14.4234 124.214 7.50106
-10.4081 147.978 4.88498
-10.2513 146.378 5.67193
-17.8079 123.45 3.23755
-12.4703 129.726 8.46351
-17.337 123.68 3.8653
-14.8594 123.965 7.35763
-12.6585 145.323 3.06373
-10.7996 136.376 8.7319
-15.6936 123.455 6.51475
-16.3968 120.637 6.70714
-12.701 128.285 9.30365
-17.0752 124.319 4.63831
-16.067 136.407 1.88586
-14.58 141.533 2.26496
-17.9759 120.41 4.89563
-16.8792 120.29 6.4556
-17.9996 119.705 5.11524
-12.9242 127.176 9.55722
-15.7069 123.424 7.02008
-16.2524 120.995 7.15946
-14.6567 123.876 8.36821
-14.9088 122.567 8.50885
-14.8338 123.868 8.16644
-18.3543 120.406 4.51942
-13.4841 143.509 3.29833
-14.7839 123.653 8.38913
-13.3604 131.312 7.75009
-14.3263 122.148 9.62098
-18.0026 133.522 0.642955
-18.2728 120.17 4.95237
-16.4898 121.071 7.10635
-15.1367 123.329 8.23019
-16.092 119.619 8.2793
-14.8174 123.724 8.64805
-14.3846 121.612 9.98009
-16.1258 137.406 2.16895
-18.9492 119.276 4.54174
-18.5101 124.195 3.45861
-18.5801 122.711 3.95786
-18.7127 119.453 4.9611
-14.3602 124.116 9.37352
-12.7201 147.143 3.72699
-13.5303 131.894 7.95608
-13.6025 130.443 8.41357
-15.8733 119.983 8.93651
-13.2795 128.466 9.6303
-19.0101 122.829 3.73302
-15.3214 122.512 8.94397
-20.111 124.922 1.54696
-18.1675 124.477 4.42444
-19.0332 127.249 2.32207
-19.122 117.939 5.41891
-19.1571 126.146 2.59372
-13.4818 126.111 10.5991
-14.128 131.426 7.87046
-13.9719 130.785 8.311
-15.566 123.537 8.62425
-12.9619 146.796 4.19665
-19.1722 119.475 5.07752
-13.6252 128.905 9.48171
-17.2754 121.249 7.11419
-11.0365 142.716 8.32562
-14.4712 124.889 9.80711
-17.4846 120.843 7.09673
-17.0029 119.083 8.39428
-16.8467 135.905 2.86082
-20.0968 125.253 2.05936
-14.7309 123.269 10.2628
-14.445 143.223 3.76653
-17.9982 133.968 2.11466
-14.1578 132.156 8.05665
-17.0151 121.336 7.85294
-13.0661 146.747 4.52596
-11.5878 144.725 7.30392
-17.6889 134.408 2.49929
-18.5525 119.262 6.54898
-17.9514 119.767 7.24743
-11.5163 143.685 7.96313
-19.5349 126.172 2.99113
-19.3326 127.538 2.857
-14.5471 130.629 8.40352
-11.7157 144.345 7.59624
-11.5955 142.582 8.48641
-17.1775 120.239 8.6385
-12.4119 145.773 6.45394
-15.9271 122.736 9.63347
-11.858 141.971 8.77018
-14.5733 128.59 9.69055
-16.1067 126.814 8.29663
-19.3654 127.037 3.74465
-16.1129 140.753 3.63249
-15.191 128.939 9.05612
-16.5818 139.534 3.54375
-16.0699 127.269 8.53439
-16.1887 128.559 7.92789
-16.1158 128.291 8.14398
-16.1647 125.676 8.9983
-14.9654 128.438 9.70706
-16.2386 129.191 7.74348
-15.7592 128.545 8.73369
-20.8777 124.687 3.12172
-16.4869 140.39 3.90868
-16.0466 124.168 10.1375
-17.2679 137.811 3.74655
-20.5379 117.63 6.22213
-20.4553 126.094 3.54109
-20.4384 117.923 6.55058
-21.3476 124.142 3.23494
-14.4373 144.711 5.67991
-13.5481 136.394 9.94653
-16.8044 140.132 4.22782
-13.1554 141.763 8.81285
-19.9056 129.384 3.81911
-13.5986 143.984 7.55964
-13.3744 139.123 9.55947
-21.732 120.396 4.56758
-17.3072 127.797 8.25188
-17.3287 121.728 10.333
-16.7538 130.481 8.27197
-18.0445 135.532 4.77659
-17.3589 128.611 8.12171
-13.8943 143.158 8.00783
-14.1725 143.78 7.45556
-17.7678 136.868 5.02159
-17.3809 123.158 10.3453
-17.5743 125.933 9.25613
-22.0113 120.128 5.15016
-14.0277 139.709 9.4248
-14.8817 143.578 6.93314
-17.2713 124.426 10.2611
-19.4703 132.305 4.6252
-19.13 134.211 4.48519
-19.5938 131.214 4.97671
-14.7405 138.115 9.58422
-19.8433 119.652 8.92641
-18.963 121.122 9.63493
-20.3979 128.547 5.16215
-18.123 127.214 8.77125
-21.2426 118.511 7.47672
-21.3809 118.656 7.30949
-17.7756 137.484 5.81366
-21.2982 126.23 4.88111
-17.454 139.014 5.79062
-18.0417 125.38 9.82821
-20.3126 127.659 5.96098
-20.8303 118.854 8.30164
-19.4872 132.178 5.66893
-19.6429 133.748 4.95483
-18.3031 129.884 8.15104
-15.5137 141.01 8.3521
-18.2924 136.794 6.01534
-22.2783 121.009 5.97821
-15.4779 138.198 9.4747
-20.4594 126.844 6.54542
-20.3645 129.871 5.65293
-18.1909 137.257 6.16155
-20.1923 130.453 5.81247
-22.1406 125.143 5.03871
-22.2622 120.039 6.71621
-15.7362 138.693 9.28325
-17.9475 138.275 6.48193
-18.6872 136.15 6.25632
-21.0663 121.175 8.31642
-20.5291 127.073 7.01983
-16.0577 136.927 9.82773
-17.0667 133.472 9.71598
-16.15 139.033 9.12543
-21.3758 121.631 8.18432
-22.4195 123.942 5.99101
-22.64 122.125 6.52597
-17.3154 138.194 8.52397
-19.0405 136.25 6.9062
-17.3091 136.233 9.43066
-18.5917 136.897 7.45897
-18.4647 137.184 7.56138
-22.5765 122.895 6.86384
-17.5015 135.284 9.67938
-19.5589 127.383 9.65536
-19.552 133.946 7.42582
-18.1065 137.178 8.42318
-19.5735 133.834 7.63376
-19.8444 126.753 9.83594
-18.0193 135.307 9.44404
-18.5466 135.095 9.27107
-21.481 128.454 7.67396
-18.9835 133.296 9.60326
-20.4678 128.874 9.34722
-20.9657 129.182 8.71
-21.044 129.41 8.6629
-20.8521 130.627 8.51586
-21.0021 129.533 8.76028
-20.8326 130.025 9.15273
