ply
format ascii 1.0
comment Created by Open3D
element vertex 1931
property double x
property double y
property double z
end_header
11.8931 131.12 0.023615
17.2902 124.86 10.321
12.9381 133.653 -0.299929
17.2733 124.761 10.3966
14.7286 131.242 3.33049
-11.6248 102.296 -9.31541
16.4905 122.601 10.8557
12.8984 133.17 -0.0144314
-2.10002 97.5156 4.92134
17.9295 123.865 11.8288
-6.44381 86.8977 6.56722
-2.21692 95.2524 6.29988
-4.75251 95.3327 3.29918
3.92533 108.499 5.17307
12.78 132.553 0.392702
12.816 135.573 -1.46717
17.5924 123.87 11.5193
6.82458 126.958 -3.05361
-16.7645 95.0576 -10.593
-4.75714 91.5368 5.71493
3.70534 90.3671 16.3859
4.8771 90.9442 17.4213
5.1387 121.331 -1.41371
-0.207611 93.2799 10.0096
9.58775 112.83 9.19388
8.06866 100.016 15.5036
-0.0474263 88.979 12.9719
-6.82601 108.149 -7.06805
-8.09257 106.964 -7.76312
-0.832342 101.876 3.97007
-21.2579 79.1903 -5.66606
6.99116 95.4549 17.2029
16.8711 123.471 11.1189
-22.9963 81.6286 -9.23258
18.0715 125.311 11.3803
-14.3138 79.4486 2.33134
17.1003 129.64 7.51708
8.92224 127.953 -1.00381
-16.8411 95.2577 -10.5698
18.1777 124.627 11.9775
-12.4407 101.863 -9.5294
11.7972 120.285 7.28087
-4.34064 96.1009 3.6159
4.27791 110.558 4.60514
-0.210743 93.281 10.2739
10.2321 129.545 -0.329309
-3.84575 94.0322 5.58282
-17.3876 94.0329 -10.2865
6.75272 94.5264 17.7152
-12.04 102.495 -9.32358
3.56859 111.553 3.27057
9.33318 122.75 2.99385
10.8267 134.182 -2.4588
-17.925 92.7701 -10.0457
-19.4314 88.1519 -8.87454
8.03472 129.871 -2.9135
9.35396 111.55 10.2053
10.8356 130.09 0.296613
-2.2143 115.72 -5.9373
11.756 136.964 -2.94397
-8.22049 84.7884 6.57659
6.88441 95.2214 17.7096
17.9482 124.531 12.2192
15.5721 133.032 4.08026
-16.7816 96.0734 -10.5185
10.9281 135.832 -3.09043
-12.9972 101.847 -9.6962
-22.231 79.9531 -6.70225
11.2112 120.652 6.85265
11.4649 129.721 1.45049
-13.4513 79.1354 4.17595
-18.6382 90.5527 -9.09544
-6.0526 88.9689 6.671
4.42854 91.5104 17.362
0.572687 107.223 2.94384
10.8571 129.564 0.935691
9.88865 127.713 0.970906
15.7221 133.155 4.38061
-13.9672 79.5551 3.3743
-7.99927 85.4207 6.67836
-6.16178 109.83 -6.55245
12.6249 135.56 -0.747755
0.364503 89.3973 13.9971
11.0535 137.756 -3.95955
-12.0041 103.949 -9.64238
-10.9952 82.4449 5.11848
8.39318 108.859 11.2053
3.66556 112.741 3.21361
-16.221 97.7251 -10.633
11.6324 131.988 0.42873
-21.1624 79.2768 -4.77118
-22.3872 79.9175 -6.60524
5.23423 92.85 17.6379
9.36127 130.474 -1.24383
0.709658 105.159 4.5784
10.071 129.287 0.339215
4.56212 113.336 3.9473
5.87909 125.185 -1.97766
8.76367 113.666 8.67292
-3.46819 98.9993 3.58883
8.218 114.696 7.41978
-14.9209 100.321 -10.6331
0.152055 89.6373 13.803
-19.3171 76.8562 -0.953108
-1.47061 102.86 3.59466
-2.32224 98.6224 5.28054
2.29955 104.521 7.00251
9.1691 131.968 -2.24571
-4.79191 95.3981 4.45847
-3.98632 113.643 -6.07853
9.76192 119.185 6.61401
3.58218 120.692 -1.58061
3.42201 113.499 2.78004
-13.6141 102.115 -9.99191
10.1665 134.388 -2.43658
7.84838 124.634 1.04588
18.5451 131.92 9.00272
-2.79124 115.949 -5.93719
-0.62505 101.379 5.79802
13.182 135.372 0.571887
-5.10854 90.9587 7.13887
9.26528 112.17 10.6371
-0.883147 90.3899 12.4922
10.776 125.003 4.33484
8.57537 131.458 -2.3108
12.4455 133.636 0.867463
17.5943 123.326 13.4789
7.9315 103.309 14.778
-19.1352 77.6166 -0.74584
4.19329 114.359 3.4461
-20.4356 87.7869 -8.66349
16.7707 125.194 11.3854
-5.51436 111.456 -6.0627
-0.866808 91.7549 11.8284
15.5178 130.638 6.53099
1.90476 91.0255 15.5754
-20.6615 87.4132 -8.56848
18.0235 131.966 8.70714
16.6566 126.145 10.7957
15.472 132.065 5.71107
-15.0526 101.128 -10.5647
16.6701 131.063 7.76492
7.35653 115.888 6.41998
-19.1995 91.9441 -9.56983
8.59128 129.692 -0.788234
-4.24616 97.3552 4.56009
-16.989 97.0934 -10.211
16.5487 131.049 7.71901
14.5832 123.026 10.4758
-11.9472 81.9022 5.31362
2.66693 105.768 7.41447
6.09455 128.039 -2.6093
-22.1279 77.8769 -4.06545
-11.5717 82.6392 5.33871
0.579649 104.617 5.72689
5.81262 126.836 -2.07953
2.4087 105.331 7.50601
4.53935 113.3 4.99671
-8.25685 86.4053 6.95419
4.01344 92.7077 17.3782
7.95807 123.9 2.33253
16.3762 131.114 7.67385
4.60837 115.197 3.92522
3.62636 92.4454 17.2337
-4.8973 96.111 4.92783
-21.2923 79.7375 -3.93249
0.685828 120.536 -3.8826
-5.87853 94.7636 4.71081
16.2894 133.888 6.04937
-19.501 90.3655 -8.45815
-14.3321 102.552 -10.0681
7.63906 115.066 7.82897
-21.1544 78.0597 -2.58506
-20.3732 77.1455 -1.08943
13.485 136.154 1.40141
8.46165 123.219 3.6689
10.2375 132.308 0.0483843
-0.634362 92.8586 12.1912
2.59971 92.144 16.485
12.2757 135.031 0.80472
0.963487 91.2274 15.1741
0.317209 104.549 6.02336
16.8158 128.523 10.2876
-22.9735 79.395 -5.38414
10.917 130.847 1.90816
5.69711 95.9698 17.7891
-3.98576 98.7661 4.69866
-9.39619 108.418 -7.73227
7.58355 103.048 15.5676
16.5494 134.71 6.12482
10.6973 128.606 3.11344
7.52713 115.151 7.88757
8.55135 130.424 -0.512383
-21.2493 78.1339 -2.47226
-6.50273 92.6113 5.69244
5.15251 95.2024 17.7603
-8.6487 109.012 -7.12593
0.241387 91.0001 14.6625
-5.65555 91.2159 7.62398
16.3677 137.196 4.49268
10.3142 125.747 4.62313
-10.8632 83.8873 6.19066
-2.38833 102.415 4.46839
4.80494 94.8575 17.6715
-0.448662 119.956 -4.31275
11.874 134.643 0.892382
9.49648 127.472 2.63075
-4.48692 95.3623 6.49393
7.23248 126.441 0.643925
15.8309 126.338 10.7933
5.80621 128.253 -2.14449
4.23783 94.1806 17.5254
4.01548 111.822 6.17769
-6.88436 88.2706 8.27011
-19.7808 77.6283 -0.139285
4.03039 94.0112 17.4604
-13.6126 81.9112 4.4106
-4.17517 115.176 -5.46643
-6.73519 88.9831 8.0692
-20.9017 77.585 -1.32985
8.96153 128.858 1.37869
-12.9294 82.4931 4.98157
8.27537 130.189 -0.214874
10.309 120.226 8.50561
5.20118 96.0088 17.7983
4.93508 116.518 4.55804
3.29692 122.916 -1.3689
-15.0443 80.5034 3.88093
-2.55674 97.351 7.92061
8.67098 127.441 2.11529
-2.4777 102.253 4.93998
17.6584 131.963 9.85922
-13.8554 104.853 -9.91587
14.1165 123.194 11.3281
15.6255 122.267 13.6836
10.7725 134.258 0.451228
10.0535 121.291 7.79735
10.5917 122.949 7.3915
13.3701 137.187 1.68303
-22.4122 86.2856 -8.15281
-11.6422 107.597 -8.94992
15.6477 122.272 13.8084
-4.38149 95.959 6.93727
-18.9426 78.5448 0.858848
-0.255561 91.5535 14.5737
3.07968 109.224 7.36809
-16.3477 101.442 -10.4974
7.36346 104.061 15.6777
7.7824 134.39 -2.95847
-16.2517 80.6609 2.75352
1.6261 92.6268 16.1737
-0.721227 120.722 -4.28438
-12.4522 107.277 -9.55805
1.43604 113.122 3.06778
15.8352 122.342 14.1501
6.61659 131.525 -2.44688
11.1219 133.607 1.5384
-21.1945 77.9772 -1.27088
14.4674 137.931 2.73597
7.40307 133.873 -2.95516
15.2243 121.33 14.1403
5.22955 119.277 3.73191
8.71397 127.732 2.48695
9.62663 132.903 0.299797
5.21922 119.297 3.71563
-1.2061 91.7321 13.5695
6.9619 127.025 0.892194
-13.7954 106.031 -10.1742
-1.786 94.2698 11.3333
-2.79882 97.5124 8.10774
-19.4982 78.5182 0.509486
-23.4235 80.4554 -5.3067
-14.5942 104.293 -9.98523
9.63612 121.632 7.54453
-6.66412 93.7834 6.00165
11.6795 135.82 1.00343
1.63704 122.992 -2.66296
16.4293 134.008 7.7484
14.8516 138.026 3.37939
5.04028 119.707 3.43494
17.1934 137.326 6.57779
6.78908 132.104 -2.3236
-3.08896 101.542 5.37736
-3.03676 101.651 5.39072
-14.5933 104.682 -10.0595
8.53344 136.862 -3.21925
-6.80374 93.1701 6.35826
11.4095 134.918 1.41424
11.9434 136.611 0.977529
9.09727 131.049 1.15501
11.5323 135.774 1.04167
8.4399 136.634 -3.11841
4.27623 115.069 5.60697
3.32231 124.074 -1.17085
8.02483 114.136 10.6405
6.7498 126.237 1.51548
-22.9644 82.9218 -6.00939
8.49171 127.544 2.75819
0.483992 122.741 -3.59456
8.19572 113.945 11.0391
-1.48222 102.444 6.9527
-14.7678 104.863 -10.1442
1.69196 93.3053 16.4925
-14.465 105.69 -10.2591
-4.68915 98.2795 5.88608
17.5121 132.582 10.2951
-2.63169 102.309 5.78486
-11.2173 85.3489 6.42839
11.0798 135.394 1.01753
10.1331 121.763 8.51539
7.68191 108.706 13.8973
5.11465 127.747 -1.12136
0.546043 111.985 3.47638
5.32817 119.603 4.29972
11.4956 136.126 1.11613
-2.28439 95.2698 10.7427
-12.6169 84.0043 5.74054
-19.8867 79.1626 0.271595
3.46937 111.962 6.98088
9.28515 126.889 4.39852
-10.3157 109.779 -7.79327
12.6957 122.796 10.9899
-21.9413 87.6422 -7.44704
6.36936 132.403 -2.47886
10.3845 134.207 1.10529
10.7273 135.261 0.850918
7.05603 104.129 16.184
-6.31597 113.348 -5.30251
9.25029 140.192 -3.97913
-18.4272 79.85 1.62434
8.08773 111.632 12.6886
7.30523 115.63 9.27889
8.72824 127.333 3.61241
-15.0206 82.966 3.74847
-11.5244 108.929 -8.5199
-15.8063 103.849 -10.3273
17.5984 134.438 9.55633
-7.04355 112.566 -5.50697
8.47221 128.276 2.78193
-0.304899 103.625 8.09041
10.0416 141.982 -3.96261
10.0728 134.633 0.712731
7.55394 123.637 4.72124
-6.69633 91.2392 8.48426
7.32237 106.875 15.0697
-3.75414 100.449 6.13996
5.13045 118.93 4.91527
-0.624297 92.5804 14.7915
-23.8677 85.2663 -7.81576
-20.963 91.0731 -8.05769
9.94522 142.108 -3.98311
0.580028 93.2276 15.8772
-15.0783 83.2845 3.82337
14.3958 124.012 12.737
14.385 123.2 13.2917
6.54698 125.207 2.85286
4.41977 98.1427 17.4293
11.8419 137.814 1.11629
16.2467 131.78 10.1035
6.86762 104.685 16.2046
-22.0339 88.1706 -7.25729
8.75184 130.518 2.14133
-4.56289 99.5695 6.04935
-1.95388 103.045 6.97496
-17.6204 101.62 -10.4785
-3.3883 118.67 -4.51001
7.57724 111.026 13.1869
-6.54796 94.9294 6.77645
-23.703 80.617 -4.31107
-17.003 81.3044 3.1133
-23.5385 82.8339 -5.50544
0.208922 108.256 6.30984
17.0916 140.467 5.79289
-16.6203 81.6329 3.37082
8.98047 129.324 3.33654
-23.5979 82.6208 -5.38562
-18.7121 98.3547 -9.57685
-3.63928 101.097 6.41703
2.80449 118.899 2.75075
8.78213 129.128 3.32219
6.67715 128.337 1.35776
-13.8711 108.012 -9.91611
-16.1674 82.9129 3.22478
6.80858 115.052 9.93941
-18.7566 80.4847 1.76477
-1.3505 93.112 14.2934
-22.5747 87.5172 -7.06095
16.7983 135.625 8.83002
1.36882 95.0618 16.3344
-12.2332 86.2918 5.92528
0.736972 124.552 -2.99506
-11.4937 88.0884 5.67753
-12.913 108.974 -9.13453
-9.99169 111.17 -7.05998
6.84916 124.274 4.43206
-0.144177 93.6773 15.5414
-23.3443 80.5187 -3.36521
-3.66439 98.0558 8.65401
-20.0164 96.213 -9.3559
-19.6136 97.0243 -9.39246
4.76328 122.381 3.21105
5.20422 132.322 -2.5313
-2.88983 96.7352 10.4266
6.71175 124.627 4.10148
16.4482 141.527 4.86077
-4.91962 96.6145 8.14156
4.09578 116.716 6.04741
-9.93983 88.7711 7.23379
2.32096 95.901 17.1283
12.862 123.721 11.952
-6.97377 91.294 9.15245
5.47537 123.32 3.56389
12.0295 123.209 11.3318
6.85726 126.897 2.97032
4.06808 127.347 -0.573939
14.5137 141.1 3.02427
-11.2104 89.3226 5.5292
-3.3966 101.497 7.01649
-5.44073 115.898 -4.42536
13.5295 122.409 13.7147
6.85006 106.947 15.6364
7.05402 108.081 15.1619
0.581949 111.794 5.2312
17.2449 137.857 8.33719
-12.9284 109.337 -9.04522
-12.63 87.01 5.40454
5.31817 133.262 -2.71616
-13.6261 85.6287 5.11212
2.23538 125.69 -1.52725
-23.7794 83.1078 -5.17352
4.33521 128.655 -0.904107
4.72695 130.085 -1.32093
-9.37444 90.0777 7.38273
-4.82227 99.4717 6.81192
-20.3335 81.112 0.203442
3.60409 116.125 6.21259
-23.8615 84.3063 -5.90026
17.2695 135.932 9.80011
1.42149 125.662 -2.28863
9.36558 123.885 8.15807
15.2451 141.708 3.81765
-20.7149 95.5708 -9.24067
-0.122296 94.2521 15.7399
-18.9315 81.5608 1.72311
13.9758 141.215 2.69405
13.708 122.481 14.2337
-15.7156 106.326 -10.0687
-11.5797 110.676 -7.95197
13.306 140.426 2.487
5.9865 135.733 -3.13605
4.86421 101.045 17.4304
-16.7225 83.732 3.03774
10.3715 124.408 9.16076
5.59478 134.152 -2.57976
8.92708 142.188 -3.72033
-3.93337 100.592 7.44119
3.27178 115.535 6.46665
11.2448 141.985 -0.803203
5.00548 132.483 -2.12267
16.6799 136.69 8.92019
10.8901 143.793 -2.32787
14.0691 124.329 13.698
7.2238 114.351 11.9667
-4.47619 100.71 6.86398
6.1912 137.243 -3.66312
-20.1129 81.7536 0.51283
-22.1316 92.6885 -8.73964
13.8569 141.4 2.75659
8.53042 141.477 -3.515
-1.42276 122.541 -3.23913
-10.3447 89.9413 6.86853
7.26233 139.527 -3.73929
-13.9839 87.2258 4.33282
-4.73206 97.5035 8.71116
17.6986 139.777 8.35325
2.18337 119.411 3.00433
-2.67023 99.0218 10.183
16.0928 133.347 10.5401
-5.55516 95.7475 8.87411
6.37426 138.122 -3.83027
-6.60274 94.9597 8.18712
-1.07411 97.237 13.2424
9.86024 123.303 9.63093
16.8525 137.152 9.13633
-1.09277 97.3554 13.2137
2.46077 112.579 7.78198
-1.52306 97.6379 12.5597
-9.01469 113.235 -6.05333
-3.18706 102.423 7.60497
-21.9278 93.85 -8.94359
0.625236 112.225 5.91936
-20.3537 97.504 -9.37346
5.65108 134.781 -2.37382
-4.57599 98.5481 8.50353
7.84652 125.555 6.03996
-10.7949 90.7527 6.14228
7.39053 119.17 9.58572
-10.4469 90.6346 6.66778
-24.8067 85.8725 -7.15753
10.4911 144.462 -2.71736
-1.41732 98.3596 12.4016
0.663684 113.699 5.16746
-23.7187 81.8985 -3.34218
11.0282 123.564 11.1275
16.8654 142.813 5.85033
-14.327 109.516 -9.72705
7.78125 125.062 6.40077
2.6125 113.98 7.32922
14.5877 128.846 12.0308
6.72912 128.646 2.94348
-10.2836 112.91 -7.06506
0.59151 112.067 6.22092
1.73277 118.877 3.27011
-15.0073 88.1613 3.0192
0.641222 113.984 5.11508
9.76451 124.364 9.28556
13.113 124.183 13.3294
7.16014 128.517 3.62271
-2.91085 97.7192 11.2419
7.71138 126.504 5.55475
-15.0856 88.4071 2.85553
9.04271 143.877 -3.81686
10.2572 144.669 -2.88442
4.24149 101.449 17.338
-3.13349 99.9084 9.67247
0.383176 110.547 7.09427
8.20116 129.234 4.53198
7.64626 126.97 5.31571
-24.151 83.8583 -4.75306
-16.1058 86.4973 3.03268
-10.1643 113.32 -6.91344
0.071562 95.8195 16.1308
-10.557 91.4124 6.44945
8.94344 144.041 -3.85395
-2.1467 99.2964 11.3813
7.63985 114.161 13.4874
-16.642 85.6902 2.99032
10.9995 141.633 0.121836
-19.2036 101.021 -9.6634
-19.1317 83.3348 1.59001
8.67427 125.168 7.83156
1.44897 108.302 10.0045
-3.4126 100.477 9.24643
0.0387141 106.085 9.75774
-10.1102 91.6934 6.93434
-16.8357 85.7164 2.82803
8.29369 142.533 -3.53771
16.3342 135.27 10.5065
4.74583 120.563 6.21438
-8.15632 114.833 -5.29769
-20.7367 82.8416 0.147329
7.27458 118.124 10.7437
5.4953 136.798 -3.11424
13.7673 124.795 14.2009
8.25258 121.603 9.75945
-0.471991 125.253 -2.76774
-6.34517 94.8057 9.57729
0.588853 114.03 5.59241
-1.02578 98.1144 13.7372
-6.72053 94.6081 9.27527
7.23678 118.211 10.7625
-7.62955 91.8914 9.93881
-17.6272 104.997 -10.0196
9.44652 144.857 -3.36236
7.23678 114.769 13.047
0.0354041 106.379 9.91562
7.04808 118.848 10.2953
-8.29745 115.098 -5.32899
13.8153 127.475 12.7979
7.29051 126.774 5.61886
6.38924 126.745 4.60427
4.08862 125.47 2.74061
6.79406 119.209 9.869
0.336205 126.619 -2.35969
-5.91658 117.604 -4.00512
17.0022 143.828 6.34145
-1.64748 123.851 -2.90807
8.83082 144.627 -3.72136
-13.0734 111.635 -8.57383
9.47921 124.653 9.69912
-4.71675 99.2341 9.10318
13.6604 127.37 12.9115
5.82687 126.587 4.2292
-15.846 89.2684 2.35774
5.94404 107.743 16.2729
-5.08809 98.4709 9.18724
14.8679 131.591 11.7061
-14.6329 90.0553 3.32253
7.36882 131.181 3.20166
14.7089 143.091 4.32147
3.51854 118.22 6.89932
14.4702 129.349 12.7302
-2.95841 103.559 8.58117
-24.5662 83.3507 -4.00113
-23.6357 90.8264 -7.6185
7.54316 125.724 6.9419
13.9335 128.165 12.916
10.5735 141.671 0.458237
3.18065 123.939 2.97745
-24.9073 86.5502 -6.37069
-1.03772 98.7885 13.9235
-17.1288 106.287 -9.66407
6.99149 140.868 -3.17968
-12.706 91.5673 4.83339
2.03233 121.163 3.45588
1.9372 99.8116 16.8133
3.26733 129.866 -0.564568
-1.3989 107.035 8.38105
9.25085 145.378 -3.28884
17.0026 143.921 6.72739
-7.63738 116.193 -4.67299
1.74124 113.315 8.14838
-6.88066 94.4049 9.96449
-1.07205 99.1267 13.8162
0.487752 115.332 5.4263
6.21132 139.978 -3.39944
8.27934 127.16 7.11951
-3.76484 121.257 -3.2765
5.4007 106.92 16.5345
-14.9904 110.936 -9.90913
0.694373 127.57 -1.99287
9.7421 125.621 9.84731
-3.65332 102.444 8.75918
-19.7854 84.9329 0.899974
0.480107 114.896 5.83873
14.8151 131.926 11.9205
-20.859 99.148 -9.17766
-8.44256 115.913 -5.18498
7.34079 125.007 7.59899
9.29019 127.599 8.35833
6.35073 130.901 2.83317
-24.6235 88.0466 -6.45637
9.2022 127.618 8.27243
9.51209 146.44 -3.2134
7.39301 127.194 6.45982
-2.73918 123.283 -2.94752
2.53813 101.315 17.1324
9.65112 125.571 10.1975
0.692583 99.1151 16.3821
0.449369 114.66 6.34837
-21.4619 84.5986 -0.364217
1.91429 129.051 -0.956898
-11.0503 92.6291 6.81416
-12.4751 92.3645 5.31765
4.61261 105.802 16.8892
5.65184 125.513 5.67733
7.99945 144.252 -3.36043
9.57533 125.446 10.3813
0.722452 128.227 -1.75167
14.6279 131.602 12.4433
6.57405 128.041 5.25381
-0.679812 97.8358 15.8492
10.3387 142.262 0.755101
-1.91162 107.152 8.543
13.618 125.963 14.899
6.6867 113.827 14.442
10.9654 124.99 12.4376
-6.37254 96.9131 9.82847
-1.38331 99.5716 14.0869
6.7929 126.57 6.64967
0.287983 113.215 7.45296
-16.1375 110.291 -9.95515
-25.3788 85.3997 -5.08163
6.99676 127.603 6.28791
6.70121 114.346 14.3383
6.38176 127.746 5.52849
1.63676 101.422 16.5752
-21.8834 98.1173 -8.89367
0.750658 117.375 5.50935
7.94465 134.013 3.45309
3.86358 104.917 17.0635
-23.544 84.6995 -2.30503
-17.2338 108.466 -9.79989
-20.0037 87.9924 -0.114582
-20.1114 86.579 0.658232
6.5447 114.331 14.4653
-7.74187 94.5591 10.1835
-6.06896 119.473 -3.5254
13.2384 143.639 3.87497
-10.0023 116.369 -6.16592
-5.66983 120.127 -3.38066
-19.2798 89.2346 0.147572
6.4655 142.13 -3.01355
-4.82367 121.295 -3.09487
-23.8677 85.8516 -3.06779
-20.8738 86.9258 -0.230375
5.27357 130.817 2.80731
-2.24339 100.283 13.2585
6.20631 128.443 5.40998
-12.3138 114.931 -7.78032
16.2105 140.813 9.34598
-5.70824 99.4701 9.75779
-2.65313 101.74 11.9103
-0.388945 100.422 15.4393
14.8012 146.787 4.01962
-12.6723 114.938 -8.08258
6.64264 116.015 13.9293
4.71597 108.6 16.3475
6.24873 119.292 11.4268
-0.187609 100.879 15.4958
5.01769 130.714 2.81348
-2.88318 103.894 10.465
5.0016 140.249 -3.20918
8.15278 134.742 3.96094
15.7084 145.937 5.7798
9.63813 126.201 11.1406
-6.91581 97.2984 9.9595
-22.4911 97.6913 -8.5481
5.38122 126.201 6.17969
16.2836 145.202 6.99193
3.84569 121.784 7.17698
0.900895 118.302 5.92394
-5.71228 101.19 8.96203
2.84864 125.761 3.51993
12.7697 143.794 3.78252
-23.096 96.2 -8.24761
9.88813 127.117 10.9378
9.82588 128.389 10.0856
-8.17252 94.3228 10.4702
10.0661 128.492 10.313
-7.4059 118.665 -3.91948
15.1757 137.048 11.0056
-2.37344 101.036 13.1574
-5.74895 120.733 -3.21121
-23.3604 86.4811 -2.2538
-23.1589 96.2945 -8.2021
-1.08175 110.194 8.92801
-4.45827 104.928 8.29366
15.8473 140.059 9.97591
13.0184 130.772 12.5184
-13.7005 115.185 -8.97757
-11.4032 93.3808 7.48139
4.54754 124.369 6.66869
-1.87766 103.216 12.495
1.59443 122.703 4.27897
5.93706 128.603 5.65112
4.62831 140.053 -3.10045
13.9587 132.879 12.3665
9.99984 148.577 -2.16654
-18.7738 106.949 -9.65067
2.39999 118.929 7.62346
-23.1894 86.6097 -1.98099
0.234542 115.333 7.37873
-2.23856 101.27 13.3771
-12.0869 93.6734 6.63632
10.0487 128.334 10.7548
9.30514 127.371 10.4992
8.74923 125.65 10.9606
-1.52574 106.926 10.7325
9.23249 127.425 10.4424
9.82872 127.257 11.2686
4.46469 109.414 16.2392
4.24741 108.804 16.3983
6.41457 118.232 13.0246
13.9081 147.446 3.41675
7.80418 137.45 2.57261
-16.3047 112.363 -9.86671
-20.588 102.429 -8.61146
-24.5635 92.6842 -7.11646
-22.4709 88.4497 -1.99086
4.62065 130.902 3.03639
5.78624 119.721 11.4666
-21.8375 89.6133 -1.93573
15.8823 145.621 6.97831
-22.879 97.9165 -8.3413
4.12371 129.813 3.20681
-1.32004 110.312 9.13542
-17.3501 110.614 -9.83102
9.86683 143.213 1.53039
2.00174 118.509 7.90374
2.53619 120.126 7.52397
13.1634 132.267 12.3753
4.62241 110.468 16.11
-2.33776 108.673 9.09136
8.40452 126.599 10.4002
12.5767 129.371 13.5456
-0.258895 113.353 8.60138
-17.677 91.0907 2.21757
9.16406 128.667 10.0122
-8.01557 119.369 -4.25857
11.5256 147.245 1.12041
12.3996 128.286 14.1079
9.83619 146.648 -0.468759
5.77882 114.808 14.8632
-2.40804 108.715 9.12128
6.34685 134.026 3.45368
14.7117 147.045 5.05409
6.61635 144.098 -2.57161
2.68541 126.335 4.04277
9.63918 145.152 0.34759
11.432 147.56 0.940786
-0.28195 108.477 11.8756
-19.1912 90.8768 0.809593
-5.52316 104.074 8.53647
-0.227725 111.127 10.3677
10.3538 143.878 2.12333
8.24155 138.691 2.97075
2.96049 107.042 16.7563
3.59252 108.778 16.4143
-24.9294 91.6771 -6.23252
12.8581 132.468 12.3527
-13.0321 94.2442 6.1327
1.70631 132.147 -0.471738
-0.971945 129.498 -1.93346
13.0434 132.947 12.3314
10.187 145.703 0.942403
-6.78375 102.457 8.33948
3.77129 109.875 16.044
10.3532 149.128 -0.991524
-2.18441 109.571 9.25638
2.78082 134.235 -0.47607
-2.21795 105.977 11.5039
-7.2299 100.534 9.06087
-3.86298 125.109 -2.48554
1.40401 122.895 5.09572
15.4511 145.449 7.34603
-5.5655 104.397 8.61024
-2.19169 104.742 12.3943
6.87524 145.484 -2.66781
7.04543 145.974 -2.77442
8.88904 128.459 10.4448
-25.1037 88.9054 -4.45594
1.96407 105.689 16.7426
3.3488 108.878 16.3626
8.01953 139.229 2.7138
14.5268 137.787 11.2681
-21.5478 90.4771 -1.16735
4.67173 131.345 3.80637
10.3032 145.452 1.55989
13.9155 147.928 4.26128
-6.6124 103.293 8.37315
-0.473205 102.911 15.8179
-21.4978 90.5887 -1.05391
2.16947 133.654 -0.420023
-1.61542 103.215 14.3432
-1.09371 112.302 9.24063
3.20979 123.107 7.48839
7.00791 124.148 11.2946
11.4271 129.971 12.8214
5.09838 128.265 6.49203
5.5081 129.849 6.00986
2.06221 106.624 16.6203
-2.7426 127.289 -2.04238
5.78291 130.856 5.75353
4.6697 113.346 15.5147
-1.67698 111.119 9.49001
11.5946 147.525 2.14126
-13.4445 94.571 6.18782
-18.9615 92.1947 1.22341
-0.915183 113 9.26561
-24.4538 94.0728 -6.34794
7.06511 124.777 11.2811
4.16529 141.506 -2.63407
5.99094 122.492 11.5335
11.3804 145.774 3.20594
0.63622 105.012 16.3346
1.64914 124.56 5.20004
-2.3176 106.71 11.8233
1.12271 120.877 6.92441
13.2068 135.64 11.8289
-24.8992 91.7311 -5.15897
-14.5272 116.602 -8.67954
3.5978 139.167 -1.62267
4.26992 142.349 -2.83379
6.96088 140.502 1.51023
14.2415 139.534 10.661
-2.40758 105.804 12.4365
5.88567 132.41 5.38317
-2.86963 109.712 9.44532
8.02234 141.351 2.30645
0.47867 116.899 8.9144
-13.3737 95.0475 6.46983
11.6119 147.761 2.56267
4.38303 143.223 -3.04526
13.5135 138.267 10.7884
-21.2103 103.46 -7.90202
1.1154 133.009 -0.341832
-3.63618 126.954 -2.08753
-24.9759 90.0812 -3.85004
7.67245 142.014 1.70138
6.1399 123.627 11.5093
3.65473 125.591 7.38031
-2.45743 110.757 9.57325
6.68227 127.396 9.80758
7.76878 129.289 9.92403
2.54457 127.256 5.09236
6.83863 140.995 1.50092
-10.0583 96.2969 9.89504
1.24495 121.994 6.99596
2.17068 109.198 16.1604
2.96906 124.309 7.60234
-24.8411 90.4435 -3.64288
2.70597 123.651 7.73976
12.8582 149.489 3.35279
-2.44279 106.706 12.4005
6.74825 126.003 11.0196
-10.2951 96.0491 10.0057
-23.8323 97.8835 -7.02274
10.5776 148.957 1.11986
2.58686 123.57 7.789
8.08929 138.17 5.0569
-2.71127 110.825 9.64402
11.4873 133.32 12.1246
1.58141 108.548 16.1494
-0.840775 112.666 10.7375
7.6954 129.969 9.85244
-0.164501 105.622 16.0063
13.3066 149.482 4.14558
1.8781 135.274 -0.283395
-8.24907 102.179 8.73417
-10.5242 95.7482 10.1273
-5.93749 105.968 9.06171
-8.23695 122.22 -3.87881
12.4856 136.858 11.2292
1.61315 109.136 16.0327
-15.3739 116.6 -8.59268
2.74952 111.636 15.8197
12.0443 151.04 1.91806
4.64105 144.806 -2.82969
-15.5146 116.523 -8.62688
8.75443 144.28 2.37065
12.0883 136.002 11.5247
-9.28786 99.9312 9.23593
-9.0963 121.835 -4.33215
1.6858 109.854 15.9033
-1.42443 109.107 12.7411
-18.2832 93.8286 2.62673
4.96471 119.939 13.435
11.1766 133.809 12.0014
3.47873 129.569 5.68937
4.69059 135.918 3.1065
-20.242 107.511 -8.19345
5.9828 147.026 -2.35739
3.27742 140.951 -1.63952
-24.4324 91.9079 -3.15114
-15.1316 117.472 -8.36094
3.85314 128.25 7.12239
7.21845 150.386 -2.87886
4.19702 134.956 3.31018
-20.6159 106.5 -7.82452
-23.4912 93.333 -2.8845
5.52585 139.068 2.31004
-20.7281 106.229 -7.69822
9.44898 145.133 3.15935
10.1231 131.886 12.3052
-12.6721 120.446 -7.19097
-17.0621 94.5004 4.04963
12.5187 139.811 10.1751
-20.1809 107.996 -8.09971
13.4794 146.363 7.1927
1.1993 109.946 15.7639
2.40672 138.509 -0.829734
8.11665 145.61 1.39173
1.67322 111.341 15.4698
8.43794 151.921 -2.18666
-9.38023 101.1 8.98507
-9.40901 101.054 8.99782
3.58005 143.102 -2.28077
5.88096 125.661 11.4268
1.45803 111.027 15.4718
9.05355 150.914 -0.76472
-8.30171 103.851 8.57986
5.79888 128.076 9.84085
-5.21634 126.871 -2.3132
1.16548 110.351 15.6179
-15.5035 117.446 -8.34189
10.4077 150.293 1.35306
-3.00175 130.317 -1.73539
1.81137 112.324 15.2585
-17.6946 115.043 -9.324
11.7137 138.758 10.2185
-4.36625 109.718 9.67806
12.7033 150.236 4.16425
-10.6738 97.7584 9.85828
3.08633 141.515 -1.55158
3.63468 131.015 5.79461
12.8397 149.92 4.67334
4.38407 132.372 5.8466
13.2388 142.434 9.91795
-20.3443 108.399 -7.99045
-14.2607 96.3205 6.76716
10.0922 133.337 11.999
-1.79559 107.366 14.449
-9.32394 123.808 -4.72571
10.7425 135.361 11.5213
-1.81189 132.325 -1.27669
-1.21057 107.7 14.9695
-1.13361 113.368 11.4848
11.3262 151.171 2.25778
-6.74345 125.81 -2.93453
-4.87918 109.39 9.64622
-0.950437 133.157 -0.720384
4.76408 127.129 9.81157
-0.391852 116.911 10.2157
10.4345 134.725 11.6899
11.9222 140.18 10.0495
-0.707419 133.614 -0.558578
-12.9141 121.276 -7.09008
2.63326 126.57 7.81402
7.49093 151.928 -2.47302
2.36736 140.345 -1.15158
-6.35633 126.661 -2.7309
-23.3741 95.0182 -2.72411
1.27924 137.102 -0.353808
5.76278 128.893 10.0938
-19.1734 94.8 2.45042
3.55208 133.87 4.47558
-7.67368 106.045 8.87648
1.53758 113.388 15.0535
-1.64859 115.618 9.93692
11.8244 150.876 3.50222
4.92442 147.53 -2.4579
2.46171 114.921 15.2299
3.97012 135.25 4.21482
10.0157 135.081 11.4129
-15.1661 96.6233 6.14425
3.67175 145.739 -2.74036
8.05369 141.056 5.35243
-9.71371 124.549 -5.05891
4.76169 125.855 11.1346
0.844526 112.741 14.8471
-16.101 96.3929 5.29419
-4.09987 129.965 -1.79833
-21.2514 106.978 -7.41204
0.468001 136.262 -0.403466
-3.85836 111.968 9.89458
2.20119 126.24 8.02643
-0.310001 118.425 10.022
2.55546 115.905 15.0013
-8.50993 105.484 8.63398
0.781729 122.428 8.85002
-2.34176 109.229 13.5185
4.09549 126.967 9.88661
-17.1399 116.97 -8.66738
3.40145 131.835 6.05356
4.63641 125.616 11.4308
6.49706 131.31 10.0341
-22.4427 104.786 -7.16
9.82447 148.583 3.08193
3.70019 132.633 6.06594
-1.87172 109.052 14.4304
4.64384 139.234 3.08371
10.5727 151.329 2.42054
-24.2436 97.8591 -4.67779
-23.3854 95.2175 -1.98711
-1.70222 112.063 12.8199
-10.1642 125.946 -5.79266
8.29675 153.116 -1.27697
-13.8346 97.1726 8.07802
0.840565 124.318 8.18
-1.74104 109.445 14.5417
9.81727 137.222 10.5914
-5.85863 128.941 -2.56418
11.046 140.954 9.68303
4.59464 139.127 3.27172
-0.129607 136.429 -0.530089
-1.95466 133.701 -0.94951
5.96579 131.363 9.82802
4.53158 137.658 4.19232
11.5355 150.063 4.60381
8.25696 149.435 1.1778
-10.7672 124.833 -5.59485
11.4535 142.16 9.55241
-1.15278 110.123 15.0036
2.22319 116.796 14.7541
-19.8302 113.445 -8.97285
4.46643 137.107 4.60589
-1.13717 115.575 11.6649
0.436406 113.713 14.711
10.4697 150.914 3.08496
10.1778 139.575 9.92275
-7.17233 108.125 9.43668
-9.16363 127.075 -4.84886
-21.565 94.6659 1.05735
10.2036 153.63 1.1242
10.4365 140.403 9.7431
0.564626 114.136 14.7459
-8.79246 127.179 -4.43526
-23.7143 102.362 -6.27339
11.3534 144.827 8.08292
11.3221 144.522 8.26799
7.57625 148.643 1.27982
-17.6681 117.389 -8.61009
-11.4613 125.193 -6.23615
-15.2121 121.086 -8.02833
-1.64777 134.86 -0.762832
8.5663 145.204 4.69484
7.64536 149.339 1.01474
4.38684 129.346 9.83627
2.13564 127.825 8.15811
10.2676 140.59 9.64555
10.7691 149.907 4.36909
-1.47775 112.669 13.5226
3.65465 128.634 9.47993
6.88981 152.837 -1.98985
-11.8675 98.4417 10.34
9.54785 151.098 2.25247
-14.9882 97.4491 7.33418
-18.3028 96.5677 4.01982
1.09161 125.919 8.26573
8.16114 153.668 -0.936747
-8.77512 127.704 -4.40391
-16.9867 118.406 -8.15742
-1.48213 119.091 9.60562
-18.5313 96.4845 3.8712
10.736 142.726 9.03406
-21.1366 110.794 -8.2004
0.555862 124.915 8.3406
10.7924 148.604 5.40751
5.73999 151.749 -2.43658
10.8927 144.645 8.09482
1.12426 126.53 8.06702
-19.5224 96.0063 3.14356
-4.65267 113.058 9.83906
10.6871 143.493 8.67519
-21.3593 110.306 -7.94166
10.7051 143.951 8.4395
-23.7358 102.064 -5.5029
8.11313 144.243 5.25584
-9.00118 128.335 -4.76021
2.59962 131.984 6.54614
-19.5732 115.007 -8.73916
-0.939223 113.562 14.0311
3.22935 122.785 13.1071
-7.06227 109.311 9.54739
-8.75927 128.782 -4.71775
-22.9216 96.2537 -0.807599
-5.80051 130.962 -2.58042
-0.198512 120.826 10.3898
-11.358 101.115 9.79413
8.16764 136.99 10.0777
-18.7532 96.7368 3.92676
10.0266 142.409 8.87305
4.10152 149.216 -2.35056
-0.994567 120.879 9.55052
10.1059 148.687 5.07019
-10.0696 105.061 8.92803
-7.58229 130.359 -4.10236
4.34084 140.226 3.66
-0.0450552 138.985 -0.678173
4.29971 139.716 3.96554
5.04275 143.766 2.28756
7.93851 144.077 5.49328
9.24643 140.149 9.51064
-12.2413 127.3 -7.56526
-8.61615 130.346 -5.23114
-23.0546 105.608 -6.54329
0.808858 116.924 14.3085
-11.3879 128.377 -7.21052
-6.16319 131.054 -2.77176
-11.1576 130.425 -8.21798
-11.5769 129.849 -8.33333
10.3753 147.922 6.01323
-1.55438 120.647 9.23459
1.41139 142.53 -1.05307
-1.58987 136.528 -0.782472
6.59108 134.15 10.319
7.89683 144.119 5.56738
-9.62585 130.413 -6.30288
-9.97747 128.894 -5.75357
10.2078 147.835 5.97373
-9.57984 106.518 8.84995
3.92428 136.589 5.74821
9.76421 147.892 5.47494
2.82439 132.34 7.15999
10.4035 145.972 7.45062
9.08567 146.358 5.68892
3.94421 137.447 5.29269
-4.78216 133.041 -2.15558
-22.5565 96.9447 -0.215934
-5.99541 131.818 -2.77178
2.77063 147.567 -2.41373
-15.3098 122.643 -7.89538
-3.12269 134.799 -1.25788
4.87002 143.685 2.52635
-3.41562 115.817 10.3967
-20.3927 114.163 -8.46054
3.88756 130.203 9.89525
-23.6602 102.123 -4.6955
-6.3718 131.667 -3.04766
-11.6348 101.232 9.98656
-12.7251 126.071 -6.91367
-18.5969 117.856 -8.58495
-13.6992 98.7392 9.21667
-0.332361 118.839 12.2175
2.89792 133.517 6.79482
-6.29925 132.04 -3.05532
1.99827 127.176 9.77067
9.07135 153.999 1.15696
2.20074 121.148 13.8336
8.90721 141.474 8.87904
0.712239 118.861 13.5716
-23.6521 98.9805 -2.46063
-16.4091 97.9778 6.67616
2.63084 124.838 12.086
3.77328 131.137 9.46854
4.69631 151.53 -2.27618
8.89531 153.693 1.28573
8.31488 144.428 6.44962
4.17985 140.75 3.92945
2.88634 129.524 9.49555
-3.54828 116.158 10.3915
-21.6421 96.2594 1.74003
1.7208 120.844 13.6455
-2.23105 121.135 8.8421
3.6118 130.685 9.68681
2.53781 123.929 12.7099
-21.5537 96.3373 1.86414
-0.816047 123.151 9.27356
6.84208 154.097 -1.24175
-8.3517 133.734 -6.20752
6.95791 138.674 8.63022
3.49107 149.716 -2.37262
-9.00412 133.223 -6.61594
8.93949 144.397 7.41254
-7.74635 132.434 -4.60309
-12.9116 128.704 -8.29481
-22.9341 98.4373 -0.941965
-1.98601 121.869 8.88403
3.08084 135.434 6.27683
1.85474 125.347 11.2566
0.434213 124.365 10.2431
3.98202 132.565 9.24193
8.47089 144.014 7.28495
5.47702 134.47 9.8125
-23.703 100.095 -2.72237
-22.8738 107.737 -6.56061
-14.5781 98.8282 8.78809
-7.20186 135.581 -5.72827
-4.33916 134.6 -1.74935
-12.2139 100.694 10.4092
7.96603 140.509 8.9635
2.9117 135.18 6.39858
-2.71374 121.548 8.40304
-8.80706 134.084 -6.64181
2.17589 130.518 8.50504
7.95339 140.847 8.79998
4.27004 134.184 8.68539
7.42188 151.439 1.53788
2.76784 132.537 8.01777
-0.525945 140.49 -0.832802
1.96959 124.594 12.1339
7.95681 141.513 8.49018
5.68644 135.236 9.79031
2.72196 134.914 6.52139
0.127168 123.164 10.9014
2.21218 129.348 9.4558
-6.39709 135.008 -4.19065
4.15587 136.335 7.35221
0.795044 121.251 12.9393
3.54086 132.301 9.2018
-21.7578 96.8382 1.93056
-23.4747 102.942 -3.92475
-18.2626 119.25 -8.09746
-13.6026 125.892 -6.81781
4.54698 144.477 2.75235
1.32576 125.724 10.8093
-0.0381694 122.03 11.5512
-22.4113 97.6332 0.709349
1.59007 122.865 12.9546
4.07466 135.259 8.06701
-7.57991 136.764 -6.5255
0.193606 122.045 11.8739
5.18799 135.031 9.57441
-4.22261 135.797 -1.94301
-22.4968 98.0073 0.46482
-12.0932 101.795 10.2809
-7.12352 112.596 9.3014
5.90282 138.078 8.5715
-4.7186 136.344 -2.77858
-3.52993 136.573 -1.48534
-15.6685 124.645 -8.19009
7.45297 141.624 8.23289
-7.54786 137.118 -6.50612
-18.4966 119.321 -8.11831
-13.3553 129.575 -8.53676
-11.0748 132.423 -7.65091
4.67696 137.567 7.60374
2.42516 130.828 9.23939
7.18603 151.353 1.887
5.65151 137.233 9.00243
-12.3183 101.506 10.4637
-23.1638 99.3538 -0.883778
-23.1753 107.31 -5.91096
-18.4181 98.2762 5.402
0.448273 143.512 -0.932841
0.18487 127.882 8.65992
5.31723 136.26 9.4153
-4.69927 116.109 10.3856
-10.4673 107.659 8.99926
-22.0904 97.8377 1.58456
-11.3444 132.358 -7.52662
-15.0846 125.697 -7.70061
-10.1219 108.575 8.95414
-9.20522 110.041 9.1082
2.85694 141.094 3.68042
-0.120361 142.851 -0.917109
1.60698 136.98 4.84423
-22.2087 98.1641 1.40063
1.7367 138.431 4.08459
6.80964 154.751 -0.255582
-0.179278 127.507 8.7925
3.02823 151.148 -2.35523
1.27735 146.869 -1.69678
-8.34999 136.978 -6.74815
-9.73285 135.393 -7.36592
0.478559 124.771 11.3847
-22.6822 99.1659 0.412396
-9.53123 135.745 -7.19467
-0.214784 127.737 8.79266
-5.36242 138.228 -3.82895
-6.45296 138.238 -5.10257
-13.6473 129.678 -8.13406
-15.5075 125.912 -7.91275
5.38179 154.455 -1.41646
0.343362 129.593 8.42387
5.95885 149.939 2.19306
-21.426 114.453 -7.52778
-14.3577 100.229 9.74622
-16.1557 99.7296 7.95826
-13.8346 129.174 -7.85239
0.13403 129.142 8.57775
4.44482 146.063 3.03218
-13.4064 130.272 -7.90581
1.57783 148.953 -2.11052
-22.5396 110.947 -6.4181
7.80463 153.763 2.19951
2.77204 142.238 3.62028
-5.40227 139.075 -3.88962
-11.7551 105.586 9.83315
-4.07484 121.444 8.85422
-0.43733 143.793 -0.968783
-14.6098 128.823 -8.12652
4.13678 145.679 3.23437
-17.1124 123.745 -7.82969
0.119669 130.193 8.33014
-5.45677 139.688 -4.16755
6.69153 155.173 0.343163
0.534679 131.442 8.10109
1.14063 134.392 6.99777
1.02138 134.974 6.49826
-9.06147 136.92 -6.52332
-13.2155 102.686 10.3381
-4.56255 141.005 -3.66174
-3.3951 140.709 -2.06307
-12.3169 132.128 -7.07481
-18.3798 122.125 -7.77293
-21.5626 99.6627 2.66891
-8.65659 113.427 9.13272
-0.124184 130.703 8.26795
-6.6263 140.342 -5.39106
-19.6641 120.262 -7.99383
1.33603 150.375 -2.31811
-3.6929 126.099 7.11895
-0.480553 145.029 -1.04404
3.68382 153.928 -1.7659
-20.4217 118.726 -7.81883
-6.32282 140.783 -5.17918
4.44554 154.897 -1.43096
-15.9353 101.017 8.65971
1.12203 149.957 -2.19776
-5.53965 141.684 -4.7827
-12.3371 132.286 -6.81982
-16.6768 100.779 7.96338
-0.0958714 136.877 4.68407
-19.0627 121.094 -7.59255
-1.94353 127.823 8.26061
-15.6636 126.642 -7.07602
-7.45607 115.182 9.82447
3.75016 145.676 3.75365
-9.47704 137.034 -6.28538
-5.58388 119.236 9.50653
-1.63998 128.236 8.4682
-10.7461 135.457 -6.74991
3.13809 153.624 -1.87221
-15.7808 126.989 -7.14911
-23.0247 103.305 -0.68238
-13.8822 129.316 -6.31079
-21.8241 115.5 -6.89267
-18.672 122.081 -7.3175
-19.7896 119.733 -7.12468
2.10646 143.839 3.39066
-22.6889 112.674 -6.01683
-4.33725 124.399 8.13424
-16.942 101.536 7.87668
-9.11375 114.075 9.15199
-1.88541 128.927 8.30759
0.0785816 148.321 -1.61082
-10.4673 111.529 9.29381
-18.714 101.242 6.14685
-0.70065 133.862 6.72548
-19.2917 101.272 5.49808
-14.3832 129.123 -6.30592
-13.7781 104.131 10.1932
-20.2327 101.389 4.35582
-2.02061 144.334 -1.36145
-12.9677 131.947 -6.38012
-22.0577 102.351 1.66602
-6.42223 117.873 10.2229
-4.51543 125.1 7.92573
3.00469 154.267 -1.65192
-20.3448 101.487 4.25705
-19.2387 101.495 5.60946
-10.7639 111.241 9.41718
2.48006 144.832 3.77539
-4.13032 143.465 -3.06214
-2.59272 143.971 -1.55434
-10.0267 112.85 9.38878
-21.4466 117.675 -7.02864
-15.8458 102.598 9.07147
-0.644695 135.203 6.37275
-19.3038 120.41 -6.16374
3.16076 154.788 -1.47249
-2.14774 132.504 6.37077
2.34579 144.893 3.85509
-16.6763 102.473 8.30292
0.51286 151.116 -2.19119
-1.2032 146.344 -1.1785
-16.8094 102.486 8.18624
-22.4265 105.361 -0.210786
-11.5211 135.429 -6.32217
-2.09075 129.959 8.1867
-5.02454 144.211 -4.21822
-23.1922 111.979 -5.10959
-21.2468 118.448 -6.8716
0.0454283 141.531 3.54675
-3.71039 144.201 -2.52526
-21.4779 103.234 2.48023
-11.6183 109.871 9.91764
-6.63661 142.673 -4.92122
0.614363 143.016 3.36962
-0.249042 141.678 3.21346
-21.485 103.481 2.41198
-0.988259 147.688 -1.39666
-18.2078 102.628 6.88069
-22.8256 113.981 -5.68765
-2.82504 132.139 6.37332
-19.2834 119.862 -5.14981
-8.94027 116.012 9.47946
0.428279 152.028 -2.21695
-11.1391 111.725 9.6392
0.631478 143.417 3.58892
-10.1665 114.168 9.38889
-1.27534 138.034 4.76837
-17.7498 124.765 -6.14443
-18.9806 122.995 -6.44095
-0.429664 140.202 4.49644
-21.8301 116.787 -5.80285
-21.035 108.33 0.483156
-3.45865 135.079 4.22414
-18.0535 123.885 -5.78229
-21.8976 106.319 0.837507
-20.9564 108.411 0.630488
-15.2938 104.366 9.82668
-5.01517 145.578 -4.05936
-5.16356 125.481 8.45202
-10.6621 113.439 9.67077
-17.5022 125.073 -5.67677
-21.6673 116.969 -5.43186
-20.5706 108.917 0.952176
-23.2244 113.123 -4.81203
-14.7809 105.108 10.1549
-17.8576 125.127 -6.07221
-3.92404 135.452 3.78356
-4.43931 146.163 -3.44204
-22.4051 115.415 -5.11292
-1.05179 141.129 3.79818
-20.1083 119.647 -4.94374
-21.5602 116.88 -4.7684
-1.80369 139.615 4.06456
-19.3731 122.197 -5.54547
-6.0701 145.431 -4.57345
-3.73392 146.525 -2.50486
-0.988256 140.817 4.33855
-19.3618 121.152 -4.80454
-15.7742 105.087 9.5572
-4.08081 130.297 7.3715
-18.096 124.409 -5.30402
-6.36277 145.319 -4.70914
-2.29967 139.389 3.80974
-6.31427 122.527 9.74184
-1.80946 138.955 4.67998
-21.267 105.13 3.22757
-19.5645 105.105 5.25654
-2.52079 139.251 3.7313
-4.51476 130.514 6.93557
-22.1601 115.534 -4.30014
-15.9058 129.407 -5.70791
-19.0198 105.16 5.96849
-0.795932 141.868 4.18816
-5.77663 124.949 9.03579
-2.06836 148.337 -1.36159
-20.087 121.463 -5.53002
-3.41091 147.322 -2.27991
-4.87442 133.52 4.71745
-4.08824 138.739 2.38025
-0.46899 143.263 3.77698
-4.6439 130.131 7.19991
-17.1465 105.084 8.35256
-7.99602 119.226 10.1678
-23.276 113.953 -4.41961
-2.74434 138.655 4.08102
-17.5186 126.822 -5.69651
-2.79508 140.562 2.92388
-5.07095 130.414 6.67174
-6.22293 123.567 9.64969
-5.78807 125.834 8.76926
-5.48037 136.13 2.637
-3.76845 137.755 3.73345
-5.28463 135.038 3.67008
-17.5481 105.686 7.83811
-13.9053 108.428 10.3916
-13.4449 132.832 -4.42579
-20.4139 119.489 -4.17443
-23.1862 112.609 -3.01631
-12.2398 112.311 10.0458
-5.45952 134.91 3.74886
-21.8595 117.024 -4.09684
-19.5221 106.222 5.5019
-19.2918 111.556 2.41841
-19.3721 110.456 3.08328
-4.69968 147.924 -3.25608
-7.0108 128.088 6.56636
-20.5014 106.356 4.45727
-22.3447 111.248 -0.741138
-18.0519 106.553 7.28882
-2.71759 149.456 -1.75754
-12.0088 138.244 -5.52526
-20.6768 107.025 4.04592
-20.6863 106.942 4.08949
-19.9816 108.682 3.84965
-8.36788 144.38 -5.04217
-14.3696 108.809 10.3923
-5.60142 137.28 2.73599
-7.58795 122.711 9.68208
-19.9614 120.807 -3.51718
-14.7904 108.424 10.3665
-19.3827 124.355 -5.00648
-20.1769 108.075 4.4467
-5.05289 138.587 2.94548
-18.0649 107.282 7.46416
-19.4335 109.771 4.3086
-20.432 120.107 -3.34543
-23.1667 112.342 -1.63316
-6.75733 134.337 3.75802
-9.81285 141.744 -4.48815
-7.2763 131.223 5.1625
-6.57324 133.638 4.51214
-7.19616 131.84 5.08848
-21.9063 117.267 -2.92063
-14.5937 132.436 -3.9058
-19.3406 113.186 2.71281
-17.5623 107.753 8.27911
-18.7751 126.272 -4.80387
-17.1954 107.706 8.77009
-18.3715 107.97 7.22592
-4.8248 149.616 -3.12017
-21.7972 117.135 -2.52672
-17.0916 107.769 8.90771
-22.5654 112.588 -0.470142
-13.5139 135.165 -4.07896
-21.6404 117.962 -2.74705
-7.16058 132.613 4.99263
-19.7397 123.651 -4.03313
-20.5146 121.78 -3.75257
-20.0126 123.529 -4.15264
-17.8712 108.292 8.00114
-6.10206 137.903 3.15189
-14.0622 134.054 -3.73596
-13.9478 113.212 9.59649
-22.7727 115.803 -2.31717
-18.7652 113.895 3.66342
-18.8894 111.972 4.74528
-15.8396 109.506 9.98373
-21.1424 122.136 -4.17767
-23.2968 114.324 -1.77121
-2.91258 152.305 -1.7913
-16.2515 109.309 9.68595
-19.9626 122.725 -3.06477
-18.6605 114.642 3.57694
-20.5005 123.951 -4.44935
-7.49931 127.767 8.44627
-18.5237 127.385 -4.23117
-8.66585 146.934 -4.91436
-7.28325 137.232 2.84514
-20.1564 114.605 2.07717
-22.0755 113.668 0.42378
-12.5022 117.338 9.3992
-11.0583 119.836 9.53592
-8.13172 136.264 2.64466
-7.66186 137.086 2.76484
-18.1796 128.088 -3.88489
-20.3346 122.661 -2.91809
-8.71955 133.233 4.03965
-11.8683 118.859 9.43665
-9.69915 145.86 -4.99321
-18.1554 128.178 -3.74723
-18.2027 128.229 -3.82845
-8.39443 125.65 9.3315
-8.11564 129.927 6.96074
-23.187 115.379 -1.42945
-20.1945 124.312 -3.514
-23.1077 116.154 -1.71293
-9.14964 132.335 4.47766
-8.00266 127.962 8.62099
-19.6467 123.579 -2.24475
-9.09986 123.944 9.92279
-10.7138 143.985 -4.60891
-18.5136 128.297 -3.85815
-17.5923 109.805 8.88774
-14.696 134.616 -3.32804
-22.0829 122.125 -4.11082
-9.40846 132.965 4.00792
-20.4596 124.458 -3.56195
-13.7752 115.944 9.68548
-19.7231 123.653 -2.10937
-4.84933 151.898 -2.4799
-8.46768 148.351 -4.48105
-21.2241 124.924 -4.6595
-20.7974 122.277 -2.4618
-15.835 111.567 10.1289
-19.6465 125.364 -3.00621
-8.15849 129.538 7.84133
-8.57585 137.287 2.50191
-18.5878 114.054 5.42408
-8.52945 128.323 8.24037
-17.392 129.505 -2.85631
-8.54353 128.566 8.13818
-8.79269 136.168 3.06155
-18.3012 115.026 5.24713
-20.0171 125.984 -3.66602
-14.3484 115.047 9.90804
-21.0493 123.508 -3.26229
-9.13401 127.217 8.38203
-17.307 130.702 -3.31439
-18.4572 113.847 5.98841
-19.9669 123.484 -1.83672
-18.8156 128.156 -3.42757
-22.7756 116.029 -0.393542
-17.9955 114.898 5.95818
-3.55587 154.058 -1.72546
-21.7985 118.698 -0.769796
-17.8289 115.57 5.87385
-19.4388 126.353 -2.80439
-18.291 127.899 -2.40254
-21.1813 125.347 -4.14525
-8.73205 138.005 2.47883
-18.1637 128.59 -2.63788
-17.7306 115.077 6.39786
-5.47412 140.835 4.52573
-9.08589 129.721 7.31151
-21.4277 121.879 -2.20827
-21.7357 121.082 -2.05985
-4.63208 153.12 -2.19977
-16.0431 132.7 -2.67555
-17.437 112.528 8.41614
-21.7908 115.795 1.2635
-19.9927 124.839 -2.3137
-9.11839 136.683 3.05901
-20.7954 124.343 -2.83073
-21.3563 122.689 -2.42358
-10.0775 132.872 4.38759
-19.919 127.033 -3.46087
-16.8732 111.63 9.84105
-20.4267 125.497 -3.04325
-16.5353 111.862 10.1433
-21.9099 125.428 -4.60628
-12.6768 142.154 -4.2766
-15.7961 133.572 -2.43605
-5.66215 141.849 4.29098
-20.7722 123.903 -2.10392
-12.3292 143.222 -4.37935
-22.7065 117.891 -0.557956
-14.7069 115.762 10.1844
-13.8671 117.772 9.93113
-20.7735 125.666 -3.1313
-17.7134 115.953 6.59624
-10.483 133.276 4.23001
-17.4383 131.792 -2.98504
-21.4572 125.096 -3.46256
-17.9136 115.979 6.45834
-18.0885 129.502 -2.26301
-21.3438 116.247 2.36343
-21.5954 122.233 -1.65902
-20.0491 125.186 -1.68868
-21.1806 128.008 -4.79261
-19.7243 123.622 -0.226923
-14.2431 117.452 10.1062
-10.6523 127.752 7.83174
-20.88 125.254 -2.58585
-15.9197 133.954 -2.21621
-17.6016 130.294 -1.82942
-19.7589 125.886 -1.53827
-19.8214 125.913 -1.58713
-6.85959 141.536 3.80154
-23.9484 121.411 -3.50897
-11.0352 126.53 8.50941
-19.2259 128.737 -2.46701
-10.5678 147.511 -4.14101
-21.6741 116.625 2.32428
-14.8787 136.746 -2.37945
-10.886 128.553 7.4716
-13.5498 141.545 -3.82861
-13.824 118.926 10.1166
-20.4026 128.796 -3.81315
-5.79314 152.942 -1.87295
-21.77 126.92 -4.18169
-16.9908 113.893 9.64606
-11.6977 122.883 10.1993
-10.6232 130.235 6.85063
-21.1813 122.761 -0.806536
-21.9071 123.222 -1.94601
-8.63923 139.786 3.20077
-10.9129 129.188 7.21983
-11.9314 145.214 -4.07211
-19.3206 116.584 5.34232
-22.2723 124.034 -2.78263
-10.6039 131.117 6.44918
-17.4043 131.636 -1.83241
-21.662 123.777 -1.68519
-20.3922 123.6 -0.0728877
-14.5621 140.418 -3.83256
-22.4788 117.351 1.4543
-20.5755 125.683 -1.56088
-22.2547 128.117 -4.98311
-14.5299 118.118 10.3982
-11.1128 133.047 4.99571
-19.9419 117.745 4.30461
-9.06038 139.949 3.09029
-18.9904 132.569 -3.8931
-21.5032 119.232 1.61124
-22.4477 123.289 -2.04978
-21.7432 117.074 2.71905
-20.2412 131.416 -4.45532
-18.2644 134.006 -3.73376
-15.8523 116.4 10.1993
-18.509 130.126 -1.55175
-11.7986 124.027 10.171
-14.5042 140.375 -3.26384
-20.802 123.908 -0.250302
-10.0507 139.43 2.58752
-9.81975 139.707 2.70166
-22.7595 126.075 -3.83128
-14.7028 138.039 -1.90694
-14.309 140.336 -2.81187
-11.2871 133.61 5.04068
-21.6924 122.901 -0.40127
-21.0763 125.018 -1.00648
-17.3633 116.484 8.77667
-21.0671 131.544 -5.02795
-11.9663 130.177 6.5101
-16.5746 135.325 -2.06262
-17.3239 116.141 9.24854
-24.9668 121.873 -3.26745
-14.0578 141.099 -2.58546
-21.8437 122.901 -0.222767
-11.453 133.612 5.23465
-11.8153 125.303 10.0954
-21.4355 125.038 -1.01362
-11.5056 133.479 5.34986
-10.533 149.283 -3.37795
-15.9145 117.759 10.2274
-14.6762 125.742 6.65092
-21.2024 122.461 1.09365
-14.6269 141.903 -3.41481
-21.6774 122.489 0.580685
-22.1896 121.733 0.507663
-21.6508 118.817 3.00046
-22.0284 122.443 0.35181
-11.6824 135.894 4.03542
-11.3413 148.233 -3.33661
-14.7936 138.933 -1.50564
-24.9134 122.69 -2.99398
-11.6541 134.813 4.93512
-13.6408 127.834 7.05035
-22.9907 124.299 -1.67657
-22.7059 120.144 1.29534
-18.7115 134.81 -3.27028
-18.1616 118.439 7.7491
-23.0155 128.869 -4.47347
-13.5793 143.665 -2.72885
-14.5268 125.717 7.51923
-23.3546 124.118 -1.81753
-22.5644 121.254 0.931125
-14.9187 120.287 10.5313
-11.082 149.11 -3.14725
-21.614 123.458 0.724127
-16.1817 119.584 9.55514
-22.6415 128.387 -3.55598
-11.9964 136.199 4.17797
-19.9708 134.824 -4.29167
-13.1079 127.148 8.65828
-18.405 118.751 7.76154
-11.9904 135.352 4.84363
-16.6214 120.154 9.02417
-14.2686 124.102 9.31167
-22.5972 121.024 1.50524
-25.4569 122.857 -2.96284
-14.1038 123.897 9.69601
-17.7251 136.208 -2.31347
-13.1367 128.012 8.2535
-8.36546 146.142 2.48048
-12.1826 136.177 4.30535
-22.1338 123.233 0.82262
-13.8815 124.265 9.8811
-13.8554 124.253 9.92396
-22.527 121.136 1.72629
-6.70651 154.015 -0.429098
-21.835 123.423 1.16549
-13.2347 127.798 8.55828
-22.5585 121.004 1.96686
-18.8622 135.613 -2.88925
-7.07718 153.777 -0.493411
-25.1654 123.773 -2.78015
-14.1213 143.692 -2.39095
-9.68193 151.18 -1.88815
-18.4998 136.28 -2.77814
-13.9828 125.299 9.51687
-18.0727 119.66 8.31986
-17.8865 120.204 8.27274
-8.06612 152.942 -0.829849
-20.8338 134.533 -4.1759
-11.1361 140.855 3.21987
-18.3801 137.167 -2.88796
-19.8286 135.808 -3.71104
-19.2101 136.436 -3.36648
-21.5094 121.448 3.40388
-24.1419 120.752 0.776825
-18.8825 119.837 7.53464
-10.5064 150.749 -2.13426
-23.7149 125.508 -1.60453
-12.424 147.917 -2.49619
-23.7976 125.423 -1.55234
-23.0849 121.153 2.05736
-11.3982 149.91 -2.33673
-9.72643 144.912 2.86308
-15.3558 140.529 -0.92392
-19.0857 136.773 -2.9182
-25.8009 124.309 -2.90935
-16.4627 122.451 9.21551
-22.3173 122.11 2.56909
-10.0094 143.928 3.29021
-20.1177 135.812 -3.34002
-13.3325 132.706 6.59743
-10.2858 151.335 -1.55165
-14.5187 142.205 -0.699847
-17.7913 124.494 6.67166
-12.1199 149.086 -2.10942
-21.0617 124.342 3.12988
-14.2442 144.013 -1.22853
-9.13966 147.025 2.90846
-22.6206 121.898 3.03036
-24.6223 127.925 -3.0924
-22.9474 130.444 -2.60206
-18.5016 123.416 7.13278
-25.9066 122.266 -0.770675
-7.9287 152.081 1.51972
-19.061 123.447 6.55062
-10.8077 142.867 3.99864
-20.4407 125.238 3.86782
-9.97145 146.012 3.04722
-21.087 123.809 4.06528
-18.7325 123.673 6.94593
-24.2629 128.446 -2.52698
-12.499 138.536 4.94217
-10.2132 145.874 3.10889
-12.6231 148.892 -1.61434
-25.7001 125.827 -2.40079
-13.9737 144.247 -0.25356
-26.2119 124.478 -2.08372
-21.3918 123.284 4.36098
-13.4715 134.871 6.35024
-16.4667 129.07 6.52538
-11.2514 150.913 -1.02247
-22.8791 121.812 3.74404
-22.3978 133.413 -2.97014
-19.4604 125.46 5.49645
-25.981 121.308 0.510818
-21.6085 123.472 4.27955
-18.7681 137.92 -1.49573
-23.4054 122.825 2.60276
-23.0524 131.289 -2.31921
-21.7626 123.23 4.33012
-25.7092 127.436 -2.93934
-22.8963 131.856 -2.41663
-15.3532 130.553 7.26632
-14.8674 143.572 -0.355756
-24.3839 128.638 -1.92558
-21.7156 122.845 4.97859
-17.0977 140.893 -0.889004
-21.7199 122.645 5.21434
-18.7276 126.405 6.46781
-24.7276 122.4 1.96125
-22.0731 124.226 3.94655
-16.8836 129.246 6.86942
-21.7863 135.258 -2.63483
-25.0681 121.686 2.18852
-22.5307 134.597 -2.92149
-23.5359 131.187 -1.92535
-20.2872 125.334 5.60034
-22.0076 124.384 4.26384
-26.5576 127.114 -2.77902
-14.1629 145.903 -0.0694137
-21.3401 125.596 4.32825
-21.6133 125.469 4.11747
-15.4917 132.122 7.18349
-22.3957 124.914 3.65037
-18.4501 140.204 -1.29471
-19.1564 138.685 -1.05136
-10.1625 148.953 3.04481
-17.6094 141.568 -0.93334
-26.6934 127.202 -2.39181
-18.0015 129.652 6.28175
-22.818 133.694 -1.87918
-15.8436 132.461 7.1311
-20.9301 124.744 6.12203
-22.7236 134.938 -2.40985
-14.4954 135.133 7.1432
-26.3634 120.799 2.33555
-20.687 125.785 5.89774
-24.1967 129.996 -0.825144
-26.12 120.94 2.66368
-21.6317 135.95 -1.42852
-17.8681 131.061 6.11239
-17.4757 142.59 -0.533589
-21.7157 123.632 6.48048
-14.1098 136.565 7.25144
-23.5876 123.852 4.19024
-22.3778 122.883 6.36733
-24.025 121.764 5.15657
-23.763 123.987 4.08599
