ply
format ascii 1.0
comment Created by Open3D
element vertex 1852
property double x
property double y
property double z
end_header
14.7343 118.891 -12.6918
19.1647 122.34 -9.02851
25.8651 129.302 -11.8505
8.70504 110.295 1.25325
18.9923 122.809 -11.4953
-14.2715 91.2302 -10.8858
2.25966 107.933 -15.7322
-17.5127 86.3269 -2.35947
15.5457 116.888 1.08788
-22.464 82.5665 -6.37822
14.1266 118.847 -13.8964
-19.8614 85.7487 -9.36071
28.0233 130.249 -5.50437
21.1988 124.017 -6.52842
3.55 109.239 -15.315
-9.9779 92.526 2.7817
-2.22625 103.59 -14.3067
11.9863 116.811 -13.2545
19.6804 123.112 -8.66786
18.1845 122.135 -10.5492
21.9125 122.764 2.92826
-20.203 84.2818 -3.33079
7.50092 112.714 -13.5016
22.629 124.599 -1.61562
3.82577 109.702 -14.9171
19.7024 123.422 -8.66612
19.6609 123.827 -10.6863
-21.7311 83.8733 -7.04672
-16.419 87.8928 -2.40178
-14.2717 91.8148 -10.8093
12.5214 117.948 -14.1242
15.7062 117.623 1.23881
5.74194 107.379 5.00791
8.04999 110.274 1.74732
-19.3643 86.6898 -8.9344
-23.4471 82.1567 -5.82692
22.4844 124.252 0.572771
22.7096 125.029 -1.89877
-2.67133 99.2246 6.38771
27.7588 130.335 -4.24247
0.166369 106.645 -15.3001
8.37025 110.763 1.54508
19.7553 123.747 -8.58783
25.1118 127.696 -3.41873
19.4207 123.961 -10.8118
15.698 120.409 -10.6291
4.93652 110.941 -13.7295
22.3165 125.435 -4.42354
18.5442 120.095 3.74607
-7.11219 98.9615 -10.5563
27.8864 130.928 -5.14021
17.6155 122.425 -10.6555
-19.595 86.8874 -8.84908
3.14837 109.832 -15.149
21.7476 123.729 1.98867
26.4997 131.166 -11.5067
28.8136 132.869 -9.0175
-7.62954 98.6548 -10.268
13.2447 119.505 -15.2971
-21.174 85.6866 -9.47402
19.4053 123.942 -8.76907
6.26724 108.684 4.28775
19.4955 123.881 -7.98171
28.1988 131.976 -7.29186
9.12497 112.118 1.08946
28.3973 132.295 -7.76298
14.2647 120.238 -13.7891
23.8109 127.073 -3.58837
12.038 115.161 0.288827
29.3582 133.91 -10.5166
-22.3001 83.4653 -3.31816
19.3446 124.357 -9.40486
-21.1194 84.7946 -3.51346
22.1037 124.905 0.186744
19.5503 123.841 -5.99137
-0.4002 102.325 6.30332
-16.5541 90.539 -9.80139
9.29481 112.651 1.01081
21.007 123.144 3.74476
26.3011 129.605 -2.84133
0.116442 107.52 -14.9966
21.0221 126.784 -12.5876
-21.8854 84.1833 -3.40018
-12.7871 94.3392 -10.5117
-5.79508 97.3188 6.3801
-18.1662 87.8044 -3.62755
22.393 125.784 -1.62953
-16.517 90.7872 -9.98637
22.29 126.395 -4.8413
19.8199 124.282 -5.7762
-19.5884 86.62 -3.87819
21.238 125.582 -5.33097
-4.20863 103.303 -13.3719
-16.1785 91.4093 -10.5619
21.1119 125.466 -4.7669
24.6208 130.135 -10.9102
27.7734 132.165 -6.49776
18.4742 124.144 -10.0832
6.96358 113.947 -13.2829
8.4749 112.155 1.6099
17.3143 120.352 2.49973
22.7719 128.485 -10.9931
-11.3109 93.3019 2.55227
23.0174 128.726 -10.929
18.8893 124.427 -8.79417
-19.7595 87.893 -8.85433
19.2467 122.031 4.10801
-5.22517 98.4224 6.3908
-5.44864 102.278 -12.3204
17.9455 124.542 -12.832
18.035 124.32 -11.3021
-2.38727 101.282 5.93611
18.842 124.861 -9.98042
-8.77227 95.4985 4.91389
-7.63189 96.3029 6.17834
5.53088 113.007 -13.1595
18.7496 124.284 -7.43421
-7.00704 100.816 -11.1593
8.19025 115.858 -14.1524
20.5371 123.683 3.65345
20.5369 125.503 -4.68525
27.0513 131.426 -3.27239
-22.0807 86.148 -8.84557
15.7818 122.332 -10.3033
22.6109 128.98 -10.8642
5.62291 109.316 5.65384
16.7817 123.306 -10.031
17.6428 124.73 -12.8359
1.71261 105.479 6.39324
27.554 132.671 -6.13801
19.9695 126.985 -12.9528
19.6999 125.305 -6.29677
3.34764 111.563 -14.076
17.9965 124.898 -11.6384
-1.94771 102.363 6.13751
-23.7097 84.3276 -5.38401
18.0753 125.2 -11.4949
18.1764 125.03 -10.2131
-3.15553 105.768 -14.4456
11.7387 119.579 -13.1193
17.2572 124.65 -12.1444
-22.8369 85.1064 -4.64741
7.45025 115.753 -13.7308
18.8626 124.821 -5.6779
10.5475 115.629 0.453627
-10.8904 94.7127 3.50099
20.1628 125.863 -4.60399
19.5738 125.391 -4.94739
-9.109 96.0866 5.01883
-4.88761 99.8268 6.1938
0.192168 104.625 6.36251
22.5242 128.13 -4.46463
14.2095 119.191 0.51538
8.68522 113.795 1.41863
0.143197 109.17 -14.4885
23.8376 129.109 -3.00529
19.2146 125.224 -5.21622
17.6875 124.997 -10.7883
22.2584 128.06 -4.72986
-23.9494 84.7047 -6.42743
21.2091 127.188 -5.15844
17.5028 125.179 -11.9489
-15.7361 91.2952 -0.763668
19.0814 125.217 -5.23987
16.646 123.975 -9.95733
-12.3377 96.7392 -10.8173
18.1624 125.377 -9.76875
17.6131 124.97 -10.1918
25.8743 131.169 -2.68074
10.2099 115.681 0.577605
19.3036 125.379 -4.30254
22.3612 129.688 -10.6796
-4.11405 105.47 -14.4368
-3.62568 105.978 -14.4747
20.3291 125.159 1.83751
2.55675 107.298 6.74138
19.3294 126.449 -8.23917
-13.001 93.7095 1.94015
16.4044 121.545 1.92175
17.6678 125.56 -10.9866
27.7375 134.365 -7.61603
-21.0605 87.4329 -4.07347
10.1613 115.964 0.627963
27.4146 133.582 -4.99253
10.47 119.288 -12.9655
-12.5977 97.0564 -11.083
-7.46395 98.1563 6.4942
-22.0843 87.554 -8.33779
-19.2213 90.3504 -8.7341
-15.0979 94.8311 -11.2317
-23.9559 85.8263 -8.04083
-20.5689 88.3026 -4.4876
21.413 128.241 -5.44621
-22.5951 87.3006 -8.32517
14.7304 123.529 -12.4547
-10.0568 96.3412 4.77328
14.7465 123.22 -10.865
18.5774 126.486 -9.12451
-2.54425 107.614 -14.1066
21.798 129.915 -10.7083
27.2461 133.982 -5.69397
16.9806 125.583 -11.6544
-19.6778 89.2624 -4.03504
10.7932 117.214 0.434131
-6.80665 103.34 -12.3231
0.902896 106.466 6.87237
16.5556 122.305 2.1608
-4.99212 105.485 -14.2431
18.6544 125.967 -5.49372
-1.20953 109.057 -14.1696
-14.8952 92.8814 0.676557
14.6997 123.818 -12.6624
6.92685 112.782 4.46304
27.3054 133.988 -4.30322
21.9674 129.101 -4.98637
22.5156 130.781 -10.3171
-11.8703 98.4962 -11.4188
18.5681 125.926 -5.00134
10.8638 117.471 0.425323
14.7908 121.173 0.699549
27.2783 134.078 -4.22103
-3.35832 107.251 -14.1529
-0.630635 109.798 -13.9631
17.0145 126.17 -12.4573
-18.0715 90.7778 -2.33112
-23.5284 86.6006 -6.77571
-5.2938 105.478 -14.1813
-10.3769 96.5571 4.75949
-20.2211 89.2935 -4.51207
-6.80185 99.6123 6.46184
12.9752 119.688 0.276437
-22.1361 87.5258 -4.3575
17.0127 125.237 -7.29505
10.3715 120.175 -12.9018
21.8841 129.352 -4.96603
16.8267 122.98 2.39828
9.09677 115.956 1.14175
-4.07366 106.985 -14.3097
-18.3721 92.5979 -10.2574
21.0854 130.12 -10.8878
16.5172 125.715 -10.2574
11.2404 121.387 -13.2706
-12.7542 98.319 -11.5856
8.93029 119.176 -13.0956
-1.03638 109.946 -13.9204
-18.1604 92.997 -10.4177
8.10264 115.121 2.1715
-6.6737 100.248 6.35452
24.5614 131.639 -2.0484
11.0236 121.145 -12.6164
16.8631 126.377 -11.2555
21.4892 129.368 -4.7969
-18.572 92.6336 -10.2086
20.3405 129.726 -11.3486
19.4359 127.491 -4.86449
-9.38919 97.8876 5.88375
8.4651 118.993 -13.2465
25.9324 133.341 -3.17394
-20.7688 90.4179 -8.79425
-0.62087 106.099 6.91645
27.2016 135.478 -7.0711
-15.3162 93.5805 0.632691
16.7369 126.672 -11.95
10.7492 118.336 0.44979
-0.536675 110.784 -13.8983
-6.71638 104.88 -13.4613
27.6822 136.306 -8.26341
27.7325 136.546 -9.09524
16.2944 125.696 -8.94865
3.61092 110.235 6.98014
-0.879056 106.004 6.91131
4.57326 111.28 6.64902
-9.81344 101.513 -11.0363
-11.9682 99.6162 -11.6049
18.9471 128.958 -11.9795
8.86691 116.571 1.29167
-21.3123 89.4336 -5.19441
9.61351 117.408 0.823808
26.2078 135.315 -9.22319
10.7212 118.566 0.438094
26.9749 135.024 -4.47888
12.6901 123.614 -14.1717
-0.872738 106.21 6.94139
13.0069 123.938 -13.8301
14.2563 124.941 -12.7072
3.1642 114.55 -12.9688
21.2867 131.192 -10.5593
-19.9147 90.692 -3.33354
-20.538 91.3106 -8.78998
-17.0836 92.9139 -1.02564
7.07853 114.583 4.50523
-11.2877 100.698 -11.3956
-12.191 96.544 3.87536
-13.4439 95.66 2.49404
3.69657 115.19 -12.6462
21.5857 130.281 -4.1759
11.1814 122.684 -14.2199
4.16981 115.739 -12.6982
13.1919 121.452 0.317351
-17.0135 95.4115 -11.0682
17.3216 124.883 2.89928
23.0929 131.533 -2.56105
-23.5453 88.1047 -5.78931
-15.0725 94.6289 1.09679
-4.2662 103.784 6.02866
-12.0186 100.301 -11.6347
-7.47902 104.967 -13.2635
-1.41607 110.819 -13.7062
18.9482 126.235 4.07948
13.9462 125.368 -13.518
5.208 112.784 6.45696
0.779105 108.457 7.26439
-3.45093 104.712 6.15069
-14.801 97.8079 -11.4183
15.7628 126.18 -8.81588
25.9652 135.804 -8.66411
19.4414 130.211 -11.2224
22.51 132.892 -10.0681
-22.5095 90.0649 -8.83122
16.1065 127.303 -11.9854
16.5046 126.341 -5.55751
26.7895 135.836 -4.44174
13.738 124.914 -10.9381
-19.7758 92.9891 -9.95793
27.4196 136.883 -6.3842
26.6891 136.667 -8.49425
25.1954 135.269 -8.40203
-7.39717 101.148 6.70157
22.7982 131.738 -2.40788
-23.703 88.7174 -6.75802
5.26006 117.561 -13.2941
22.7338 133.379 -9.92815
22.3933 133.1 -10.0863
0.353406 113.14 -14.1761
17.9333 128.104 -6.46196
17.7853 127.657 -4.84631
4.21872 116.574 -12.8462
17.6445 128.17 -7.71946
15.8466 126.913 -9.74925
-4.02327 108.988 -13.7573
-2.90416 110.085 -13.9312
15.3213 124.093 1.02226
-1.8933 110.999 -13.6792
7.80153 116.549 3.04565
4.80123 112.935 6.71222
17.425 127.198 -3.91041
21.5527 132.523 -10.3974
14.5351 123.52 0.51266
16.1877 127.876 -12.1107
-14.6851 98.5167 -11.3946
16.7716 127.866 -9.3983
-6.29915 102.675 6.30699
-15.6122 95.0204 1.06543
8.70908 121.107 -12.7508
-10.2069 102.833 -10.925
17.588 129.303 -11.4845
-20.3593 93.0369 -9.72311
17.4749 126.081 3.01175
-6.57369 102.594 6.42418
13.3222 125.322 -11.2384
16.7271 127.115 -4.5436
7.04856 115.902 4.91826
20.5132 130.293 -2.63721
-17.754 93.7484 -0.893291
10.909 123.787 -14.2803
1.38464 114.667 -13.6349
17.3253 129.284 -11.4421
-7.1237 106.57 -13.3627
0.194336 109.01 7.31669
-16.3029 94.8468 0.746256
14.7855 124.319 0.621016
-6.46994 102.975 6.38149
-18.2818 95.5688 -10.8186
15.9418 128.013 -11.0484
12.6528 125.6 -14.1591
-12.1627 101.524 -11.3739
9.40172 119.234 1.13983
21.8208 131.811 -2.41364
13.4708 126.208 -12.7492
-21.0114 92.8445 -9.36094
11.2634 124.458 -14.2225
8.77367 118.693 1.64137
10.5407 120.61 0.541621
20.6658 131.061 -3.35549
24.7373 134.707 -2.36332
20.6105 130.455 -0.575532
13.1814 126.391 -14.1951
-23.0077 90.9902 -8.83677
21.9997 132.117 -2.06999
13.348 126.348 -13.1286
12.5046 122.686 0.223646
6.61058 119.93 -12.5991
6.58799 119.964 -12.5766
20.6103 131.169 -2.99383
22.4101 132.581 -1.54106
-12.9398 101.34 -11.7115
12.1442 122.617 0.174266
-6.68051 103.444 6.49075
1.58857 115.566 -13.219
-16.7753 95.1979 0.722343
17.8782 127.241 4.17546
18.0945 130.781 -11.0441
7.41969 117.324 4.4329
-9.89375 100.551 6.47689
-10.0499 104.52 -12.3536
15.1785 128.243 -11.6205
0.390747 114.771 -13.98
-5.34187 105.076 6.26511
0.461339 114.973 -13.9555
16.9795 130.05 -11.3021
7.66976 121.373 -11.8465
20.387 131.135 -1.37149
-14.2574 97.3965 3.0972
3.72238 117.959 -12.7348
17.2097 129.047 -4.97186
-15.4813 99.4976 -11.3176
-23.4889 90.7437 -5.67108
-11.8498 99.3916 5.21674
-5.66451 105.089 6.31027
17.6915 129.922 -6.15856
-13.8535 101.315 -11.8383
3.52299 117.977 -12.6397
-20.987 94.2306 -9.93419
-22.8142 91.38 -4.76143
4.60711 119.057 -12.652
16.5228 129.253 -7.65453
13.5589 127.394 -11.9765
17.0834 128.955 -3.7884
13.5336 127.546 -12.719
12.2221 126.642 -14.2588
23.0596 134.219 -1.74834
-1.72789 108.851 7.08285
-12.3689 102.812 -11.2844
-13.4783 98.5096 3.96807
17.2336 129.658 -5.58977
-12.5126 99.3012 4.83876
13.6993 127.877 -12.4391
26.0442 137.707 -3.70626
-21.1878 94.3811 -9.91481
22.3102 135.409 -9.26529
-2.14262 113.146 -13.1228
16.5624 129.281 -5.83197
17.7083 130.752 -7.54868
-12.1656 99.7259 5.15383
-23.4957 91.7573 -7.31285
-0.944209 110.037 7.12395
9.06219 120.745 1.49537
-10.6452 105.185 -12.6334
23.0255 134.709 -1.85791
-23.5289 92.0839 -8.43075
22.073 135.44 -9.29071
17.2504 130.839 -9.066
15.3752 128.962 -8.57803
14.9967 128.707 -8.98578
-23.1496 92.0307 -6.24129
9.82952 121.723 0.762575
-16.1701 96.8849 1.89653
6.34295 117.302 6.31711
-6.0738 105.536 6.4381
6.28507 117.259 6.33833
-23.2461 92.1737 -6.65716
-5.70391 109.898 -11.734
11.8434 123.931 0.156124
14.5903 129.034 -11.3317
14.0906 128.453 -10.6956
8.90861 123.939 -12.3892
14.7535 128.798 -8.9922
-6.94928 108.821 -11.4447
-3.7643 107.917 6.58939
-6.02469 105.817 6.45237
-22.9979 92.6624 -6.83621
-5.60519 110.189 -11.6783
-11.9509 100.469 5.46689
3.98711 115.151 7.34834
-8.25183 107.719 -11.7022
-16.7204 99.5875 -11.0933
2.95549 118.537 -12.3265
9.07598 124.468 -12.9565
-10.9044 101.4 6.33112
-22.5799 93.7077 -9.07413
11.6306 124.123 0.191011
17.5444 132.197 -11.1394
26.9854 139.891 -5.34709
-8.61199 103.542 7.0116
23.8459 136.23 -1.98889
-8.70317 107.578 -11.6983
-23.5276 92.6707 -7.62126
15.6548 130.162 -9.16128
14.0979 129.384 -12.1344
17.6545 129.317 3.73786
-7.58188 108.806 -11.3845
25.1009 138.882 -7.45916
2.12745 118.208 -12.2351
14.4648 129.403 -9.97977
14.2359 129.182 -9.85556
14.8377 129.473 -8.43025
-8.13779 108.425 -11.4656
23.2154 136.074 -1.87094
17.1512 131.854 -8.65339
3.60142 115.538 7.5226
-7.84486 108.822 -11.3522
-1.73427 114.988 -13.0747
25.7613 139.01 -3.70779
-7.29801 105.422 6.91324
14.2392 129.12 -8.14173
15.6868 130.577 -8.3919
9.92703 123.173 0.630818
14.9764 130.523 -11.1009
14.2075 128.915 -7.01582
12.3309 128.715 -14.0878
15.8326 128.632 1.60737
15.2701 130.375 -8.74337
-19.85 95.4947 -1.16812
13.2744 129.443 -13.0575
26.4599 140.317 -5.43912
1.97811 114.263 7.92675
11.7582 128.311 -14.0987
9.43969 125.998 -13.5228
14.3213 129.536 -8.51175
20.9343 136.032 -9.52404
-11.2404 102.164 6.30241
17.9531 130.391 3.55951
-16.2414 101.399 -11.8222
9.90595 123.41 0.785713
-22.264 95.2286 -9.48095
10.2731 126.995 -13.7965
-0.22167 116.91 -13.0608
-2.19198 115.001 -12.8278
16.564 129.343 2.90418
15.1255 131.019 -10.9884
14.2962 129.58 -7.62113
-9.41736 103.943 7.12312
6.49786 122.845 -10.5191
16.2287 129.333 2.02594
-13.6909 100.506 4.43093
16.6661 131.672 -6.76684
20.7651 136.163 -9.57844
16.5237 129.506 2.84687
19.6191 135.256 -10.0259
25.4253 139.283 -2.96527
14.1739 130.521 -11.2233
14.6899 130.737 -9.62211
15.6041 131.671 -9.90253
-10.8523 103.063 6.70471
7.70942 121.09 4.74594
18.5937 131.86 2.58745
-16.4944 98.7915 2.0595
6.37858 123.197 -10.4138
-17.9477 97.6931 1.07865
3.96277 117.034 7.49666
22.991 137.053 -1.71918
-3.38464 114.413 -12.3275
24.5197 139.633 -6.84454
-4.56481 113.092 -11.1435
-23.1354 94.7392 -7.46515
-23.2373 94.9098 -8.51295
-20.6243 97.8007 -10.4039
-5.73333 111.975 -10.7407
-21.7859 95.6312 -5.40043
-15.7503 99.5955 2.86936
20.8206 136.905 -9.52438
-22.1774 96.3239 -9.6303
16.0755 130.024 1.9287
-17.5576 101.189 -11.5881
3.32648 121.067 -11.7325
17.4742 134.323 -10.8763
-4.37549 109.824 6.81311
4.74529 118.378 7.24063
7.35338 124.784 -10.8619
8.6398 126.411 -12.7126
2.08816 115.788 7.73386
0.554569 114.28 8.09055
-13.6093 105.133 -11.4717
2.20013 120.194 -11.9073
0.5374 114.282 8.08967
23.8724 139.821 -7.65007
4.41959 118.179 7.35618
-16.1917 99.7185 2.55775
-18.9356 97.6422 0.207052
16.5031 133.375 -9.89475
-23.2032 95.415 -7.90058
23.708 138.493 -1.84162
-15.5673 100.235 3.1858
13.2334 130.993 -12.8757
16.3617 132.968 -8.15857
17.1838 131.18 3.71386
3.06817 117.044 7.58343
-4.72386 109.936 6.80444
12.7708 127.946 0.144036
13.8382 131.496 -11.4227
21.2219 136.244 -1.11265
16.5661 133.693 -9.47653
13.7474 131.581 -11.7234
9.56796 124.619 2.1811
7.57703 125.708 -11.4887
-17.4985 101.99 -11.5178
3.57561 117.818 7.44702
6.72572 124.619 -10.0146
25.0913 140.495 -2.83761
-16.1679 103.419 -11.8334
11.1553 126.708 0.0208823
10.5531 129.082 -13.4824
22.8575 138.153 -1.54449
18.4199 133.184 2.12932
-16.9453 99.7649 1.9669
-0.890422 113.68 7.86394
-5.71491 109.363 6.72617
-10.7217 104.555 7.06492
15.76 133.523 -10.8484
25.3467 141.09 -3.73344
-6.17541 108.97 6.88123
16.2339 133.879 -10.1258
9.42943 124.748 2.57281
-5.89334 113.012 -10.0351
-21.7686 97.9576 -9.86353
0.121905 114.842 8.09825
-23.0299 96.3521 -7.42002
-3.46878 115.73 -11.3838
-18.4685 98.909 0.832168
24.3191 140.97 -6.23024
17.1891 132.121 3.69037
13.4747 132.118 -12.3399
-19.1702 98.5359 0.0658727
15.4211 133.403 -9.71177
13.3924 132.136 -12.5927
-0.0979007 114.887 8.1276
-20.5442 97.7803 -2.12835
21.0146 136.886 -0.976532
15.2574 133.084 -8.20892
-9.72464 110.171 -11.56
14.7816 132.491 -7.43348
-13.2872 103.213 5.12389
-21.5923 97.3853 -4.16585
5.5045 124.271 -9.88461
13.1023 129.31 0.18813
-0.0596518 119.598 -12.262
-15.9874 101.21 3.07278
18.7177 134.264 2.17947
13.8417 132.399 -10.4133
-4.92362 110.943 6.84592
-5.8129 113.731 -9.8047
19.2084 134.926 1.78912
-20.2015 98.2809 -1.18466
-12.9744 103.722 5.43522
-12.3544 108.022 -11.5786
-17.8516 100.024 1.35671
9.50244 125.612 2.7541
23.2826 140.922 -7.59228
21.086 139.252 -9.14762
14.9586 133.142 -7.59285
7.1398 126.464 -10.6503
11.9179 128.698 0.0351903
14.1016 130.704 0.49797
-16.8864 101.04 2.44366
1.24819 117.237 7.16191
22.5494 139.264 -1.37893
-6.37005 110.064 7.07021
-21.4769 99.4718 -9.93719
-7.58165 112.666 -10.131
9.71732 129.629 -12.8437
14.0814 133.005 -9.34685
20.9322 137.669 -0.715232
7.36333 127.121 -11.122
22.3064 140.647 -8.16651
7.25124 123.343 5.9982
-5.56201 114.655 -9.64538
15.5755 134.413 -8.4476
-19.7414 99.2984 -0.564485
-20.9041 98.5749 -2.28538
5.37905 121.436 6.97148
23.9712 140.97 -1.83221
-21.4383 99.7969 -9.88822
8.1678 124.584 5.05123
-22.801 98.2144 -8.25627
16.3258 135.128 -7.68753
20.9486 139.792 -8.97549
14.4387 131.639 0.762278
10.5023 130.917 -12.9976
-6.33221 110.651 7.15773
4.60188 124.71 -9.81466
-10.0544 111.189 -11.4199
13.6467 131.091 0.325698
-13.3926 104.464 5.11501
8.83749 125.7 4.20865
-22.5949 98.7872 -8.37216
15.5263 134.867 -8.28901
-17.7366 101.277 1.55873
-20.9697 99.0578 -2.10402
-2.41533 114.439 7.92083
-0.769198 120.264 -11.6127
-6.23896 114.623 -9.26128
-17.3648 104.604 -11.4517
-20.8469 101.053 -9.99939
24.0907 141.822 -1.74306
1.50371 118.675 6.67352
-3.11088 118.045 -10.4278
-5.57721 115.496 -9.24122
-17.8564 101.616 1.37326
10.6359 128.717 0.757131
0.681795 118.005 6.95062
15.3555 135.112 -7.82292
24.1745 143.013 -5.63159
8.37202 125.807 4.91913
5.38163 122.58 6.82009
23.5746 142.655 -6.31636
-9.93318 111.999 -11.0862
9.40785 127.17 3.33581
-16.5048 102.766 2.86204
18.285 138.334 -9.27342
22.8684 140.969 -1.36244
-9.21731 112.63 -10.6472
10.1744 128.386 1.34314
17.4868 137.728 -9.61485
-22.5831 99.237 -6.91749
13.168 134.15 -11.8426
-10.053 108.002 7.74441
9.48856 130.882 -12.319
-18.3515 101.695 0.835649
15.2309 133.314 1.5897
-6.53423 111.462 7.39016
4.66236 122.199 6.85858
23.2401 141.6 -1.41565
17.2125 134.902 3.34697
15.667 136.012 -8.39351
17.3746 135.205 3.22598
21.5488 140.037 -0.819036
17.667 135.572 3.02316
-9.25501 109.189 7.56916
15.8255 136.599 -9.33296
3.66928 125.246 -9.8845
-21.3837 100.021 -2.85419
-8.37807 113.863 -9.86957
12.0813 133.892 -12.8796
-16.9949 105.949 -10.7824
23.2134 143.027 -6.3069
-0.798054 117.327 7.41773
13.1686 134.78 -11.8948
-11.6859 107.178 6.94858
22.2683 141.121 -1.07445
11.8418 131.029 -0.0126658
2.94999 121.144 6.74987
18.9622 137.656 0.94938
13.1513 132.333 0.254534
7.37194 125.664 5.84409
3.20229 121.591 6.75127
-20.4143 101.041 -1.45802
-18.53 102.41 0.504594
16.9865 135.411 3.43551
6.41792 128.231 -9.52153
18.885 137.768 0.960371
-0.085528 122.422 -10.9668
-21.5345 100.555 -3.32398
12.3316 134.647 -12.7134
-15.2453 108.093 -10.4962
11.426 133.795 -12.5479
16.7365 137.752 -7.58383
21.6625 142.437 -7.38819
5.1548 123.831 6.73489
23.9577 144.288 -4.97449
-19.2375 102.393 -0.261951
16.7602 138.025 -7.25479
-1.29433 121.665 -10.4765
-2.14848 120.806 -10.0776
17.8545 137.183 1.82323
-0.739664 118.428 7.1745
3.07952 122.198 6.5583
-2.02715 117.117 7.7609
-19.7181 104.276 -10.1647
8.95232 131.787 -11.8771
-7.63738 115.478 -9.06105
-0.695205 118.528 7.15025
-13.1795 110.796 -11.3137
18.8885 140.521 -8.25118
14.2591 136.846 -11.3002
19.4591 141.048 -7.80939
4.78206 124.027 6.65109
12.6528 135.72 -12.5639
22.2043 142.264 -0.756118
-10.6658 109.348 7.63648
-6.87485 116.467 -8.54382
3.32913 122.879 6.50228
21.1589 141.199 -0.0759464
22.0638 142.233 -0.686285
-22.4758 101.799 -8.56679
23.4583 143.974 -2.48789
11.4271 134.673 -12.0669
-19.9556 104.412 -9.42092
18.763 138.889 0.775376
-2.29969 121.235 -9.61307
-19.8939 104.58 -9.50804
9.62715 129.91 2.48869
14.9863 137.066 -6.88676
-12.4533 112.051 -11.124
-8.01495 115.792 -9.00339
-11.4681 108.923 7.74916
17.4858 139.667 -7.46791
-8.54837 115.435 -9.22262
-0.543042 123.176 -9.96283
-0.904454 119.102 7.26395
-4.26625 119.322 -8.3366
-14.8405 106.568 4.43041
-17.6547 104.439 2.01288
-14.8036 106.618 4.46238
-16.8914 107.96 -10.6435
15.4765 137.681 -6.44204
-0.0391462 123.856 -10.064
-14.6836 110.153 -10.774
5.10035 125.051 6.86579
-22.1388 102.626 -8.51337
6.72232 130.392 -10.5051
6.86437 130.622 -10.8882
-4.4205 119.412 -8.20969
19.2388 139.893 0.579881
-9.57248 111.222 7.2317
6.27813 129.842 -9.33409
19.1555 139.873 0.594861
0.36993 120.78 6.6931
-10.3051 114.384 -10.3178
-18.0544 107.152 -10.701
-13.7381 107.668 5.72821
18.5347 141.214 -7.81806
1.88512 122.519 5.99178
14.7775 135.688 1.58883
-6.51917 117.673 -8.07484
0.749735 125.123 -10.1467
-19.3424 106.158 -10.3654
19.2445 142.046 -7.13153
7.97738 132.216 -10.9405
1.2576 125.659 -9.92324
-22.6639 102.388 -6.89179
12.5042 134.182 0.0508372
-20.0125 105.353 -8.7699
-2.85244 121.584 -8.55725
2.13613 123.141 6.00302
-20.115 103.734 -1.48137
20.3692 143.167 -6.46219
-15.2128 110.487 -10.8763
14.5202 136 1.22093
23.0298 144.905 -2.68666
15.1335 138.569 -7.89656
11.931 136.512 -12.0845
-6.23089 118.405 -7.84624
9.98691 134.536 -11.357
15.1231 138.734 -8.29262
-18.8026 107.143 -10.5371
6.52378 131.098 -10.4348
-2.42473 122.376 -8.59345
9.62886 134.372 -11.2918
-21.3092 103.668 -4.58984
4.31797 128.726 -8.23532
8.45434 129.788 5.10152
14.8791 136.647 1.58036
6.39371 131.268 -10.2549
-6.7342 118.337 -7.89291
-18.2638 105.515 0.982885
-3.96914 117.575 7.94771
-3.92511 121.047 -7.8191
20.2378 142.087 0.709942
2.54121 127.499 -9.06315
21.2078 143.16 0.287083
10.5974 135.696 -11.4787
-5.8237 119.322 -7.55298
-15.529 107.62 4.08916
16.8581 140.454 -5.95269
-13.2137 109.232 6.81166
14.2365 136.536 0.803066
11.1983 136.407 -11.758
1.45922 123.508 5.7857
2.92414 124.813 6.21569
13.7681 138.473 -9.35642
-11.5826 110.783 7.78009
-22.2818 103.6 -5.70228
6.65036 132.077 -10.3682
-7.92758 117.966 -8.52157
-22.3412 103.955 -6.79506
0.966898 123.306 5.6705
-21.9977 104.541 -7.91492
-12.6182 114.042 -10.7061
14.7326 139.201 -7.30857
3.28272 128.725 -8.39277
20.3815 143.031 0.780691
-6.39973 119.509 -7.5892
17.0604 139.446 2.84786
7.26343 133.063 -10.2988
21.7846 145.721 -5.14271
9.25251 135.096 -10.7995
-20.4226 106.469 -8.25565
-19.0874 106.154 -0.747826
0.762483 126.762 -9.03517
17.6151 142.189 -6.36588
0.124872 126.185 -8.86489
-20.5047 105.413 -2.8684
17.7162 140.61 1.64546
-7.79579 115.275 7.26016
16.3277 140.859 -5.29616
-3.14362 122.995 -7.49827
-18.3879 109.313 -10.7873
12.4935 138.728 -11.5467
-5.21234 117.855 7.558
-2.71076 120.158 7.92674
17.6706 140.874 1.56133
16.9569 141.727 -5.36388
-18.1162 107.391 -0.047926
12.8497 136.665 0.355987
-19.1787 106.821 -1.7642
-0.302931 122.89 6.6631
14.7186 138.273 1.31119
13.8852 137.676 0.457115
-3.96167 119.212 7.70838
-11.4468 112.126 8.05668
10.1978 136.806 -11.1317
22.101 146.598 -4.27586
-15.7237 109.245 2.95235
-15.8056 109.325 2.45959
-21.5528 105.733 -5.89882
22.5447 146.998 -3.73165
21.3185 145.072 -0.00410042
0.436773 127.216 -8.57593
-20.1864 106.578 -3.39829
-6.36143 117.328 7.48107
-0.255781 126.541 -8.27869
-2.0543 124.794 -7.85846
-7.68527 116.152 7.39617
5.55209 128.835 6.89669
-18.3818 108.074 -1.54142
0.595385 127.582 -8.58385
7.18694 130.725 5.925
-19.9171 107.156 -3.49525
-18.515 108.17 -1.98062
20.7127 144.85 0.546025
-6.60858 120.779 -7.52611
6.4999 133.709 -9.81839
-3.03665 124.154 -7.21234
1.03573 125.215 5.6615
10.5579 135.211 1.13352
-9.31359 118.719 -8.86249
-1.37409 125.987 -7.7265
10.6228 138.183 -11.3402
10.7067 138.277 -11.3891
-5.14001 119.234 7.43277
-0.382179 124.002 6.34118
18.7102 144.705 -5.72559
13.0585 140.083 -9.00089
-12.9593 111.992 7.03322
3.27424 127.402 6.85288
6.09896 133.688 -9.75256
-4.29026 123.227 -6.81074
8.43949 133.132 3.3343
3.18003 130.549 -7.53303
-9.21012 119.224 -8.53221
8.44244 133.324 3.63799
-19.1033 108.616 -2.345
0.511425 128.503 -8.26275
13.3814 140.765 -8.64127
-9.98705 115.054 8.1749
1.54025 129.56 -7.99086
-12.4129 116.869 -10.1129
15.7286 142.416 -4.69939
-15.1265 111.396 3.68333
-7.03315 118.291 7.41044
-3.06351 121.994 7.77228
-9.694 115.663 8.11463
7.8109 132.722 5.91953
14.5597 141.535 -5.09183
-18.9809 110.981 -10.4268
-6.09427 119.308 7.48777
5.63128 134.091 -9.42157
-18.6696 111.375 -10.5088
-7.32081 121.551 -7.72141
-8.94553 116.675 7.78865
-11.4421 118.175 -9.81123
-10.3549 115.255 8.51591
-14.1699 112.402 5.16642
-2.39889 122.954 7.95813
19.6216 145.339 0.884479
-19.8744 108.773 -2.75847
-1.53526 123.968 7.2251
-8.08276 121.078 -7.88058
2.16951 130.736 -7.53369
-13.1561 113.096 7.00697
-19.8999 108.885 -2.68553
8.91357 137.798 -10.2038
7.70872 136.653 -10.0899
-18.2911 112.149 -10.517
-20.7717 109.396 -8.52292
-19.4936 110.924 -9.98761
-18.0623 112.413 -10.5662
8.18203 137.259 -10.0889
-14.8289 112.449 4.04092
-1.2095 127.736 -6.95724
19.4986 145.646 0.892111
12.1725 141.004 -9.56763
16.3338 142.413 2.16289
5.92305 135.144 -9.66657
-21.3299 109.043 -8.16965
-19.8554 109.24 -2.33159
-16.7139 111.514 0.963389
-18.0993 112.708 -10.4848
-6.70361 119.591 7.5098
12.5959 139.402 0.39306
5.08221 130.917 6.96028
20.9849 147.921 -1.98908
-17.7773 110.794 0.222223
-14.283 113.232 4.32283
15.5493 141.905 2.33125
8.27815 137.729 -10.0461
16.3865 142.863 1.97163
-13.0585 117.68 -10.3327
7.00268 133.18 6.2388
-6.41967 120.274 7.56823
19.4137 147.236 -3.95018
-18.7061 110.429 -0.55561
-21.9381 108.409 -5.21285
7.99379 137.804 -9.98827
5.21989 131.576 6.79179
-13.0726 114.246 7.06013
-21.3969 109.689 -8.09484
9.07095 138.996 -10.231
19.6617 147.717 -3.94224
10.3399 137.758 1.36239
12.7914 142.36 -8.95936
-11.1384 115.964 8.52813
2.46001 132.234 -7.10509
10.8763 141.021 -10.744
-7.00898 123.487 -7.68669
16.7143 145.119 -3.79127
-15.1905 113.599 2.33418
2.19204 129.224 6.55618
-13.1342 114.754 6.73175
-9.10617 121.803 -8.14862
19.8719 147.532 -0.355179
12.7906 140.78 0.334211
16.0951 143.611 1.81727
19.6537 148.214 -3.81305
-2.15006 125.206 7.15558
8.07037 135.321 5.27791
14.7739 142.427 1.89511
-13.8015 117.978 -10.0328
-8.09567 122.957 -8.03308
7.97399 135.338 5.23094
16.9263 144.571 1.749
19.5222 147.435 -0.0135606
13.1461 143.162 -8.09882
-1.10569 129.358 -6.62891
-12.1311 115.733 8.14085
2.49877 129.973 6.34027
-17.6491 112.188 0.526177
14.5027 143.825 -4.86762
-5.58123 125.188 -6.45323
16.5212 144.35 1.78765
-14.9736 114.248 3.16753
8.82958 136.749 3.5015
1.4536 129.239 6.29412
19.4914 147.752 -0.230785
9.68788 138 1.95837
16.7711 145.81 -3.07028
5.80153 136.864 -8.97149
-14.0345 118.367 -9.96162
12.4038 141.126 0.511529
-6.68215 124.747 -7.16153
10.7622 139.371 1.53476
8.71134 137.256 2.90466
11.0121 142.33 -9.96766
-12.3051 120.136 -9.37439
-0.505692 130.749 -6.74556
-22.019 110.156 -5.60266
-4.36342 126.933 -5.89413
-4.45139 126.869 -5.89365
-12.2348 116.503 8.12648
-5.12727 123.238 8.12901
-2.24418 126.56 5.5036
-21.1105 110.531 -2.70899
4.92593 136.362 -8.07212
-4.37251 124.228 7.35023
-2.62306 126.242 6.27514
15.1309 143.971 2.24835
10.1075 141.901 -9.96767
-15.2732 114.881 3.87486
-2.39322 129.307 -5.78992
6.03271 138.06 -9.31366
12.3388 143.792 -7.86555
5.66938 137.716 -8.8495
-9.79635 119.23 9.01586
-15.308 118.293 -9.56805
-12.1818 117.53 7.82653
18.2137 147.697 1.38906
-13.8679 116.368 6.20207
4.44171 136.702 -7.61114
-12.8159 120.777 -9.42607
-14.9315 118.888 -9.69534
4.79818 134.349 5.50887
13.9201 143.891 1.6107
16.4849 146.241 2.05458
4.3733 136.908 -7.56258
-17.8844 114.088 0.691175
-1.35874 128.763 5.44974
-20.3342 113.853 -8.54797
-15.1609 115.784 5.11902
-2.95602 127.247 5.61252
17.6667 148.62 -2.86596
8.47364 138.532 3.67597
-16.5997 114.991 3.01938
-19.028 113.407 -0.161614
17.9854 149.126 -2.96844
0.805422 133.451 -5.55788
15.4158 146.669 -2.68773
-2.76742 127.816 4.97256
14.5766 144.838 2.18368
-9.80627 120.347 8.78151
-3.83616 129.107 -5.38683
-9.62445 120.558 8.74354
8.82031 139.298 2.83895
4.72134 137.767 -7.76102
2.70852 133.011 5.53955
-17.6858 117.001 -9.57972
-3.09427 127.539 5.58637
-21.2089 113.299 -7.50289
7.91175 138.076 5.42661
2.00556 132.604 5.1325
-11.2362 122.945 -7.90648
-21.7213 112.319 -4.37131
8.01578 138.343 5.37414
1.42473 132.19 5.02646
-7.37528 123.162 8.24818
3.99794 134.57 5.41851
17.0743 147.744 1.75918
7.27195 137.632 5.6393
4.19645 137.567 -7.40025
12.1223 145.241 -7.47715
-20.537 113.056 -1.35427
-5.75806 128.129 -6.31652
-1.20378 129.999 5.00279
-21.7778 112.599 -4.50484
-5.64762 128.256 -6.2602
11.6259 143.096 0.967449
-21.2493 112.745 -2.2654
-1.05505 132.568 -5.4006
11.0781 144.662 -8.1721
10.9005 144.545 -8.37822
-6.8048 124.389 7.53044
-7.32826 127.103 -6.83609
-7.76364 126.84 -7.11967
17.8779 149.695 -0.206297
6.11091 140.433 -8.72872
-9.8793 125.218 -8.08391
16.8682 148.478 1.50543
-7.71665 123.754 8.3264
7.48565 138.837 5.40527
14.869 147.622 -2.74698
6.44769 141.004 -8.94943
-21.9775 113.374 -5.36089
16.7728 148.573 1.4588
-7.84885 123.794 8.27292
-9.9543 125.446 -8.17024
8.79101 140.834 2.70617
-4.41973 127.519 6.58379
-16.139 116.889 4.47457
-3.54326 128.651 5.38611
-19.2135 116.981 -9.12822
-16.1617 116.928 4.4658
-18.8018 115.26 1.04779
-4.48811 130.278 -5.67672
14.3158 146.502 1.75331
-13.2112 122.808 -8.78631
11.4336 145.937 -7.54098
-8.08408 124.162 7.76967
3.83124 136.188 4.37725
-21.7402 114.007 -4.8812
-21.5532 114.526 -6.17989
-9.49835 122.851 8.20112
-5.32785 127.373 5.86405
-7.71505 125.005 6.45458
-15.0995 121.415 -8.97317
9.08984 144.365 -8.98929
9.69952 144.962 -8.84157
-14.3996 118.845 6.43129
10.2591 145.367 -8.21944
9.36477 144.703 -9.01029
5.66741 140.99 -7.98921
-1.80208 131.247 4.63326
-4.85212 128.064 6.04508
-8.69656 124.05 7.92921
15.609 149.169 -1.81344
0.00911102 133.114 4.51045
5.15816 137.907 5.09456
-10.5662 125.983 -8.48933
-20.9154 115.902 -7.13163
16.1536 149.939 -2.23666
14.9999 147.961 1.8924
11.6053 144.951 1.05902
14.4211 147.511 1.67661
-20.3507 116.097 -5.1417
10.7939 144.283 1.13594
16.1497 150.129 -2.19742
11.0634 144.66 1.12612
-16.0309 118.16 5.48384
7.01868 143.04 -8.43874
-16.1961 121.153 -8.52482
9.50549 145.51 -8.51477
0.102815 135.801 -4.65912
3.11126 138.998 -6.16658
-10.7757 123.173 6.44286
6.15329 142.314 -7.85379
-14.2244 123.314 -9.12916
-13.5452 123.812 -8.44909
14.9754 148.665 1.68409
8.2422 141.671 4.59726
-16.9131 120.769 -8.64319
3.61986 137.406 4.27998
-13.3511 120.738 7.15165
-20.1312 116.457 -1.90207
-5.74088 131.016 -6.21616
14.6965 148.673 1.6864
4.70785 138.531 4.93801
-18.0585 119.378 -6.0382
16.4531 150.698 0.237966
9.27937 145.816 -8.39686
-3.88625 130.648 4.29298
6.43658 140.188 5.36614
16.2859 150.805 -0.576225
-18.4737 118.335 -2.44959
-11.7425 122.896 5.97755
-19.1601 119.088 -8.73194
-18.7325 118.417 -3.73347
-9.1033 125.206 6.96963
0.670709 135.064 4.19276
-7.36159 127.079 5.99285
5.65966 142.361 -7.3715
10.5556 145.178 1.27667
-9.04555 128.546 -7.51141
-20.2434 117.727 -6.23328
2.14206 136.596 4.62622
-4.71295 130.084 4.90861
-11.7397 123.278 5.69972
-19.0909 118.442 -3.86405
-15.4276 120.019 4.89394
-18.7878 119.221 -5.95257
-18.3924 119.275 -3.95556
-20.1488 118.452 -7.66933
10.7327 145.735 1.27356
-18.5541 118.697 -1.76884
-14.097 121.165 6.71471
-18.0499 120.056 -5.37398
-12.4578 126.016 -8.43998
-18.7528 120.088 -8.53718
7.37669 141.89 5.31363
-15.0793 120.666 5.42406
-19.4678 118.939 -5.7286
-13.3754 121.994 6.85525
10.89 148.017 -7.07721
-19.3111 118.697 -3.67155
13.294 148.418 1.70785
8.07787 142.881 4.47935
15.2426 150.91 -0.930208
-19.8013 117.418 0.809788
4.36703 139.37 5.33099
12.1463 148.937 -4.74936
-13.7395 121.902 6.94163
-15.6183 120.6 4.78538
7.94369 142.888 4.9035
-17.6043 120.608 -3.59203
-20.1096 117.502 0.170073
3.10714 140.728 -5.55151
-18.461 120.873 -8.04234
-17.6344 121.12 -5.4095
-0.103023 135.752 3.75603
-19.9889 117.82 -0.0213206
-17.4633 121.127 -4.00296
-12.3515 127.018 -8.79218
-2.20121 135.665 -4.36193
-14.5336 124.92 -8.52387
-18.3479 119.827 -1.644
7.99933 143.443 4.43121
11.0066 146.975 1.38273
12.9896 148.85 1.57147
-4.63707 133.757 -5.46006
-18.2873 120.513 -3.95849
-6.96866 129.246 5.15189
-5.36457 133.133 -5.74084
-17.8804 120.853 -3.72346
8.37577 144.187 3.31937
13.0758 149.121 1.49611
-13.06 123.413 6.02292
-0.202606 137.85 -4.27279
-20.161 118.856 -3.50678
-18.1602 121.43 -6.53676
-1.87627 136.336 -4.21679
-1.52389 136.682 -4.13544
-17.9514 120.611 -1.5566
-17.5897 121.217 -2.71265
-5.60073 133.253 -5.84164
-16.3262 120.95 4.18961
-17.7447 121.756 -5.6186
-18.6356 120.51 -3.6648
6.92206 142.749 5.32386
-19.1996 119.378 -0.780239
-17.6335 121.488 -3.55666
-18.5343 120.365 -1.96519
6.44433 145.103 -6.85874
-7.42848 129.396 5.08787
-18.8797 120.847 -5.12933
-16.7131 123.609 -8.37242
-18.8249 119.239 2.61821
-7.4446 129.547 4.79941
-7.49278 129.552 4.66527
7.89411 144.173 4.53622
-6.01528 131.096 4.1574
-17.2559 122.086 -3.16975
-1.03071 137.683 -4.12306
-19.8974 118.978 -0.189943
-10.6919 129.576 -8.7849
-18.195 120.69 -0.364157
-15.5238 125.09 -8.93315
-17.865 121.331 -1.77597
-3.23455 134.125 3.57801
3.84929 142.802 -5.45003
-17.2997 122.075 -2.00781
-18.4332 121.243 -2.94022
-10.4852 126.992 5.21689
12.3489 149.436 1.43926
-3.37145 134.112 3.5492
7.94023 147.188 -7.20927
-19.9654 120.227 -4.53196
-18.0916 122.436 -6.53343
-14.3425 126.412 -8.41355
-10.3863 130.253 -8.75992
-12.0013 128.934 -9.57577
-14.6472 123.086 5.93918
-17.045 122.631 -2.37295
-0.785358 138.393 -4.04508
-18.4394 120.995 -0.698157
8.71962 146.057 2.34134
-5.3858 134.488 -5.79011
-19.0432 121.227 -4.17295
-17.0219 122.932 -3.17748
-13.865 127.019 -8.20421
-18.2722 121.308 -1.03039
-16.7679 123.28 -3.53523
-18.0757 121.961 -3.12608
-12.0358 129.123 -9.59918
12.4216 150.621 -2.01201
-18.9738 120.417 0.327065
-1.76106 137.715 -3.95033
-19.4827 119.945 0.964778
-17.7838 122.976 -5.25144
-18.8649 121.677 -3.91667
0.92025 138.823 3.35762
-22.1109 118.889 -5.00977
-17.9569 122.449 -3.21934
-18.8661 121.056 -0.71198
-1.74783 137.973 -3.91853
-17.9065 121.153 3.13954
-18.2917 120.778 3.24282
10.0056 149.689 -6.49244
-19.5367 120.187 0.659893
-19.3691 120.584 -0.299336
11.8242 150.72 -2.9898
-19.2023 120.365 1.64991
-19.0886 120.605 1.0707
-14.9827 123.633 5.21341
-18.6102 122.158 -3.7333
-2.21113 137.825 -4.17679
12.3583 151.052 -1.49438
-18.7366 121.782 -2.18534
-24.224 116.881 -3.38889
-17.7699 123.705 -6.514
-18.068 121.915 0.655203
-21.593 119.808 -4.77052
-18.0747 121.91 0.892014
-16.5518 125.118 -6.86808
7.87308 145.746 4.6747
8.25577 146.495 3.23166
-19.1495 120.557 3.24983
5.80273 146.157 -5.86206
-17.3002 122.186 3.84023
-19.2121 121.163 0.272271
-12.1673 130.06 -9.71765
11.6878 150.232 1.49229
-0.146078 138.707 3.00624
-8.66265 133.024 -7.90868
-13.2134 129.106 -9.52756
-18.4906 122.965 -4.22644
-17.3031 124.63 -6.64572
-16.6218 124.565 -3.31436
-21.2052 118.997 2.49017
-18.2564 121.44 4.2686
12.1341 151.473 -1.38624
-7.44793 134.346 -7.42506
-16.9755 125.268 -6.99572
5.39489 143.809 5.14568
-0.149483 140.565 -4.02009
-15.8472 123.802 4.88758
-16.5842 124.891 -2.96173
-2.95273 136.46 3.16178
-19.866 120.224 4.23451
-16.7651 122.972 5.16378
7.19359 148.137 -6.29695
2.23919 143.033 -4.38836
-17.0517 125.164 -6.03604
-20.628 121.523 -4.78696
-17.8447 123.953 -3.83899
-20.1812 119.922 4.5717
-15.9345 126.417 -6.77368
10.5836 151.003 -4.30587
-7.18637 134.923 -7.44362
-13.6404 126.255 4.34184
-23.7569 118.396 -3.25577
-23.6467 118.534 -3.34514
-14.8538 124.86 5.84317
6.09747 144.837 5.24464
8.50481 149.58 -6.08695
-15.3023 127.321 -7.29435
-22.4212 119.981 -4.44117
-17.9455 122.235 5.08069
-20.3976 121.087 -0.275013
-13.3939 126.359 5.97604
-23.6956 118.606 -3.18989
-17.5425 124.4 -2.8962
-20.8249 121.676 -4.58056
1.12553 142.34 -4.02264
1.5002 142.728 -4.10578
-15.1071 127.743 -7.37551
-20.7234 119.979 3.97667
-15.3731 124.778 5.2784
-19.6657 121.377 2.31341
-15.7012 124.428 5.75705
-11.1344 128.858 5.32298
-15.8554 127.008 -6.69776
-17.1178 123.141 5.60131
-17.9417 122.789 3.73306
-23.2899 117.269 5.85298
-11.3268 128.672 5.49213
-13.1721 127.185 4.34167
-12.7988 127.323 5.83479
-9.27428 133.779 -8.37778
-19.5749 121.827 2.00724
10.0582 149.944 1.72004
-14.5107 129.026 -8.97983
1.66016 141.381 4.58344
12.6083 152.714 0.12175
-16.1623 126.469 -4.34499
10.6628 151.535 -2.82139
-20.9555 119.85 5.30416
-14.4093 128.767 -7.20777
-13.577 129.797 -8.07827
5.16727 146.906 -5.14696
-17.2457 123.164 6.5857
-14.722 125.945 4.99614
-22.9962 119.964 -3.35036
-6.71541 133.906 3.62903
-16.1648 127.017 -5.5869
-16.0754 126.781 -3.92758
-20.4111 121.439 1.82671
-21.1027 120.147 4.78998
-18.9215 122.105 5.29611
-17.1311 123.712 5.93594
8.90507 150.863 -5.59466
9.00433 150.967 -5.58934
-22.8472 120.354 -3.32793
-16.8694 125.784 -2.26321
-22.4402 119.433 2.8191
-20.4292 120.636 6.04756
-12.5777 128.119 5.84345
3.53354 145.68 -4.62
-21.0035 121.342 0.569076
-17.1356 123.886 5.81083
-18.5956 122.443 6.13619
-18.3387 122.739 6.00364
-20.3256 123.065 -3.88473
0.761661 143.034 -3.83985
-15.4634 128.24 -6.29527
-18.2273 123.05 5.62946
3.88367 146.231 -4.63294
-8.03996 133.035 4.30787
-21.192 120.725 3.92612
-20.9452 121.325 2.33007
10.6831 151.461 1.54558
-19.9672 121.74 5.12087
-16.5242 126.842 -3.35008
0.0505164 142.627 -3.75737
-18.1386 123.103 6.89835
-1.85377 140.927 -3.95611
-12.3374 132.008 -8.54155
-19.2784 122.068 7.14771
-23.2553 118.949 4.62856
-1.18566 140.258 2.74363
-20.8225 121.468 3.91887
-20.547 121.388 5.59874
-19.5132 124.397 -3.60874
-11.4818 133.042 -8.0509
-20.4489 121.611 5.59028
-21.4954 120.975 4.0488
-16.0362 127.818 -3.59816
0.27733 143.297 -3.73897
-2.79991 138.919 3.07326
-23.3624 120.689 -2.07368
-20.7754 121.41 5.95766
-19.1572 122.581 7.64882
-24.4805 117.932 6.02231
-16.5613 125.135 7.63203
-16.2044 125.426 8.21257
-23.6663 120.533 -1.66818
-25.3482 118.267 1.55065
-19.2 123.059 6.34806
-17.764 126.297 -2.24649
1.46939 144.915 -3.91696
-16.4772 127.863 -3.58476
-12.512 129.582 6.47647
-16.5754 128.069 -3.73032
-25.922 118.396 0.278194
-16.0855 128.501 -3.30331
-23.6859 119.041 7.23053
-18.0679 124.209 7.92552
-11.5722 130.771 6.12237
-20.5835 121.906 7.78707
-21.9841 121.1 5.42175
-16.2548 128.151 -2.00697
-21.321 121.269 7.61249
-16.6293 127.803 -1.54934
-25.726 119.039 -0.441182
11.0661 153.708 0.256283
-9.38075 133.317 5.06647
4.52844 148.619 -4.35319
-14.8756 127.724 7.32464
9.90523 153.048 -1.1948
-5.79973 137.512 2.34037
-5.89767 139.258 -6.07356
-13.7167 131.681 -5.20945
-2.78245 140.306 2.8279
-20.7093 124.56 -2.56978
-2.43055 142.21 -3.94748
-22.7273 122.618 -2.08861
-1.37477 141.825 2.65236
-2.38858 142.482 -3.90955
-24.4866 120.962 -0.846533
-3.84552 141.349 -4.66809
-15.9305 129.517 -2.33427
-21.6144 124.188 -2.53481
-21.5634 121.856 8.4256
-1.00161 142.542 2.86959
-12.1549 134.038 -6.25567
-7.86916 135.963 3.6493
-22.1796 123.686 -2.16536
-25.3584 120.374 -0.452292
-19.5124 126.641 -3.32285
-7.20638 136.942 2.89115
-15.9057 127.702 7.77616
-4.26739 139.842 2.74844
-26.6363 119.229 0.230911
-2.62388 141.446 2.56742
-12.5211 133.883 -5.70576
-20.9707 125.352 -3.20052
-16.6743 129.041 -1.43029
-1.74604 142.337 2.41829
-17.6758 128.703 -4.15228
-10.9043 132.867 6.18226
-2.59266 142.932 -3.92273
-15.7117 130.435 -3.40344
-18.9469 124.993 7.55418
-15.5813 130.689 -3.93466
-6.96881 137.449 2.59722
-0.0191004 145.381 -3.46336
10.2349 154.241 0.663577
-10.4897 136.453 -7.72142
-14.1728 129.891 6.43372
-4.23351 140.098 2.81457
-16.6632 127.36 7.93016
-10.8067 136.361 -7.4894
-17.2751 126.931 8.04134
-22.4382 124.133 -1.45972
-16.9464 129.795 -3.44783
-6.9094 140.09 -7.0974
-21.5962 125.256 -2.00821
-27.128 119.343 1.46386
-2.49343 142.496 2.19818
-22.236 124.633 -1.51905
-1.58346 144.629 -3.50898
-8.36618 136.64 4.11925
-15.9942 130.7 -1.72795
-15.2522 131.723 -3.05165
-5.27751 139.952 2.60881
-26.7971 120.057 0.982788
-27.3351 119.149 3.00334
-19.3818 128.245 -3.96298
-19.2247 126.011 7.3027
-13.6786 131.339 6.987
-13.2082 134.445 -5.01478
-6.38843 141.225 -6.47364
-11.5706 136.415 -6.7795
-26.937 119.341 5.0096
-18.708 126.68 7.33545
-10.3062 137.755 -6.96976
8.70527 154.3 -0.172952
-20.2303 127.71 -3.77063
3.75703 150.525 -3.41827
5.00298 151.725 -3.46144
-25.9239 120.385 6.13697
-24.171 123.424 -0.204945
-15.9556 131.763 -2.70624
-11.2871 134.128 6.77756
-26.3795 121.152 0.926407
-7.58652 138.553 2.88697
-24.9578 122.77 0.134121
-24.4883 123.271 -0.0509939
-24.8638 120.969 8.93472
-7.25571 139.073 2.43958
-18.1647 127.704 7.41104
-11.225 134.49 6.76983
-9.93008 136.07 5.40389
-25.4318 120.766 8.74219
-5.83539 140.8 2.57925
4.22832 151.684 -3.36713
-26.4471 121.026 4.16387
-26.4775 120.542 6.45155
-4.24653 143.974 -4.49122
-9.69528 139.434 -7.22761
-9.92646 139.234 -7.1093
-26.0332 121.159 5.95575
-8.09127 141.021 -7.05296
-26.24 121.083 6.52258
-13.1416 135.96 -4.79132
0.771876 148.779 -3.13228
-25.3724 121.546 8.60479
-7.38832 141.864 -6.49749
-5.424 143.493 -5.40751
-9.90407 137.054 4.84886
-8.48388 138.707 4.00742
-19.6817 127.472 6.9798
-26.5207 121.953 2.70558
-9.4596 140.245 -7.14286
-21.7529 125.369 8.44884
-0.130539 148.351 -3.09132
-26.4964 121.19 7.17581
-15.5722 131.722 6.45925
7.86801 154.998 1.60267
5.99792 153.991 -1.68788
-25.3034 123.911 0.503633
-22.4369 127.304 -2.50343
-10.6529 136.426 6.86487
-10.2686 137.064 5.62902
-14.8547 134.441 -2.2607
-7.36038 140.563 2.33775
-23.8448 125.725 -0.992648
-9.61475 138.014 4.67877
-2.91208 146.15 -3.50479
-25.8533 123.312 1.73582
-19.14 130.627 -2.62497
-5.55135 144.081 -5.32048
-26.4252 122.5 3.09105
7.13009 154.888 0.532379
5.11434 153.746 -2.10781
-26.5321 122.313 4.75724
-25.8888 123.491 2.17485
-7.20133 141.176 2.18389
-22.0767 125.763 8.48958
-4.81834 143.602 2.01734
0.896352 150.115 -3.02402
-8.16286 142.421 -6.63584
-13.9882 136.061 -2.71189
-24.3642 125.79 -0.266277
-22.0008 128.538 -2.47901
-18.0094 132.486 -3.2379
-25.8803 122.943 7.1634
-10.3402 138.053 5.38311
-12.6065 135.608 6.88903
-21.0415 129.699 -2.37891
-22.7239 127.714 -0.385223
-5.38127 143.68 1.90828
-10.755 140.41 -6.35385
-22.3671 128.196 -0.645309
-10.1268 138.615 5.04002
-22.3448 128.237 -0.388785
-24.4809 125.986 0.820379
-14.3896 136.204 -2.24559
-5.0859 145.554 -4.72796
-25.2338 125.242 1.11753
3.15124 153.006 -3.03315
-14.477 136.398 -3.35702
-5.00037 144.282 1.77908
-7.06434 142.325 2.09794
-18.3087 132.885 -3.11014
-26.1157 123.722 5.07474
-14.9287 136.29 -3.86605
-0.971819 149.337 -2.88298
-16.9548 132.172 6.65753
-16.5625 132.523 6.79161
-23.8075 127.067 1.60349
-21.037 130.417 -1.60699
-24.0452 126.922 1.84286
-25.0449 125.952 2.41421
-25.1353 125.525 4.13772
-5.83045 145.961 -5.081
-25.0175 126.042 3.14421
-24.5615 126.734 2.63611
-4.61386 147.096 -4.10935
-18.5373 133.618 -2.55111
-2.91565 148.57 -3.21838
-0.330074 150.918 -2.76336
-24.4183 125.814 7.92441
-24.1857 127.158 2.79545
-23.784 127.55 2.75865
-18.3997 131.717 7.14646
-16.6174 133.412 7.10761
-3.36364 148.29 -3.36868
-7.31789 145.199 -5.94539
-5.10387 145.687 1.50029
-22.2123 128.252 7.6192
-21.8389 130.222 0.231761
-24.7195 126.46 5.06322
-17.107 133.26 7.02602
-23.5189 128.056 3.35962
-22.9063 128.953 1.97024
-24.1891 127.392 3.90504
-1.064 150.733 -2.67246
-23.0279 128.931 2.28326
-18.1011 134.495 -1.52731
-24.861 126.571 5.60732
-7.94279 143.19 2.99187
-20.8449 132.041 -1.54259
-7.55093 145.659 -5.88924
-14.2692 138.707 -3.04535
-21.8261 130.876 0.454133
-18.0359 133.026 7.19218
-8.66606 142.641 3.77443
-20.9962 132.202 -1.20154
-24.1624 127.865 5.13327
-5.38087 147.794 -4.41164
-23.5728 128.799 3.8945
-16.1243 134.974 7.99062
-13.8969 139.718 -4.03052
-10.7569 143.037 -5.36878
-13.4203 139.903 -2.09801
-13.5065 137.784 7.30299
-21.1632 130.727 6.7117
-21.669 130.269 6.95223
-17.8643 133.893 7.37234
1.59982 154.333 -1.73664
-13.4442 140.098 -1.71513
-5.08746 148.569 -3.98567
-13.8307 137.825 7.41977
-14.2422 139.833 -3.35202
-3.19964 150.181 -2.84887
-23.2128 128.992 7.70146
-14.817 137.03 7.73291
-19.4815 134.701 -1.69555
-23.9148 128.792 7.02209
-18.6031 135.642 -1.15511
-19.7638 132.736 7.6309
-13.3285 141.293 -3.67283
-15.665 136.614 8.09288
-15.3814 138.868 -0.685353
-20.159 132.566 7.51816
-18.7462 135.706 -0.378183
-6.96435 146.458 2.26789
-14.1647 140.276 -0.568377
-15.9865 136.689 8.11798
-19.2158 133.817 8.02222
-15.5567 137.371 7.75833
-23.4069 130.119 7.10117
-13.9952 141.242 -2.8988
-16.9043 138.077 -0.673285
-10.4529 142.772 5.97661
-23.2789 130.901 4.97317
-16.6184 136.505 8.28399
-24.0113 130.158 5.87403
-14.0219 141.005 -0.0163964
-13.5472 141.61 -0.332837
-12.8211 142.937 -3.24698
-21.6457 133.699 0.999236
-17.924 137.394 0.731596
-16.6843 138.776 -0.213148
-8.35053 146.235 3.27984
-22.5789 132.242 5.89024
-13.5204 140.401 7.90131
-13.4536 142.729 -2.36481
-8.23216 146.585 3.23331
-21.5168 134.209 3.15597
-3.08349 152.817 -2.19788
-22.1106 133 6.40231
-9.6546 147.452 -5.05549
-22.5883 132.541 7.36033
-15.0684 139.59 7.89906
-12.0938 144.977 -3.51901
-3.96552 152.496 -2.39766
-15.9348 140.6 0.527107
-12.2364 144.936 -3.27117
-13.9903 142.544 0.418922
-19.7912 136.492 3.39968
-13.092 144.016 -2.00117
-9.63528 145.902 4.47
-8.23015 147.656 3.08579
-14.8782 140.377 7.91748
-17.7036 137.741 8.06731
-13.4725 141.943 7.66059
-9.64232 146.278 4.4718
-21.5117 134.857 5.97353
-9.75532 148.295 -4.40471
-13.1156 144.437 -1.22909
-19.5321 136.415 7.76373
-21.5591 134.849 6.31939
-12.9532 144.465 -0.300493
-18.0427 137.912 8.0569
-12.9985 144.438 0.644306
-21.4207 135.484 5.58554
-11.6327 146.886 -3.23977
-19.0305 138.671 3.02543
-18.4211 139.434 2.21794
-8.07971 149.456 2.16102
-19.0344 138.869 3.69164
-17.5272 140.719 1.91036
-15.3816 141.848 7.63437
-10.0516 149.369 -3.33851
-19.374 138.451 6.73269
-9.11201 149.042 2.73558
-15.8889 142.847 1.82535
-9.73999 149.921 -3.04334
-9.73365 148.73 2.94825
-17.9522 139.966 7.55232
-19.2889 139.064 6.02386
-13.0646 146.399 -0.00581068
-18.1132 140.339 6.51851
-14.1831 144.009 6.86999
-12.8263 147.172 -0.391373
-13.6439 145.855 2.39788
-13.0284 145.768 5.65381
-16.749 142.85 2.90762
-11.6011 147.753 4.1982
-11.299 148.232 3.31288
-17.2862 142.493 3.70099
-16.9299 142.984 3.27449
-11.9686 147.408 4.78187
-16.7871 143.203 3.32324
-12.6816 147.841 -0.0445019
-8.47968 152.086 -1.12062
-16.0279 143.384 6.4555
-6.12006 154.322 -0.522363
-17.1588 142.496 5.88034
-10.8982 150.372 -1.5575
-8.15008 152.603 0.522881
-11.644 149.644 -0.78946
-10.1523 151.159 -1.18057
-13.0602 147.2 4.41952
-12.5785 148.412 1.34984
-11.3163 150.21 -0.727829
-13.9229 146.548 5.0666
-11.5984 149.389 2.43125
-12.6718 148.43 2.32022
-9.53076 151.916 0.412892
-13.1371 148.043 2.83003
-12.1711 149.375 1.50539
-11.0562 150.698 0.658358
-11.1648 150.808 0.430895
