ply
format ascii 1.0
comment Created by Open3D
element vertex 1948
property double x
property double y
property double z
end_header
-7.68336 98.3681 10.9999
-10.3306 96.4252 9.03711
-4.6283 100.756 13.0481
22.5054 107.815 6.10411
-14.1997 91.5457 1.86309
9.52943 104.624 9.70815
14.7258 104.351 5.09199
16.7185 110.937 16.7228
7.21789 98.8063 -0.368223
-12.2338 90.254 -2.48536
21.2326 111.969 15.2325
7.60508 104.348 10.4068
-0.143124 95.0044 -2.56673
-4.21242 101.357 13.3671
-0.752494 102.91 13.7849
11.3565 105.187 8.92252
-13.3814 92.8645 3.31011
-10.7599 96.5699 8.66324
20.9495 112.124 15.2447
13.1305 101.392 -0.648975
-2.77807 94.1936 -2.81382
-10.5684 97.0077 8.91291
24.1361 111.643 11.302
16.52 105.931 5.56975
15.7616 109.703 13.7246
-10.0445 91.2196 -3.50308
13.6422 102.137 0.023002
15.4046 111.092 16.6827
-0.106906 95.7183 -2.50806
13.6941 102.432 0.244138
6.13727 104.6 10.4266
-3.5522 94.1473 -3.11928
-14.7289 92.1496 1.43794
15.9986 111.638 16.7721
-5.42835 93.2083 -3.76959
7.83986 105.208 10.0637
16.3674 111.859 16.746
-8.40137 91.8197 -4.42213
-10.3038 97.8414 9.16808
16.9379 106.817 5.97419
0.120305 96.2616 -2.22879
5.09445 104.562 10.5925
-0.216328 95.9709 -2.62753
17.1537 107.856 7.80924
14.7439 110.535 15.0853
-11.2084 91.6004 -2.93845
-8.42648 99.4202 10.6027
22.0001 108.797 5.77763
6.14845 99.7577 -0.134617
11.055 101.398 -0.66985
14.351 103.685 1.36162
-10.0886 98.1834 9.29429
4.36229 98.9861 -0.349912
13.8086 105.155 4.73502
20.5511 106.393 1.83712
24.2371 112.761 11.7663
-12.5116 95.6855 5.91486
-10.3385 91.9791 -3.39467
-4.18296 102.833 13.6473
18.6324 112.853 16.0833
22.7908 113.18 13.4897
-13.5059 94.1778 3.42359
-8.75275 99.469 10.3693
-2.7337 103.627 14.0023
-1.84166 95.3897 -3.34013
8.90677 100.341 -1.73493
6.07514 100.055 -0.116832
20.427 113.167 15.1323
-10.8523 97.9665 8.72826
2.91224 98.3959 -1.23725
21.807 108.897 5.15946
-5.16486 102.431 13.0473
8.89059 100.569 -1.77004
15.2878 110.621 13.4106
6.88704 105.753 10.0426
18.6672 106.519 2.30526
-5.65051 94.1361 -3.77653
6.8174 100.632 -0.395049
11.2014 101.9 -1.2885
-6.1893 93.9142 -3.95813
12.1384 102.157 -1.61799
12.8538 103.261 0.0149339
12.9361 103.374 0.153341
17.1281 108.844 7.76159
14.1221 104.74 1.68962
16.9959 113.043 16.1718
-15.0958 93.185 1.08408
23.8685 112.657 9.86774
5.18446 105.919 10.7524
14.1722 106.387 4.6698
-0.970336 96.5284 -3.47912
15.9283 110.749 11.984
3.30689 99.0744 -1.76723
12.0338 106.899 7.20328
21.5183 109.378 4.80248
-2.99399 95.7438 -3.69289
13.932 104.924 1.62243
7.37554 106.535 9.9524
-0.253345 105.07 12.821
18.2961 107.146 2.5147
-15.066 93.3106 0.545088
8.03818 101.373 -1.19018
7.76449 106.821 9.976
12.7362 106.683 5.6738
8.00131 107.053 10.0086
16.487 113.382 16.0959
16.4027 106.494 2.15098
-6.56612 94.4478 -4.28982
4.5141 100.182 -1.37377
-3.94299 104.483 13.8682
17.032 106.993 2.45932
-15.0119 93.7701 0.629723
18.6607 107.645 2.38302
18.1416 107.543 2.54081
-15.0405 94.1178 1.30523
-13.1661 93.0335 -2.51964
18.8465 107.798 2.27913
-13.5559 96.5273 4.77074
11.9006 107.603 7.18887
5.64693 101.168 -0.927371
14.2544 112.171 14.5144
23.4737 112.225 7.43756
2.52239 99.2068 -2.66185
-8.48106 101.704 10.9359
1.43638 105.827 11.4784
-10.8906 93.7802 -3.22316
20.1375 114.84 15.0614
14.2919 112.563 14.9625
-14.4066 95.6031 3.08499
9.23998 102.248 -2.02713
4.63597 100.748 -1.52122
-13.8031 93.365 -2.086
19.9817 114.938 15.0904
15.1289 111.851 12.6162
0.105697 105.901 12.2935
-7.4128 94.5678 -4.71633
-11.6804 93.7511 -3.07549
9.80554 102.599 -2.0093
13.1555 105.572 1.3728
0.833089 98.3633 -3.59967
16.7526 108.997 5.43913
12.9736 107.175 4.63707
-13.7369 96.8977 4.7106
23.0842 112.327 7.08748
16.7021 111.48 10.3366
11.9137 108.029 7.08479
10.9372 108.663 9.12118
-13.3341 97.6142 5.67599
-10.5162 94.2062 -3.43132
22.0514 115.299 13.6104
18.215 114.753 15.4234
-3.63244 105.635 14.0219
7.99838 102.694 -1.04632
17.6618 108.269 2.61582
9.15882 108.721 10.1302
-8.93371 101.997 10.6417
-5.40996 104.707 13.3477
-10.1514 100.927 9.41194
-10.3793 100.755 9.20066
15.6669 114.187 15.9866
19.3212 115.238 15.2595
11.1643 103.362 -2.35823
18.6955 115.065 15.3557
-1.7843 97.5439 -4.08259
19.9661 115.398 14.9114
4.22998 100.924 -2.084
14.136 108.112 4.6151
1.2272 106.556 11.5082
-11.9558 99.5095 7.54668
20.7975 109.453 1.99918
16.7442 114.667 15.6539
6.74227 102.554 -1.02292
-2.18199 106.433 13.677
-10.0987 101.295 9.44828
0.850872 106.638 11.6012
14.4175 108.415 4.59972
19.1107 109.002 2.12278
2.00816 99.5767 -3.60355
20.8538 110.622 3.87892
12.9252 107.992 4.52949
11.0765 109.384 8.69376
-14.8229 96.2465 2.34757
13.0597 108.105 4.54137
23.6771 115.795 11.6802
5.86753 108.434 10.6444
-6.20402 104.84 12.6854
9.57288 103.847 -1.72286
11.9085 108.932 6.70928
-14.6471 96.7332 2.77721
21.848 112.46 6.0547
3.9377 107.975 10.9408
-14.2604 97.4767 3.85999
-2.04607 98.2755 -4.10484
-1.95489 107.05 13.5051
21.2238 112.116 5.50203
3.94267 101.384 -2.73851
23.2114 116.165 12.0621
12.373 108.611 5.25685
-4.79278 106.149 13.6475
23.3269 115.495 10.4175
1.20358 107.504 11.4534
23.0907 114.93 9.31661
20.7859 116.47 14.1698
20.1287 109.965 1.38076
16.7923 112.642 9.35737
22.9652 114.016 7.30546
15.1646 108.919 3.00069
-5.90987 105.797 13.1151
-3.36997 107.256 14.0647
-2.23784 98.719 -4.13083
10.1485 104.49 -2.25662
-8.08009 96.0356 -5.1185
12.0061 109.394 6.13167
1.77819 108.012 11.2718
14.8674 108.962 2.98168
11.7692 106.851 1.04222
-6.35131 96.8642 -5.04404
-5.2345 106.517 13.5148
10.0957 104.625 -2.27899
3.84269 108.714 10.8239
17.0344 112.525 8.16923
8.4868 104.427 -1.51761
-8.40489 104.082 10.8528
-13.8783 98.905 4.65612
15.3476 109.479 3.14357
13.6597 108.715 2.8088
0.501541 100.127 -4.39886
2.25789 101.086 -3.91819
-6.66059 97.0865 -5.09567
-10.4742 102.796 9.36889
12.4337 109.307 4.62804
11.7904 110.02 6.56058
3.44741 101.744 -3.64644
22.7503 114.387 6.74355
16.3152 113.739 10.3267
2.56519 108.809 11.0681
14.1117 114.724 14.0021
-0.166308 108.289 12.1252
12.2403 108.029 1.84899
11.9616 107.967 1.6519
-14.7572 97.6397 1.63303
22.8135 117.363 12.0298
-15.2322 96.9689 0.383893
2.00887 101.496 -3.98156
17.0063 112.413 6.29344
-12.6864 101.137 6.63919
-0.58907 108.685 12.4373
22.3703 117.617 12.4169
14.0867 115.292 14.0738
20.9971 117.712 13.5458
14.7153 115.942 14.8006
21.4208 116.498 10.5994
22.2255 115.539 8.01664
-14.3179 99.2524 3.56194
14.6385 110.284 3.23606
-7.78919 97.4347 -5.21781
14.5096 110.834 4.42622
20.1944 117.802 14.0393
-13.0689 101.072 6.17484
6.8158 110.846 10.3324
-2.1723 100.209 -4.18698
-10.5953 103.678 9.33368
21.7352 117.154 11.3299
16.6334 114.272 9.47587
-8.28122 97.3894 -5.21568
14.0385 115.748 14.2603
2.35517 102.253 -3.97867
-15.141 97.6596 0.375394
22.3313 115.03 6.20808
-10.5585 97.3048 -3.96401
7.69692 111.573 10.3927
20.029 118.139 14.0131
21.7602 117.654 11.4964
3.41066 110.179 10.7003
-6.94395 98.2834 -5.23227
10.7461 111.894 8.36474
7.22946 111.574 10.3422
12.916 110.14 2.93982
14.2445 116.311 14.3421
19.9872 112.736 2.53683
0.0685296 109.64 11.8067
-1.06615 109.667 12.7388
20.5712 118.454 13.5229
-9.32598 105.572 10.642
-11.4635 97.58 -3.82181
-1.45786 109.815 13.0374
17.0783 114.009 7.02952
15.395 111.285 2.79748
15.9127 111.201 2.18169
-14.4937 97.3009 -2.20288
-6.46529 108.061 13.2152
14.2236 116.544 14.1936
17.5876 111.345 1.07908
-4.48104 109.22 13.9785
1.2227 110.051 11.1828
4.39858 111.027 10.4562
19.9793 116.384 8.96845
4.48574 104.036 -3.94508
-14.9446 99.5458 2.05381
1.72596 103.005 -4.09464
3.13864 103.612 -4.10629
-7.75541 98.8909 -5.21075
14.4152 112.201 4.35195
15.7105 112.788 4.52
0.235262 102.328 -4.54793
16.9228 114.918 7.78389
16.5222 113.232 4.62615
17.7721 118.669 14.5961
10.063 108.737 0.561393
-3.14958 110.086 13.4635
10.7392 109.561 1.50614
18.038 111.953 0.597758
-6.65215 99.6837 -4.92396
-6.4034 99.8668 -4.79011
10.838 112.574 7.37753
21.0736 114.954 4.14009
20.1765 113.839 2.57077
20.5896 115.556 5.66713
-13.6562 101.458 3.88554
9.46205 107.493 -2.10448
14.4382 117.503 14.1003
16.7373 113.76 4.65955
20.8301 117.759 9.31458
10.5034 113.167 8.01791
20.519 116.261 6.42443
18.9974 112.762 0.511372
20.6781 117.138 7.98269
-4.82176 110.327 14.0954
7.97319 106.891 -2.8093
16.9715 114.734 5.82858
-13.8673 101.608 3.33096
-15.2771 100.239 1.55428
20.3402 114.599 2.69359
14.7664 118.295 14.4682
-14.4901 101.202 2.74447
-12.2384 104.187 6.98614
-15.4896 99.8616 0.773989
11.3108 112.727 5.83826
13.1874 112.68 4.26124
3.07138 111.929 10.623
19.4397 115.228 4.47204
-6.66656 100.583 -4.76199
9.34234 108.789 -0.724797
14.8137 118.466 14.4291
9.93655 113.989 9.14122
6.47395 113.264 10.3508
-15.1089 99.1563 -1.32808
19.2299 115.181 4.16471
6.35988 113.307 10.3528
-13.3019 99.0074 -3.25722
19.22 117.056 7.78721
19.1288 117.044 7.71465
0.85425 111.72 11.1857
9.23204 108.776 -1.28367
21.3184 117.709 7.31811
1.83257 104.462 -4.27123
13.8292 117.726 13.0301
-9.25126 99.9717 -4.87388
4.94039 113.061 10.4657
15.4449 114.01 4.19352
-12.1416 104.771 6.93295
3.00069 105.227 -3.96574
20.8929 119.877 11.5661
-13.3297 103.5 5.14052
-3.65052 102.274 -4.91045
9.07288 109.114 -1.12134
20.4104 120.057 12.0268
9.66641 110.548 1.17505
18.0839 113.597 0.691884
8.82969 114.879 10.4748
1.65873 104.79 -4.34429
13.8449 118.101 12.9765
-13.5728 103.385 4.61655
18.93 120.35 13.5113
11.4857 112.205 2.71565
-3.0097 111.608 12.8021
18.476 116.112 5.10528
7.1733 107.531 -3.51542
16.2572 113.112 0.61419
14.9382 114.285 3.98834
20.9745 119.562 9.88184
4.05142 113.395 10.5965
-7.37431 101.43 -4.65983
-12.4273 104.815 6.09035
-11.3294 99.967 -4.68143
21.3462 118.431 7.08824
19.6033 115.102 1.63679
20.4129 120.421 11.694
11.7629 112.799 2.94967
9.99895 111.567 1.79493
-15.4707 101.126 0.538893
8.15558 115.255 10.6058
4.52383 113.929 10.6677
14.4476 113.675 2.31967
4.53746 107.084 -3.30276
17.8625 116.313 4.89253
-0.150382 112.835 11.7625
-14.7503 100.405 -2.01741
15.1687 120.005 14.0178
11.8155 113.959 4.41059
-6.02017 102.685 -4.47234
6.83845 115.249 10.7864
8.45365 109.639 -1.84589
17.2952 114.065 0.182679
20.4471 119.731 9.09709
9.89606 115.817 9.31579
17.088 114.083 0.155725
-1.29338 104.903 -4.06005
17.3632 116.367 4.52059
13.9705 119.238 12.9046
-8.90626 101.651 -4.75914
21.7609 119.117 6.54294
-15.2367 101.066 -1.0626
20.2912 119.743 8.83142
10.048 112.552 2.29203
10.1498 112.651 2.39818
8.28477 110.982 0.371593
14.6802 114.183 1.65228
-6.23273 103.063 -4.49923
-9.46955 108.599 9.16061
-8.59138 109.952 11.2027
10.4192 113.089 2.66173
15.1843 120.502 13.8756
-5.36229 112.615 13.9119
-14.3721 100.98 -2.59768
10.3738 115.923 8.24694
20.0722 119.79 8.48562
-13.0657 104.993 4.43293
-1.3586 105.484 -3.72797
9.1004 112.181 1.5635
-9.3307 108.991 9.40762
7.25326 116.224 10.888
15.8356 116.223 4.11218
18.5004 115.772 1.10321
-12.7009 101.175 -4.10021
-15.5746 102.023 -0.176281
11.2789 115.463 6.0021
15.6844 116.194 4.02294
16.9928 117.764 6.14266
19.8422 119.751 7.91805
12.6002 114.957 3.80288
14.2746 114.514 1.55771
-7.12163 103.2 -4.67644
2.05566 114.577 10.9923
15.0501 119.016 9.74658
-0.983465 113.977 11.7923
-15.5178 102.927 0.666457
-11.9455 101.642 -4.7222
-7.57776 103.302 -4.8268
18.9733 121.824 11.8301
14.0366 114.718 1.31529
12.5679 114.943 2.88909
17.0286 117.942 5.38783
21.5161 119.77 5.52676
11.217 116.017 5.97599
10.2108 117.059 8.81797
21.4561 119.776 5.42778
10.4184 114.355 3.05632
-12.088 106.685 5.08471
9.42254 117.296 9.69303
21.3591 119.763 5.28736
18.3458 118.019 4.06518
-14.1859 104.63 2.38832
-9.89034 109.178 8.05323
-9.96435 109.097 7.908
15.5284 115.053 -0.05827
-10.1645 108.921 7.5084
10.0468 117.466 8.98199
-10.2841 108.818 7.26918
-3.41424 106.134 -3.55727
17.9685 117.434 2.55721
4.26706 116.489 11.2659
-7.45703 103.92 -5.01765
18.7299 118.352 3.61642
15.6242 119.785 8.88893
21.1318 121.208 7.3738
10.4303 115.066 3.19031
-15.0094 103.53 -0.309412
-5.19765 114.278 13.6558
0.460267 115.222 11.1479
19.1647 121.338 8.85857
-10.8494 102.973 -4.84826
10.5497 115.284 3.26193
-1.44184 107.757 -2.72623
16.6528 122.767 13.3471
17.1177 117.056 1.45874
6.46702 117.421 10.4777
-10.3436 109.243 7.07079
-9.30947 110.797 9.32764
8.90644 118.185 9.99153
9.67853 115.066 2.94245
-12.6773 107.495 4.86084
-8.63968 111.979 10.7435
16.1709 120.225 8.00522
-15.1664 104.063 -0.241507
18.616 122.089 9.80095
17.6123 118.214 2.74542
17.0815 118.575 3.85323
13.4737 121.077 11.6477
-10.1699 103.75 -4.92553
15.4247 117.897 3.51876
16.734 117.213 1.11727
17.8171 118.793 3.43453
-6.70049 114.214 13.2731
-5.03039 106.274 -4.07178
16.6265 123.256 13.1625
-4.54133 106.65 -3.8893
-12.6066 103.474 -4.09389
-7.50596 113.615 12.3758
-9.69472 110.774 8.32014
-13.7044 107.166 4.12821
19.1755 122.26 8.92785
16.7371 120.113 6.47354
10.4655 116.216 3.3725
-15.537 104.602 0.197765
-13.0266 108.162 5.32322
8.94041 118.958 9.93781
18.6283 122.654 9.84105
-12.1582 103.84 -4.14626
-13.8193 104.303 -1.95065
16.4157 116.502 -0.979641
-15.0334 106.236 2.77165
16.6045 119.413 4.68609
14.3583 117.836 3.25068
16.7352 119.666 5.08106
19.0469 119.638 3.20336
-11.2126 109.979 7.199
8.94351 115.728 2.83501
14.2446 121.243 9.8245
-10.3218 110.712 7.71471
-2.47142 108.735 -2.48154
16.303 117.58 0.474689
8.99008 115.97 2.88883
-14.1021 104.769 -1.7429
15.9102 116.397 -1.69186
16.6206 120.122 5.00666
-4.48477 116.27 13.6748
10.8336 119.125 7.41018
22.6793 121.668 3.29264
11.126 116.793 2.36894
-0.951145 109.825 -2.30401
20.9431 121.475 4.13082
12.492 117.947 3.55918
6.11277 112.647 -2.34156
7.85959 115.714 2.33214
15.6667 117.002 -1.15963
-3.58366 116.463 12.5825
15.5681 123.996 12.837
15.9192 117.734 -0.0788515
22.01 122.217 4.08551
-10.3854 111.614 7.79484
9.69793 120.005 8.98906
19.8759 123.612 8.32332
16.6652 124.429 12.4533
11.8512 116.909 0.990833
17.2409 123.987 11.0476
-5.73236 107.656 -4.02181
9.49278 117.158 3.28124
10.4798 117.293 2.65216
20.7009 123.701 7.60791
16.6226 120.809 4.92405
-15.4343 106.19 0.37238
-3.42958 116.797 12.4084
-0.665483 110.673 -2.15181
1.53207 111.065 -3.15451
14.2098 123.662 12.3793
6.66516 115.052 0.872499
11.0499 119.446 6.28382
11.9463 117.176 0.925233
-4.06646 108.917 -3.2807
24.1344 123.655 4.46816
-14.4959 108.939 4.87557
3.63439 112.345 -2.54259
15.316 117.469 -1.3944
16.2472 120.489 3.94619
4.64548 112.869 -2.41176
19.0838 120.997 2.73153
-1.91943 117.383 11.71
-5.22848 108.445 -3.74504
17.3142 119.618 1.20806
24.1405 123.234 3.1526
-0.562273 117.912 11.5957
22.2629 123.306 4.63881
13.2585 122.793 10.4704
-9.52895 113.135 8.71424
16.3864 120.042 2.43313
23.5789 124.241 5.22373
22.3858 123.608 4.80445
14.2569 122.65 9.1698
23.756 123.178 2.83026
17.3745 119.598 0.579658
15.0189 119.958 3.079
-7.19051 107.563 -4.62738
-6.84532 116.584 13.2944
5.43131 113.62 -2.30877
19.5486 120.548 0.595315
16.972 125.01 11.5639
3.79128 112.966 -2.53055
-6.2777 108.36 -4.05006
19.2196 124.806 9.20842
-6.73629 116.963 13.4706
11.7105 117.907 0.984597
4.57797 119.739 10.0453
-9.87838 113.535 8.77367
21.8173 123.665 4.421
-13.3445 106.428 -3.04391
-1.79205 118.12 11.531
-14.6392 106.667 -1.61685
19.8592 121.076 0.545749
-7.70983 107.74 -4.88253
9.47964 118.252 2.90215
-15.4583 108.388 2.42424
-15.4684 106.974 -0.428186
21.5209 122.08 1.20439
10.6519 121.086 7.62893
-10.3121 113.562 8.76961
14.9217 120.397 2.89767
-9.27722 114.699 10.0202
-9.59063 114.382 9.61098
14.2143 124.849 12.1579
18.2449 125.326 9.84888
13.3731 124.057 11.0816
-8.59224 115.687 11.2513
10.607 121.335 7.67303
12.5284 119.851 3.17408
21.0096 122.07 1.00223
20.1693 121.571 0.534857
6.33495 116.587 1.25533
20.0072 121.954 1.40744
16.2894 119.424 -0.812001
-6.42441 117.66 13.2972
-10.0455 107.181 -5.02741
20.7732 125.271 7.41949
16.5118 122.078 4.26923
-15.1161 110.076 4.64612
19.8901 122.925 2.95788
16.6739 125.807 11.1909
20.6039 122.201 0.850487
20.4394 124.374 5.31671
14.9233 120.975 2.72902
9.79565 118.762 2.25991
14.6393 123.684 8.38311
-10.1959 115.094 10.3164
22.8306 123.411 1.3304
15.63 119.228 -1.50265
5.39395 120.701 9.43295
-3.72252 118.86 12.818
2.68056 113.743 -2.65275
-0.616305 113.138 -1.31514
8.85216 118.897 2.85007
5.50903 116.451 0.383847
21.9733 125.049 4.8826
-12.2314 113.329 7.75108
-11.0007 114.689 9.40244
-6.77456 109.497 -4.37475
-9.78952 107.942 -5.26196
14.3638 125.72 11.7425
-13.9316 107.588 -2.8116
15.2366 124.043 7.62337
12.0761 119.459 0.68462
24.1303 124.971 2.38713
14.6422 119.104 -2.22472
-8.17527 117.777 12.787
7.81221 119.246 3.19479
2.00212 114.217 -2.53132
22.4994 124.563 2.34037
22.3481 125.713 4.73044
1.14736 114.059 -2.28404
-6.05104 110.501 -3.88118
20.1794 125.57 5.96172
-8.68241 108.892 -5.27794
16.471 121.158 -0.163831
-13.2072 107.811 -4.14574
10.3326 122.846 7.78475
11.4796 119.919 0.9599
12.0006 121.462 3.63257
-6.09661 119.031 12.8007
17.4374 126.491 9.47781
19.9946 126.608 7.58453
-15.7654 110.319 2.56299
-10.1818 116.689 11.0577
10.7935 122.788 6.98028
13.2589 125.435 10.3786
17.5391 121.74 -0.441024
5.03906 121.869 9.5165
5.54078 121.875 9.1149
20.4072 124.954 3.71977
23.7351 125.126 1.47125
20.691 126.707 7.01359
2.86261 121.716 10.821
-1.65069 120.272 11.3453
-1.23506 114.277 -1.09684
9.09183 120.312 2.91022
12.855 121.735 2.84794
4.88757 122.001 9.57456
13.9401 119.812 -1.96553
18.8257 124.987 4.6221
-5.75646 111.277 -3.88437
-13.4909 114.032 7.69587
14.1731 125.044 8.332
6.35984 122.179 8.54158
-5.40396 111.599 -3.74182
21.8891 126.218 4.45795
0.429949 121.103 10.852
-13.9572 113.855 7.37639
19.3801 125.803 5.48211
-15.9967 110.299 1.7508
7.15842 122.725 8.75062
12.2988 120.412 0.0666038
15.6598 120.619 -2.15945
17.9278 122.726 0.279492
10.2544 120.534 1.73363
-13.6431 114.364 7.87058
21.6168 126.299 4.37217
15.8779 121.726 -0.389061
11.9568 120.787 0.760454
17.9465 123.941 2.4437
20.3573 124.708 2.11118
5.88628 122.366 8.60709
14.7298 122.825 2.61993
15.4458 120.746 -2.2219
2.52716 115.801 -2.16376
15.2784 120.902 -1.80926
17.7837 123.38 1.20267
18.2926 127.009 8.11174
13.5462 125.507 8.76231
5.85544 122.481 8.57749
4.01065 116.552 -1.95573
-1.19637 115.132 -0.781041
16.1159 125.22 5.95462
-8.66319 118.798 12.3003
16.1524 124.021 3.46513
15.2649 121.539 -0.861725
18.8898 126.173 5.6633
-1.68563 114.976 -0.915596
19.8572 126.074 4.62376
10.944 123.303 5.94869
-12.8981 109.019 -4.31649
13.8079 122.64 2.2437
4.0534 122.706 9.94068
23.856 126.514 2.17408
5.43863 122.702 8.80422
15.4398 121.786 -0.912859
-9.62909 118.413 11.8068
-5.12375 112.45 -3.76414
-4.38927 112.995 -3.23964
21.4614 126.72 4.25702
24.4297 127.424 3.33006
23.8571 126.537 1.97818
20.4329 126.376 4.28037
-1.64071 121.354 11.3139
13.5902 122.845 2.3428
-10.6342 117.893 11.1918
13.5956 122.867 2.34037
-9.80574 110.057 -5.31106
1.44877 122.406 10.7006
24.9258 127.626 2.89197
12.8857 120.688 -1.86107
15.6334 122.149 -1.07101
11.8611 123.119 3.78494
0.00555378 122.041 10.7898
16.179 127.157 8.50298
11.2427 123.236 4.41544
4.48667 118.316 -0.248035
6.79571 120.582 2.45491
24.9978 127.35 1.87046
16.3498 125.421 4.57781
15.6971 127.143 8.55322
16.1807 127.256 8.3884
26.0961 125.461 -2.97543
20.3919 127.798 6.17341
18.8591 127.432 6.60727
24.8324 126.112 -0.725091
24.8831 126.154 -0.686468
0.878997 116.541 -1.46477
16.0104 122.532 -1.227
16.0018 124.689 3.11559
20.8742 127.065 4.06572
17.0581 125.13 3.13258
19.296 126.529 4.20499
3.68209 117.763 -1.32216
25.9756 126.042 -2.05433
-14.9631 113.633 4.77611
20.2689 126.869 3.90519
-13.3004 116.123 8.31544
1.62345 123.024 10.6049
-5.95998 112.748 -4.22145
-11.1656 118.198 10.7705
15.159 123.133 0.152589
14.2763 121.434 -2.59469
3.2908 117.585 -1.91848
21.8892 125.588 -0.274584
13.3884 126.751 8.65899
-5.50761 113.241 -3.95931
25.6963 126.719 -1.18375
26.1779 125.718 -3.60473
25.4362 128.181 1.91752
-14.2376 110.331 -3.18444
16.9527 125.808 3.73068
-9.50795 119.411 11.4238
18.716 127.345 5.42643
22.3364 126.103 0.0810563
-7.1494 112.291 -4.83309
-11.86 117.969 10.2882
-11.6186 110.559 -4.89868
-1.36417 116.783 -0.408952
21.3469 127.71 3.84346
15.7445 122.645 -2.06009
16.7572 125.828 3.55099
16.5279 125.213 2.4422
-10.6827 111.008 -5.05584
17.9054 127.943 6.83403
10.9896 124.785 5.59719
-14.7841 110.912 -2.31259
19.4303 128.332 6.1648
18.0858 125.015 0.48424
19.6846 128.414 6.01601
-13.0955 117.468 9.28557
15.6713 120.982 -6.05267
-15.1052 117.545 10.9467
17.4481 124.844 0.259993
25.5331 126.719 -2.29564
5.72328 121.063 1.65655
16.2921 124.769 0.891956
16.4101 124.259 -0.249476
13.8568 121.118 -4.63202
5.23745 120.424 0.683078
16.3859 128.141 7.55962
-2.24313 123.036 11.6026
12.082 121.899 -1.88257
26.3223 126.358 -3.99613
15.94 127.235 5.86028
26.8322 127.584 -1.92281
17.2777 128.393 7.13789
8.60515 122.927 2.8382
20.0545 124.223 -3.52938
25.114 125.671 -4.6103
-14.6266 118.214 11.2194
-1.21944 123.522 11.467
15.166 120.933 -6.52884
8.49056 123.017 2.86501
-13.5294 116.752 7.3651
-1.0021 123.621 11.4572
-10.8322 111.703 -4.95063
26.8269 127.132 -3.25711
-12.1899 111.442 -4.52659
3.56909 119.206 -1.17984
21.6165 128.964 4.37598
0.17689 124.153 11.3106
-11.3026 111.747 -4.83704
1.05933 124.399 10.9764
15.3878 128.767 8.62403
15.355 127.701 6.49906
18.9303 128.128 4.52414
21.3343 128.912 4.21734
18.0393 122.74 -5.68164
-13.434 117.784 8.81726
4.72168 124.566 8.34775
-0.655045 118.23 -0.247597
0.927601 118.641 -0.666551
24.9793 126.541 -3.46936
13.0841 128.37 9.44043
14.0136 125.026 1.96083
13.7557 128.549 9.25429
24.5416 128.422 0.567519
5.56925 124.727 7.87992
15.8668 126.252 2.89978
12.6376 128.275 9.37116
-11.9057 118.98 9.73723
8.12325 126.135 8.54772
4.99009 124.686 8.05361
23.8841 125.872 -4.3455
-4.55298 123.062 12.1051
4.10813 124.786 8.76421
-16.8032 118.117 11.5865
13.5372 128.71 9.29123
-12.9761 111.877 -4.01531
-4.48959 123.166 12.0933
-9.55575 112.71 -5.05904
-16.0165 112.997 0.550417
14.4073 128.967 9.04518
2.00773 125.012 10.6641
18.8899 128.578 4.69469
16.2801 126.989 3.50185
26.1221 126.594 -5.00389
15.0354 123.582 -2.44698
15.9593 126.661 3.02744
1.56477 119.146 -0.953233
-14.1085 119.5 11.9076
-4.22963 123.52 12.2402
18.0779 129.617 7.07604
18.6893 129.287 5.86284
23.5373 128.127 -0.262819
-1.86195 124.211 11.596
3.25409 125.149 9.48896
24.3022 128.686 0.214039
-13.4284 118.923 9.90819
14.2984 121.953 -5.60483
-15.4921 118.864 11.3278
-13.5632 118.776 9.63853
-8.64597 121.725 11.7232
-2.73224 117.78 -0.850773
-15.0923 114.101 1.19916
11.1236 122.992 -1.29585
23.5717 130.514 4.15023
18.6205 123.557 -6.11967
-15.9142 119.068 11.7184
-14.2489 120.006 12.2901
14.1756 129.405 9.02956
19.915 129.308 4.30587
10.6598 126.695 6.19364
-2.05963 118.596 -0.252786
8.26267 126.972 8.47989
-13.752 116.219 3.88138
15.2387 124.504 -2.11584
-5.37671 115.749 -3.77728
15.7444 125.482 -0.613528
18.5845 129.052 4.35794
13.5282 128.91 8.00114
-16.0864 119.624 12.3078
7.01467 126.601 8.37771
-13.1894 119.745 10.2339
-15.1431 119.783 11.8234
0.836656 119.9 -0.40084
-8.68055 122.239 11.7093
-2.66114 118.443 -0.651972
18.3152 129.979 6.26106
10.3891 123.648 -0.353318
2.59009 120.47 -0.694111
-14.5252 116.816 5.26035
-1.61749 119.236 0.0376946
9.2176 124.499 2.18128
10.0203 124.157 0.808702
23.4559 130.887 3.91183
-14.7894 119.152 10.0201
-12.7042 120.278 10.6537
13.369 129.634 9.18475
2.73238 125.802 9.73603
-0.418577 125.126 10.69
-13.6577 119.748 10.1249
7.06916 126.877 8.34539
-14.275 120.383 11.8396
26.1995 127.77 -4.94369
-1.53745 125.073 11.2218
11.6967 126.543 3.85596
-14.1634 119.494 9.78047
-13.2815 120.194 10.5001
-12.541 121.032 11.6144
24.9978 128.31 -3.04282
-13.5652 116.881 3.88827
-13.0679 120.333 10.4392
-13.57 116.809 3.68143
-13.9343 113.267 -3.21555
-18.8912 118.441 11.0748
-13.241 121.112 11.9853
-13.8963 120.458 11.1153
25.9405 128.027 -4.66028
12.6258 129.453 8.52766
-15.2245 119.377 9.88982
4.61363 122.705 1.14265
7.07398 127.21 8.28263
-11.5867 113.744 -4.34804
-13.5725 119.084 7.93528
-14.1426 119.867 9.92262
-12.3705 120.637 10.0764
24.9459 129.156 -1.88418
-13.0103 113.566 -3.86323
-18.4507 117.645 8.53744
17.5491 127.969 1.26066
15.8741 126.325 -0.829657
-13.3004 119.409 7.84026
-13.1383 120.014 8.93085
-12.1264 121.16 10.3971
18.9877 129.998 3.97468
-14.6402 118.907 7.77544
15.1115 127.42 1.72085
5.53784 124.033 2.29378
22.3071 127.065 -4.66692
-3.08899 119.138 -0.941779
1.06937 121.105 -0.251259
-13.4335 119.303 7.3983
-14.294 119.512 8.48941
-3.52098 125.098 11.3629
18.8919 130.127 4.02332
-15.2148 119.579 9.30015
23.5516 130.965 2.0497
18.2721 129.481 3.16098
7.98043 125.388 2.89191
25.0788 129.337 -2.49285
17.9208 130.509 5.42109
16.9449 128.67 2.46956
-16.7203 118.411 7.99119
17.653 124.309 -6.89613
-7.90737 123.103 10.5744
16.8497 127.512 0.173647
13.5422 124.464 -3.41734
20.747 126.201 -5.65527
15.3466 128.203 2.58305
-1.77782 120.389 0.148129
17.7285 129.465 3.2601
-15.0475 115.627 0.768824
7.70036 125.508 2.97732
-15.2949 119.727 9.20329
24.2966 130.473 0.0202595
15.7962 128.486 2.52139
15.9454 128.815 2.97061
7.37723 128.118 8.2249
-9.10701 115.387 -4.67862
-6.23541 123.667 9.64105
-17.3226 118.754 8.36693
-19.8507 118.26 9.32233
0.556092 121.699 0.356027
19.122 130.696 4.0314
-19.3739 118.323 8.94946
-15.7174 121.652 12.7168
4.271 123.483 0.817727
-12.4063 121.416 9.6075
-13.7384 120.187 8.15375
-14.3626 114.448 -3.0289
2.09425 126.949 9.34095
16.1357 127.398 -0.718902
-13.9101 117.332 2.37243
-13.9108 121.029 9.82275
-7.57595 116.389 -4.48301
1.34706 126.962 9.89354
10.1177 129.019 7.17317
-13.1604 121.275 9.67222
15.1999 126.624 -1.6628
8.46597 128.918 8.17601
-14.0393 120.396 8.50444
-17.6297 120.726 11.9246
11.5099 128.834 5.53001
-12.1943 121.452 9.06337
13.5754 124.649 -4.58745
6.88873 128.345 8.03419
-14.9402 118.949 6.07157
22.6416 127.845 -5.28044
16.5633 127.805 -0.664259
15.4698 130.328 5.22166
2.8354 123.037 0.353333
-14.6028 118.83 5.44172
-3.91926 125.443 10.4548
-11.9473 122.103 9.95708
-14.7773 119.994 7.89818
-15.9065 121.94 12.6471
-12.7109 122.889 11.9887
-15.2211 120.346 8.81242
-8.77002 116.239 -4.60168
-16.1216 118.717 6.10695
-14.0825 118.272 3.60028
-13.743 120.1 6.99907
12.1546 125.291 -2.75807
9.06595 125.871 0.805227
-13.8255 114.913 -3.48267
21.298 127.575 -5.3059
14.794 126.217 -3.01608
-14.4001 120.205 7.57778
-15.4998 115.265 -1.57176
-15.8982 118.911 6.04432
13.9539 125.786 -3.36453
14.6269 124.491 -6.50233
16.2159 128.914 1.16458
-12.1166 122.097 9.48464
3.68503 123.557 0.0788133
-15.07 118.946 5.35559
15.6778 124.768 -6.98996
20.945 132.321 4.10949
-12.0784 123.275 11.5338
-13.9032 120.689 7.73133
13.5838 128.424 1.88566
-10.457 123.116 9.9041
-4.59895 125.781 10.6399
21.3046 132.538 4.06891
-13.4145 121.314 8.4639
-14.2047 120.827 8.07762
16.7829 131.626 5.69389
18.0765 130.486 2.35676
-13.2257 119.485 4.54778
7.58873 126.654 2.78628
18.4453 131.796 4.69612
11.5337 125.497 -2.63036
-13.7812 119.259 4.42072
-15.1184 118.679 4.262
-14.0126 122.282 10.6511
-8.81769 116.765 -4.59077
-14.2646 120.136 6.37691
15.0852 127.597 -1.44725
-14.9462 115.507 -2.48859
-5.49534 118.913 -3.01405
21.3537 132.619 3.6686
25.6428 129.681 -5.71991
-15.0119 120.198 6.79605
-14.3911 115.507 -3.19555
-14.2964 117.333 0.394469
18.5025 131.208 2.77195
-13.0662 120.266 5.28621
-15.0516 123.169 12.6692
-13.2799 120.213 5.32117
10.4368 129.995 6.51029
21.1303 127.275 -7.31941
-17.5866 119.127 6.38923
19.9054 132.569 4.26411
7.79756 127.115 2.68575
4.95432 128.459 7.59574
21.4245 127.526 -7.13689
18.9507 130.285 0.325339
4.72787 128.418 7.55763
-14.9489 119.395 4.65876
9.15507 126.318 -0.170615
22.9084 128.104 -7.29384
6.76953 129.474 8.00318
19.6906 132.614 4.26638
-13.9592 117.5 -0.0384847
-12.2405 123.171 10.0517
2.10042 127.64 7.79857
23.4871 132.44 0.818006
-14.3503 122.415 10.0524
24.1691 131.252 -2.13354
-12.438 119.589 2.80433
-13.0368 120.09 4.27242
13.7043 125.862 -4.92979
-14.8482 121.021 7.54211
18.8303 131.016 1.40432
-13.1767 118.322 0.717532
-14.2129 117.3 -0.577173
18.9568 130.661 0.454924
18.5716 132.622 4.68736
-1.902 126.939 9.12435
23.6291 132.434 0.31946
-9.82817 123.908 9.14923
-13.1826 116.59 -3.0758
14.2946 128.248 -0.974003
-15.147 120.048 5.41736
0.519079 123.888 0.949856
16.2371 129.343 -0.298758
8.78862 126.989 0.748662
-10.5047 117.139 -4.11261
17.8712 126.518 -7.3383
20.6688 133.103 3.73326
15.9207 128.66 -1.55304
-14.3912 122.676 9.93293
23.022 128.585 -7.33247
-14.0358 122.148 8.47456
0.321197 128.118 9.32813
-12.6778 120.245 3.49791
-14.4399 122.728 9.85721
-17.3776 122.725 12.0987
-12.6359 119.91 2.72344
-13.3179 120.598 4.61337
-14.8246 118.851 2.23922
4.56814 126.043 1.5731
-14.2233 123.333 10.7312
-12.916 120.648 4.26624
5.67621 129.621 7.78679
-5.80078 125.557 8.46716
-13.666 122.418 8.11943
12.7071 126.784 -3.6541
6.39552 130.127 7.89352
-14.7671 116.681 -2.83598
-14.4897 119.754 3.09628
-12.8992 120.837 3.98206
21.359 133.165 2.13773
18.2646 131.731 1.65341
12.6055 130.395 3.3624
9.99684 126.739 -1.99821
12.5688 130.781 4.13593
-12.0728 124.629 10.8103
18.3378 127.422 -7.28982
-13.6349 123.836 10.2442
18.3341 133.457 4.7416
-12.6959 120.822 3.41604
16.9062 133.26 5.44092
15.3181 130.651 1.41327
-16.7658 123.723 12.4223
9.76405 126.921 -1.84312
-10.9884 117.882 -3.94773
-13.5096 120.425 3.1108
-18.2474 122.895 11.7817
-11.4225 124.654 9.93107
-13.5417 120.45 3.07765
18.3013 130.967 -0.521684
16.6945 131.52 1.83916
-13.6525 123.35 8.98809
-5.54247 120.905 -2.34757
14.4398 126.911 -5.86261
-13.6752 123.521 9.20285
-14.6599 120.151 3.12819
-11.6373 125.247 11.0375
-0.599405 128.435 8.81494
-12.0878 124.295 9.38527
18.2247 131.459 0.187472
15.6333 129.786 -1.21205
-16.2427 124.342 12.5719
14.9399 127.135 -6.1058
-14.5938 119.591 1.66505
13.9844 128.779 -2.10661
-12.9568 121.23 3.45454
-11.5114 124.747 9.41342
11.9457 127.455 -3.4254
15.8865 131.606 1.82115
17.9721 132.207 1.40019
-8.91408 125.221 8.23661
-12.2514 125.408 11.2072
-17.2801 124.002 12.2498
-15.1792 119.192 0.817341
20.7764 129.179 -7.06957
-13.6293 119.358 -0.129569
-17.7849 120.705 5.82176
15.7932 132.461 3.33803
-10.0505 118.785 -4.23805
23.6484 130.427 -7.16421
13.6335 129.725 -0.80652
14.5997 131.096 1.13666
18.0879 134.25 4.71126
-13.6765 121.766 4.22039
-9.87347 119.064 -4.23486
-5.38177 127.232 8.71923
-14.5195 121.515 4.30346
-19.6617 122.977 11.2576
-7.03379 126.402 8.30489
-12.9715 125.862 11.8192
10.3171 131.94 5.90637
4.03378 127.25 1.33303
-0.376725 125.483 1.14572
-12.391 125.521 10.5219
-15.5972 120.718 3.15961
19.4774 134.172 2.97216
1.2562 129.192 7.10384
-12.3826 125.671 10.618
3.36019 127.23 1.49173
-13.7841 119.656 -0.444379
-14.2065 119.633 -0.257938
-16.9783 124.805 12.3369
-10.0287 126.309 9.93814
2.89657 130.039 7.37565
-6.65788 121.464 -2.503
-13.4324 121.373 2.58478
-13.4848 121.529 2.82431
20.7137 130.05 -6.74377
-9.93429 125.884 8.70616
-12.7974 125.496 10.1429
-14.8511 121.483 3.63963
12.9679 133.565 6.32696
13.8609 128.437 -4.74494
-19.7369 121.746 7.88293
13.4577 128.456 -4.47093
-14.5883 125.509 11.3786
19.4876 134.3 2.54918
4.0967 127.897 1.57088
12.764 128.461 -4.05064
13.0647 132.291 3.21887
-13.6317 125.506 10.3259
9.83332 128.493 -2.05562
-9.29516 126.044 7.84268
17.445 135.115 5.22104
21.0833 130.737 -6.45657
16.7354 135.245 5.99909
13.6748 131.788 1.33394
-13.934 119.065 -2.84714
5.43902 129.335 2.71253
-15.4788 125.692 11.6531
15.6778 131.241 -1.46914
-13.1022 120.497 -0.76063
20.1549 130.628 -6.29757
-14.4642 122.033 3.32433
-13.1494 126.139 10.5482
-11.9202 119.842 -3.11975
-13.8865 120.466 -0.431471
12.2381 133.011 4.51796
-6.23532 122.537 -2.2572
23.6532 131.74 -6.98013
15.9592 132.551 0.607241
13.7486 131.212 -0.408073
8.0831 129.101 -0.299325
19.348 134.703 2.22287
-13.8042 122 2.39172
13.0488 129.151 -4.20838
11.4096 133.279 5.37409
21.4149 131.442 -6.12812
19.3661 134.769 2.16544
-13.4006 126.711 11.4131
15.4135 132.823 1.11479
24.4612 133.658 -4.29681
-3.98958 129.052 8.57125
6.96363 130.036 1.95007
13.0476 132.735 2.65148
22.175 131.877 -6.20456
4.99881 129.626 2.53519
-13.1724 122.826 2.89741
-14.2853 126.069 10.2786
3.95368 131.454 6.91313
8.32708 129.242 -0.976137
-5.13948 128.599 8.19424
24.5466 133.447 -5.1598
-12.6555 122.686 2.10845
-8.6626 127.161 7.89952
1.98034 130.716 6.72355
-13.8561 122.541 2.54084
19.1748 135.162 2.19301
24.5167 134.151 -4.02885
-4.13498 129.091 8.04911
23.255 134.359 -2.69009
14.373 130.646 -3.28082
-3.0322 129.576 8.11745
11.7183 129.372 -3.8127
9.42686 129.494 -1.93276
-0.694959 130.44 7.80588
-14.006 121.198 -0.475104
13.3009 130.696 -2.66607
-10.1438 120.892 -4.18013
-13.0325 122.903 2.12153
-13.5935 126.882 10.5427
-1.8602 126.639 0.825031
13.7851 132.191 -0.170593
-13.1153 121.414 -1.08578
-14.062 123.095 2.99385
-14.8782 126.438 10.3734
21.2224 135.207 -0.127799
2.18055 131.17 6.54467
14.6992 131.659 -2.25294
4.71483 130.259 2.66944
8.17373 133.649 6.80589
21.4997 132.606 -5.73394
-10.3513 127.879 9.5234
-0.537085 127.642 1.38583
-2.71089 126.328 0.398868
-3.66335 125.443 -0.668511
0.00196464 127.971 1.54662
22.6237 135.058 -1.85011
21.5845 135.19 -0.820609
13.4054 130.121 -4.71671
-12.8525 127.956 11.3426
-10.7805 121.173 -3.99766
24.2673 135.016 -3.46595
23.8587 135.128 -2.95773
-13.8431 122.825 1.53767
7.70122 133.764 6.77853
24.0776 134.819 -3.9981
12.7674 133.344 1.82176
-4.5306 129.689 7.91579
-17.2036 122.341 2.91832
-19.5161 125.372 10.7152
1.15657 128.964 1.79533
-18.7239 126.19 11.6768
12.7373 133.421 1.70662
18.7199 132.026 -5.81954
9.7936 130.247 -2.49876
-18.1579 123.482 5.62888
-6.98267 129.422 8.86748
-13.0275 122.309 -0.78724
-10.2663 128.63 9.70268
13.6437 133.683 1.26392
-12.7033 122.651 -0.550278
-14.3198 122.764 0.893527
23.2978 135.529 -2.68498
16.0513 137.109 6.12505
-17.2846 127.18 12.0383
7.43878 130.506 -0.533488
-4.75965 130.073 8.0403
7.82797 134.23 6.61214
-13.2975 128.343 11.1559
-17.5684 127.152 12.0646
-12.7199 123.895 1.71556
-20.0201 123.419 6.4387
-15.6425 127.086 10.3493
-18.2472 126.845 11.8227
-6.20079 124.245 -2.84454
-13.8874 122.343 -0.749041
-0.700993 128.43 1.23942
-12.893 124.278 2.34789
16.8029 134.13 -0.933055
-0.213067 128.734 1.41485
-15.5665 127.17 10.2194
23.9835 135.496 -3.80018
13.6059 134.134 1.53282
19.9143 132.872 -5.95471
11.2789 135.102 5.2402
-5.17097 124.828 -2.67407
-8.51561 123.318 -3.13575
20.3785 136.678 1.30326
16.9488 137.024 4.65573
-13.8059 122.413 -0.994875
11.3328 134.401 3.56023
14.3724 135.691 3.78549
-12.6276 124.204 1.60626
11.3417 134.432 3.54491
11.331 135.124 4.86731
-5.3328 124.875 -2.84286
14.1651 137.136 6.69467
-5.09677 130.483 8.19085
16.2523 134.232 -0.882597
-2.08781 127.938 0.675579
-1.9503 128.073 0.74229
15.6257 137.864 6.70434
16.8748 137.381 4.75399
-12.7631 123.183 -0.812818
-7.25683 130.275 9.19084
0.810417 132.012 6.38569
19.5092 136.908 1.66768
-17.4478 124.108 4.61988
22.0283 136.785 -0.60821
-10.7625 122.663 -3.58247
-18.9546 123.695 4.86593
13.9898 133.101 -1.83075
13.6497 136.486 5.17706
-0.907175 131.476 6.39784
-13.4637 122.83 -1.27434
11.882 131.314 -3.91085
-19.4296 123.609 4.89041
-17.7963 127.753 11.9354
13.6695 131.988 -4.07067
-12.9033 124.518 1.50639
14.6968 136.303 3.728
-13.3722 128.918 10.6923
13.973 137.1 5.76466
-5.8747 130.904 8.70535
-10.9 122.942 -3.4897
22.8749 134.97 -5.5622
-19.5687 126.773 10.9285
23.2938 135.481 -4.91479
17.9705 137.788 3.76578
-11.4314 122.612 -4.01171
16.8233 134.781 -1.50318
16.4442 137.945 5.11275
-8.98375 123.903 -3.47543
-19.3953 124.768 6.35421
20.6654 137.476 0.742531
9.83165 135.447 5.06189
16.1528 138.096 5.44509
13.5584 135.41 1.95673
11.246 135.926 4.77582
13.4928 132.236 -4.47111
-2.72804 128.251 -0.00134966
9.36333 131.894 -2.1018
-16.9642 124.659 3.79355
15.6207 136.908 3.07668
-15.958 124.411 2.44302
8.08713 131.836 -1.35015
-12.4787 122.753 -3.78086
-13.1981 123.206 -2.37399
11.9567 132.251 -3.75482
18.3008 133.689 -5.79736
-12.585 125.732 2.1681
-15.3272 124.234 1.26681
1.57112 133.123 5.96956
-12.8451 124.11 -1.05627
-4.35457 131.7 7.62126
16.1024 138.672 5.70023
18.9832 137.823 1.6493
23.9606 137.404 -3.09332
7.56153 135.619 6.04543
-14.2352 125.036 1.58422
-13.2236 123.926 -1.51953
-12.8276 123.398 -2.99734
15.3281 134.512 -2.65674
-14.752 128.84 9.33326
-6.12997 131.73 8.43617
-8.79893 131.265 9.48949
13.8822 133.238 -4.23095
14.4156 133.128 -4.92121
-13.2007 124.684 -0.564432
13.1496 132.793 -4.74644
0.220757 130.777 1.16407
-16.714 125.233 3.11179
-5.46734 127.092 -1.95804
6.35949 135.667 6.10376
-15.9127 128.904 9.80077
11.4556 136.708 4.18993
14.9733 133.526 -5.0451
15.3206 138.087 3.83483
15.5209 139.459 6.38413
-18.4136 126.739 7.15067
-6.63735 131.988 8.51583
12.3486 135.75 1.27203
4.88925 135.233 5.955
20.3775 138.515 0.492134
-12.8774 125.713 0.570772
17.7908 139.105 3.6907
14.6527 136.465 0.796852
-12.8868 124.514 -1.8816
-19.3485 127.707 9.59492
-18.6094 124.849 3.25152
14.5988 135.392 -1.37768
-5.38212 127.372 -2.00292
14.7009 134.187 -4.07231
-12.7104 124.444 -2.38322
-18.2306 125.692 4.36272
22.1475 136.849 -4.62318
5.67534 133.519 1.42329
19.2245 138.662 1.23827
22.1638 138.866 -0.710822
-2.03272 130.154 0.436247
22.4508 138.577 -1.67241
-1.00869 133.279 5.87581
-18.7742 127.502 7.99435
-8.27388 125.585 -4.06507
-7.56006 132.675 9.659
1.99422 132.541 1.92616
-6.02144 132.484 8.05359
-13.6051 126.582 2.01866
15.6225 139.938 6.01002
15.1301 138.775 4.04176
-3.13328 132.781 6.12703
18.6729 135.129 -6.21772
5.12419 135.853 5.7813
-12.4242 124.453 -3.59366
-12.4135 127.267 2.06138
-7.34112 132.811 9.28378
-8.48969 132.846 10.1819
-6.05428 127.517 -2.52283
-18.4295 125.484 2.96332
13.5541 133.899 -4.98218
22.1117 139.478 -0.399665
8.93664 136.624 4.01795
-11.7802 125.012 -3.32943
0.330727 131.947 1.03606
-10.6532 132.043 9.77733
-12.6558 125.618 -1.62648
17.8148 139.51 2.51748
-17.9709 126.891 4.80639
-4.15119 133.011 6.36635
-18.0815 125.631 2.32176
-13.0048 127.66 2.36168
3.43824 133.984 2.25386
11.8077 137.159 2.07233
-2.71771 133.319 5.60546
4.77159 136.28 5.55799
14.4179 136.654 -1.24894
-11.422 125.718 -3.24206
15.171 140.115 5.03953
11.3588 137.912 3.36619
7.02336 137.047 4.98543
14.9381 139.806 4.3504
1.32566 134.964 5.15216
10.1214 137.417 3.22757
-13.2761 126.956 0.285506
15.5409 136.414 -3.10614
-11.8646 126.103 -2.72214
-2.53008 131.023 -0.0736749
-0.53465 132.249 0.819214
15.4323 140.538 4.93139
9.09435 134.205 -2.94716
-13.2029 131.647 9.20504
-4.10055 133.633 6.10402
-16.326 126.306 0.730185
-1.13651 134.52 5.4471
-0.241681 134.859 5.30125
-18.7239 128.552 6.96841
15.2695 137.315 -1.93108
-5.63855 128.796 -2.85263
-10.7755 126.424 -3.64564
-8.85693 126.636 -4.82656
11.5009 137.391 1.00259
-5.93829 134.171 8.08825
22.2744 140.646 -0.854413
21.5976 138.558 -4.60757
7.01038 134.351 -1.78356
14.132 139.053 2.14084
12.3093 137.536 0.425642
-15.1654 131.881 10.3668
13.6844 138.81 1.85024
-11.7183 126.317 -3.61142
3.55357 136.593 5.13832
-12.6685 126.184 -3.25134
0.317171 133.496 1.15277
-13.6254 132.407 9.61079
-17.8729 126.729 1.36056
13.7849 139.375 2.18393
-17.7314 127.214 2.17105
15.5676 140.847 3.67946
-19.0209 130.957 10.6734
14.4617 137.201 -2.9757
-9.9959 126.836 -4.8671
-17.6572 127.316 2.06095
22.6893 140.992 -1.8084
-2.34192 135.067 5.71966
-10.0628 126.865 -4.86218
14.2409 136.361 -4.68246
14.1915 136.386 -4.69756
-12.1362 134.101 11.0531
-11.5102 126.823 -4.18046
17.698 137.195 -6.13016
14.2599 136.652 -4.5664
-18.8204 130.999 9.78861
1.42138 136.359 4.68313
-16.4191 132.564 10.8863
22.7267 141.242 -2.11893
14.0095 140.28 2.67767
20.5437 142.118 1.273
15.8695 142.555 5.70757
-17.4905 128.723 3.75413
-17.4444 127.573 1.3946
13.6778 140.18 2.56029
-11.0441 128.228 -2.41177
22.54 141.513 -1.8593
-12.0439 128.152 -1.9103
21.9861 141.93 -0.759904
11.2568 139.507 2.69238
-18.1521 129.946 6.29906
-5.54126 130.042 -3.33352
20.3187 142.459 1.44721
-11.5471 128.432 -2.0825
8.73303 138.381 2.14619
11.3116 138.714 0.775221
22.6832 141.218 -3.06972
15.2171 138.385 -3.03273
17.3782 138.068 -5.3658
1.44408 136.837 4.52281
-12.2012 128.487 -1.69287
-15.5178 128.314 0.508486
14.362 138.083 -3.11054
18.3336 142.265 2.22564
-7.61048 128.908 -4.61484
-18.4312 131.757 9.45935
-11.8038 128.758 -1.8445
10.3325 139.464 2.48086
16.0241 142.623 4.27272
-11.4266 128.979 -1.8783
-4.41769 131.713 -1.84395
-18.0175 130.625 6.46785
3.14012 137.91 4.61803
17.6058 138.711 -5.09941
-1.96611 133.731 0.0552977
-6.87407 129.688 -4.29462
4.07549 138.39 4.71547
13.0506 140.168 1.28498
17.9436 138.822 -5.25735
-14.2499 134.743 11.5747
15.6709 138.195 -4.8476
-8.95368 128.361 -5.54572
-17.791 129.987 4.57793
3.2373 138.112 4.57613
-17.78 129.946 4.44947
-18.2337 132.332 9.59814
-15.1996 129.515 1.45176
-12.0777 130.085 0.159084
-18.1451 132.812 10.365
12.6656 139.711 0.255859
6.47405 136.26 -1.89623
19.338 139.38 -5.66175
2.83822 136.776 1.87617
-10.246 129.218 -3.32988
-5.93847 135.864 6.7165
5.18329 136.97 0.253474
-12.2262 130.706 1.12654
17.4053 139.221 -4.84267
-10.1329 136.14 10.3732
14.3069 138.889 -3.17797
14.7141 139.105 -3.17313
-17.4481 129.776 3.04246
13.8829 138.422 -3.9753
-3.01201 133.467 -0.822895
-8.21751 129.224 -5.43706
13.8888 139.285 -2.40179
12.4113 140.041 0.257899
-11.1299 130.348 -0.976272
21.893 142.845 -1.54664
-17.4165 129.814 2.77089
9.16519 139.423 1.40502
21.4697 143.18 -0.729388
14.9842 143.869 5.60219
19.6942 143.776 1.72977
-17.553 130.161 3.20845
19.9176 143.799 1.48335
14.8664 139.569 -3.12294
10.2387 139.828 0.984078
19.0995 143.907 2.29718
-17.8367 131.965 6.87451
-0.727121 135.565 0.775723
8.56419 139.486 1.28835
-18.0597 133.355 9.65391
-9.52663 129.531 -4.76124
1.42348 136.971 1.69529
17.0264 139.859 -4.65956
6.49124 139.475 2.73841
-3.86216 136.554 4.88502
-17.8917 132.719 8.02868
13.015 141.813 2.22642
21.793 143.257 -1.74936
-12.1058 131.863 1.61977
-14.4374 130.566 0.807505
17.2002 143.794 2.78865
-3.2189 136.922 4.77783
-13.8564 130.837 0.72742
19.1274 144.32 2.19699
9.84358 137.421 -4.53272
16.4777 143.956 3.34076
13.6809 143.369 4.26376
-5.03828 132.569 -2.99122
14.2291 139.482 -4.13614
8.00898 137.393 -3.54439
-14.0259 131.019 0.660312
22.0169 143.15 -3.02962
16.5898 140.312 -4.54768
13.0811 142.922 3.43274
6.54585 139.822 2.24445
19.5983 141.398 -4.75825
6.10754 139.837 2.59586
-10.2949 137.409 10.3823
-12.7554 136.907 11.275
-11.7725 132.126 0.80488
-9.64356 131.372 -2.5237
10.8422 137.875 -5.51197
-7.44067 137.537 8.04968
-5.41947 132.521 -3.659
-12.135 137.229 11.0613
-4.06411 133.865 -2.02094
-5.48999 137.425 6.26098
11.1481 137.947 -5.66945
-7.41833 137.547 7.95357
4.15245 138.462 0.736809
0.472993 137.341 1.31939
11.45 141.193 0.382055
-17.9784 131.32 3.38031
-18.0795 133.431 7.69325
0.052447 137.184 1.13179
13.62 140.457 -2.84869
18.313 141.71 -4.06067
5.94902 138.105 -1.74289
-11.8203 137.513 10.8958
21.623 144.033 -2.08818
14.1347 140.343 -3.73567
-6.58956 137.62 6.83666
-6.39705 132.074 -4.57218
15.776 140.744 -4.39144
0.385525 137.603 1.2502
-7.38029 131.367 -5.29737
-5.6888 137.769 6.25088
16.7469 145.166 3.5369
9.2566 141.346 1.53384
-17.815 134.99 9.72027
16.4982 145.303 3.7679
-16.7485 135.932 10.6329
18.1991 145.382 2.4658
4.71597 140.409 2.92572
12.1028 142.212 0.765659
12.8135 141.13 -2.0902
13.2997 144.474 4.17471
-0.913231 137.291 0.706007
-18.1682 132.008 3.49113
-8.30589 131.943 -4.4359
-4.01407 134.724 -2.48492
-17.2181 135.903 10.173
-17.9219 133.91 6.41703
4.99953 140.758 2.31298
5.8821 140.805 1.60826
-3.26312 138.535 4.02268
-5.93026 138.58 6.09364
-6.21497 133.195 -4.59523
-17.5991 134.349 6.58549
10.2077 139.229 -5.2556
-17.0675 133.793 5.02154
20.512 144.104 -3.47173
9.04065 139.118 -4.63338
15.4804 142.615 -2.59518
0.90061 138.916 1.276
-10.9501 133.44 -0.539111
-15.8892 137.074 10.5656
16.3331 146.23 3.92505
8.98219 142.268 1.56701
-5.7401 133.687 -4.39454
20.0275 145.84 0.0395768
19.1578 143.421 -4.16571
-9.05298 132.942 -3.42178
-16.7568 132.451 1.31702
-9.72403 133.257 -2.53827
6.02603 139.313 -2.64956
11.6492 140.034 -5.57647
-6.68305 138.967 6.48351
13.047 145.495 4.27664
-8.8355 133.068 -3.76239
1.03272 140.52 3.58259
13.8044 145.952 4.57743
17.5536 146.626 2.97206
-7.92688 139.218 7.85898
19.9915 144.469 -3.43396
-3.2193 136.486 -1.86214
-12.377 134.098 0.446862
6.36039 141.373 0.519695
9.83502 139.925 -5.13459
6.91899 141.408 0.0297302
-16.6277 135.07 5.57689
-16.7155 135.453 6.40024
-4.37624 135.643 -2.92691
19.7766 146.33 -0.196753
6.9604 142.051 1.14978
15.1259 144.37 -0.539879
19.5422 146.438 0.0713244
19.6439 146.433 -0.102859
11.9178 140.968 -5.13206
12.8038 142.556 -2.63132
8.54282 143.086 1.75379
-15.8818 134.688 3.71545
-0.846959 138.955 0.592725
-16.6344 135.517 5.9248
-8.42022 139.947 8.42674
16.0096 143.829 -2.81649
-17.519 136.295 8.08956
-11.4485 139.844 10.4913
14.5559 144.392 -0.646027
14.7054 144.519 -0.601402
-1.63739 138.523 -0.048281
-1.99241 138.228 -0.544644
-7.68852 133.645 -5.44164
-14.3358 134.697 1.82437
6.65542 140.262 -3.31778
-15.8009 134.437 2.41177
-15.245 138.637 10.3884
4.31778 141.89 1.6037
16.8433 144.881 -2.14507
14.3679 146.992 4.00619
7.65291 143.58 2.32866
6.40951 141.922 -0.0992891
0.675915 141.423 3.287
-13.2604 135.336 1.79992
-12.5663 134.841 0.0721074
19.7312 145.743 -3.1158
-2.83392 140.6 4.0284
7.19965 140.697 -3.64969
12.7508 144.173 -1.02352
-7.14026 134.382 -5.33657
-11.4691 135.477 0.164136
-10.1897 140.924 10.1182
7.22167 143.751 2.18386
-12.4695 134.92 -0.347308
-10.1731 134.844 -2.42431
-12.7025 136.008 1.83578
15.919 147.745 3.20741
16.3216 145.687 -1.26019
4.9483 141.052 -1.75721
14.0963 145.164 -0.657389
15.8838 145.726 -0.925745
18.9112 147.341 -0.061466
16.8365 147.997 2.87713
0.546044 141.887 3.13885
7.25556 141.142 -3.62161
19.5867 146.628 -2.17585
-12.3621 136.385 1.91285
-6.16218 140.555 5.48895
11.0329 142.119 -4.79938
-6.02889 135.441 -5.00566
-2.24548 139.035 -0.778847
2.6449 142.477 2.30107
17.9394 147.848 1.19246
17.3306 146.061 -2.01942
-16.4048 137.101 6.15107
-0.0707721 140.677 0.623644
-6.93319 140.765 6.13083
10.3185 144.65 0.457218
19.3001 146.759 -2.32746
14.0033 145.581 -0.653048
9.66027 144.681 0.897356
-13.0857 136.346 1.6046
-8.69766 141.318 8.20866
-6.73903 135.463 -5.1477
-2.561 139.056 -1.18667
-1.16821 141.926 3.49317
0.243945 141.042 0.571223
-11.3155 141.322 10.078
-3.09253 138.739 -1.73416
7.42386 144.817 2.29193
16.3522 148.432 2.60929
1.63219 141.826 0.638983
-12.5274 136.926 1.69829
-5.28133 136.809 -4.30738
5.11772 141.787 -2.37854
-3.01332 139.027 -1.62649
-15.4482 137.141 4.14593
7.47753 145.03 2.16661
3.40171 142.919 1.038
8.12997 142.167 -4.25375
-16.3921 138.907 8.21755
-11.6616 136.995 0.62693
-1.60832 140.422 -0.392586
-8.48385 141.99 8.09083
-8.77437 142.141 8.51493
-15.3002 137.353 3.93046
10.2996 145.59 0.577743
1.99168 142.387 0.542716
-0.170434 141.595 0.429379
-5.32875 137.198 -4.44639
-9.08916 142.428 9.00481
-10.5891 136.262 -2.28861
-11.5862 137.779 1.53756
9.39993 142.617 -5.38474
4.38008 142.721 -1.32885
-3.65587 139.21 -2.22477
2.69587 143.369 1.19373
-11.6805 142.133 9.7476
3.60003 143.003 -0.493095
-7.8853 142.195 6.59545
-0.950219 141.727 0.0895774
10.2895 146.431 0.732669
-7.96516 142.381 6.75161
-4.56581 138.679 -3.41029
-15.205 138.137 3.77618
-13.8224 138.245 2.76446
4.38896 143.148 -1.56028
-8.95597 136.993 -3.60735
-12.0071 136.862 -1.63568
6.77311 143.303 -3.31263
-15.2581 138.4 3.9379
-16.1615 139.112 6.03652
11.7568 145.853 -2.15424
-1.61219 143.173 2.85039
10.2819 143.885 -5.002
11.1677 147.499 1.56608
-6.81582 142.468 5.42568
13.8386 147.316 -1.02976
11.9416 146.244 -1.74421
9.35798 146.465 0.681604
-15.6671 138.938 4.85544
-11.767 138.984 1.9068
-8.44369 137.416 -3.86907
9.51082 143.738 -5.21452
8.16135 146.496 1.323
-4.43904 142.686 3.41522
11.9494 145.73 -3.26138
11.1945 144.691 -4.77366
9.13177 146.67 0.823243
-7.85187 142.891 6.39501
-15.8073 139.248 5.23596
12.245 146.667 -1.80392
8.39708 146.686 1.21129
-11.1866 139.02 0.657194
8.6013 143.943 -4.92202
-8.8796 143.82 8.26666
-11.1501 139.245 0.749621
16.4983 149.144 -0.826515
13.7285 147.852 -1.47993
-8.38508 143.707 7.36202
-9.06414 137.952 -3.72163
5.37439 144.066 -2.74468
-14.843 139.557 3.89647
-11.8181 140.05 2.46275
10.9952 148.73 2.13954
8.36982 147.278 1.2184
-15.5591 140.019 5.20211
-7.0885 138.393 -4.7205
-6.3094 138.777 -4.55261
-2.90753 141.71 -1.5156
-3.59197 141.069 -2.38442
16.1114 150.18 0.340991
-11.3281 138.795 -1.34396
-6.56447 143.62 4.62646
-8.89141 144.206 7.5995
-3.40117 141.526 -2.13855
-1.13946 143.391 -0.185719
