ply
format ascii 1.0
comment Created by Open3D
element vertex 1844
property double x
property double y
property double z
end_header
-23.0836 142.056 5.55444
-28.0103 134.195 -4.22568
-18.7985 128.184 -3.10273
6.5312 106.567 -4.21048
-23.33 133.031 -2.00461
-14.075 136.359 6.88647
2.23275 125.616 8.78278
5.41809 113.413 0.782291
5.99567 106.888 -4.2281
-10.6436 114.785 -8.67523
-24.5789 133.012 -2.73224
5.37612 107.156 -4.333
-0.0943002 109.037 -6.36978
-0.302494 122.599 4.77261
-5.71545 109.503 -9.65541
5.42037 122.202 8.26862
-28.8663 137.198 -1.96582
2.3231 108.453 -5.13964
6.14465 112.763 1.01547
0.193493 108.783 -6.21055
-23.6431 133.834 -1.1794
-11.5623 117.808 -6.39796
4.4547 107.339 -4.47932
-6.00542 121.921 0.813789
-0.678478 121.304 3.83978
-4.32342 108.806 -8.92349
-6.38155 126.59 4.52353
2.45422 107.906 -5.12972
-12.4077 121.675 -3.53251
-22.6434 132.344 -1.44517
-3.01907 119.144 0.588567
-9.90343 134.062 8.43838
-6.85116 130.634 7.63093
-11.387 114.81 -8.44758
-6.06335 121.531 0.663294
-1.29233 120.245 2.76255
-12.0232 119.474 -4.93618
-20.5351 138.777 5.46433
5.94821 112.911 1.53357
-6.48922 126.268 4.39274
-29.4279 137.014 -1.74568
-19.6024 126.782 -3.72549
-1.4477 119.885 2.61483
-23.9822 133.028 -1.38005
-20.0732 126.539 -4.15309
-14.737 125.099 -1.8061
-8.79748 111.1 -9.47563
-21.2967 127.626 -3.99357
5.64629 119.756 7.30779
-25.6527 131.323 -3.79356
-12.3301 135.326 8.35226
6.88734 108.259 -1.37383
-11.7308 114.614 -8.36739
4.97786 121.761 8.65396
-11.8112 134.897 8.46773
-26.6885 131.543 -4.12308
7.39892 110.977 1.38601
-6.69647 125.738 4.31359
-6.82871 127.635 5.85752
5.44619 118.723 6.58385
-13.6497 122.643 -2.76108
6.81367 114.682 4.17609
0.193707 107.423 -6.22114
0.611885 107.32 -6.02481
3.33002 106.508 -4.89159
6.85024 111.829 1.89364
-14.7938 135.741 7.4503
4.77023 122.034 9.02737
3.95994 106.158 -4.67407
-12.2615 118.62 -5.02999
-27.8779 132.366 -3.95157
-19.1488 125.973 -3.47657
6.53179 114.978 4.4146
-8.20164 109.481 -9.84769
-3.67506 118.303 0.47591
3.58165 106.106 -4.82669
7.54328 110.719 1.67148
-9.20766 132.236 8.50757
2.44174 123.865 9.27131
-22.3381 129.583 -2.32824
-15.9087 135.453 6.79983
5.29393 119.08 7.24285
-5.23026 118.616 -0.087052
-26.2058 139.965 3.75705
-26.5101 141.389 4.77056
6.63924 106.86 -1.94561
-29.7541 134.252 -3.27801
-17.7845 134.645 4.98187
-3.57034 106.325 -9.09832
5.25776 119.214 7.45074
-22.485 129.805 -2.10441
-7.17576 128.523 6.96641
-22.7823 129.26 -2.74322
-26.9319 140.776 4.0695
-14.2672 135.353 7.94712
-22.47 128.722 -2.96023
-6.80338 121.473 1.40899
-13.0114 120.397 -3.5506
-6.87918 124.764 4.15891
-23.7487 129.667 -2.92313
5.53293 104.295 -4.57012
-23.9952 129.831 -2.87466
-15.6465 135.435 7.29986
7.27609 111.104 2.28818
-23.8585 131.308 -1.5169
-0.819347 121.502 5.59165
-3.13706 117.793 0.993424
-23.4222 139.416 5.54082
4.31068 122.236 9.65374
-24.3598 138.83 4.46031
-13.5308 134.981 8.43802
-30.3302 134.817 -2.76206
4.906 119.647 8.00606
-1.4447 105.603 -7.78807
-26.2592 139.108 3.64966
-12.5204 116.934 -5.66047
5.91304 112.71 3.07477
-4.70883 105.657 -9.80347
5.09644 103.958 -4.62974
-8.91015 130.941 8.51041
-29.0462 131.709 -4.09702
-24.2056 131.169 -1.33764
-7.31044 107.176 -10.0419
-12.8596 117.828 -4.81436
0.653925 105.292 -6.24482
-23.7955 129.046 -2.69794
2.70115 104.418 -5.55622
-24.2749 137.484 4.04325
2.61572 123.048 9.89097
4.94115 113.368 3.40968
-21.7645 137.189 5.51812
-30.809 136.333 -1.1512
-29.3044 131.501 -4.14469
2.21806 123.3 9.91358
-8.30665 129.619 8.1981
5.41283 103.345 -4.52684
-23.4251 138.189 5.37653
-30.1126 139.913 2.38633
1.63633 104.197 -6.23812
-0.384755 104.996 -6.87845
-20.456 135.213 4.9204
-21.5679 136.435 5.22228
3.97276 103.812 -4.93261
-27.8007 130.439 -3.82129
-23.3739 137.751 5.18678
-24.4857 129.235 -2.58221
-7.34221 122.949 3.54467
-21.8216 126.32 -3.23074
5.83967 103.113 -4.18466
-7.36245 122.508 3.18484
-25.5012 130.189 -2.43964
-25.5459 130.169 -2.48176
6.23526 104.062 -3.10782
-11.3218 132.751 9.13432
-9.47508 130.779 8.73969
-22.8027 137.488 5.49975
-21.7078 126.044 -3.23441
-17.8945 124.048 -2.21592
-26.5274 129.882 -3.06851
6.31305 104.343 -2.53397
-27.6064 129.206 -4.29758
1.37704 103.471 -6.46183
-31.2557 136.473 -0.659116
-25.9798 130.129 -2.43173
-2.3204 103.685 -8.68035
-2.45659 103.627 -8.80375
6.16026 112.143 3.9737
-24.7714 130.092 -1.58797
-27.6307 139.022 3.94396
-8.27827 106.988 -9.78382
-28.913 131.219 -3.32701
-31.1429 133.224 -3.11946
5.52024 116.581 7.32874
-23.6213 128.085 -2.38347
-19.793 123.589 -3.57882
-12.1933 132.875 9.18417
-26.4372 129.909 -2.69092
2.33657 122.644 10.356
-26.6649 129.89 -2.81373
0.777597 123.365 9.93434
2.2476 102.649 -6.26363
-1.07722 103.577 -7.66336
4.93894 102.104 -4.83799
-7.50672 118.768 0.767649
6.30778 104.093 -2.24071
-7.75912 125.689 6.41514
-31.5355 136.177 -0.578925
-23.4485 128.457 -1.59761
-8.4378 128.225 8.18886
5.44515 113.389 5.10992
-8.27869 127.92 8.09929
-25.0782 129.222 -1.83119
-7.90652 119.381 1.37868
-13.3539 115.004 -5.84748
-7.85856 125.551 6.54541
6.06559 115.711 7.60583
-18.9001 123.075 -2.76381
-25.0565 136.473 4.34248
-12.6769 110.735 -8.81488
-26.4013 129.092 -2.65019
-17.1391 120.937 -3.28427
-26.1926 129.574 -2.10557
-7.67619 123.04 4.73103
-24.7082 130.106 -0.633913
-16.0814 119.749 -3.50793
6.16023 103.368 -2.37843
0.867708 123.057 10.4584
4.17175 118.801 9.15813
-9.67816 129.338 8.73992
0.38898 122.437 9.68203
-13.4333 112.752 -7.47849
-21.551 124.199 -3.28214
-15.6259 119.095 -3.56324
-3.68946 115.56 1.40342
6.16716 115.305 7.72339
6.82662 110.281 3.99498
-8.06933 119.037 1.41217
-2.02351 118.645 5.09987
-31.9021 134.778 -1.27251
3.78219 119.388 9.56947
-25.3812 128.855 -1.8668
4.44798 118.031 8.90704
-24.9998 136.251 4.56525
-27.1773 136.894 3.66223
-0.893614 102.12 -7.75998
-29.5956 137.594 2.70047
-8.05991 119.433 1.90438
6.64784 111.246 4.84319
-32.1651 133.314 -2.50554
-26.1342 128.95 -2.13546
5.99228 102.759 -2.60862
-24.8142 128.192 -1.86869
-32.0401 137.171 0.807869
5.34692 113.455 5.89624
-1.75519 101.816 -8.4491
-24.3608 126.808 -2.6551
-8.17172 118.818 1.4983
0.889418 101.073 -7.2253
-18.0458 120.751 -3.3879
-8.16324 125.515 7.12217
-23.8696 127.859 -1.32169
-19.6116 133.691 6.34799
-20.2862 122.383 -3.45272
-6.44942 104.06 -9.49719
5.69814 113.907 6.71558
-27.1917 130.021 -1.66559
-13.7386 112.032 -7.69029
-8.18517 119.005 1.79789
-4.70788 102.053 -9.95641
6.10228 107.029 1.35718
-11.5169 108.259 -9.26699
-0.000464181 121.696 9.5504
-13.8463 112.922 -6.88517
-31.1249 137.875 2.42024
-5.70275 103.014 -9.65777
-22.8748 124.316 -3.31908
0.732416 100.391 -7.53025
6.61969 111.206 5.35204
-27.5527 127.968 -3.34362
-13.9198 112.567 -7.09171
0.232508 100.509 -7.70853
6.10635 104.946 -0.116638
-22.0216 134.629 5.97536
-1.55812 119.603 7.06142
5.46593 112.194 5.56321
-31.4773 130.559 -3.62683
-10.7192 129.402 9.19455
5.62959 112.046 5.6564
-4.84342 114.101 0.446761
-8.37434 125.276 7.43051
-14.3666 115.39 -4.72455
-5.7659 102.7 -9.54202
-2.63399 100.578 -9.22922
-13.9108 111.07 -7.95319
-8.05973 105.053 -9.05263
0.812573 99.8355 -7.46105
-25.7408 128.779 -0.984864
1.10365 121.475 10.7327
-4.36414 114.287 1.15263
4.38116 117.863 9.91905
-29.0671 136.617 3.37522
-25.7851 127.387 -2.10918
-8.25044 122.993 5.89422
-31.3862 130.105 -3.48446
-16.5638 116.947 -4.55031
5.20533 112.559 6.27357
-28.0628 136.125 3.82156
-15.5716 116.451 -4.23394
-25.5719 126.84 -2.20668
-22.801 122.829 -3.7015
-7.70436 115.271 0.0150962
-10.4613 128.381 9.07175
-32.4589 131.058 -3.16716
-25.2651 123.605 -4.58756
-24.9094 126.917 -1.52304
3.12082 100.097 -5.21016
-31.5118 129.807 -3.45806
-25.8419 124.265 -4.29639
0.828995 99.3301 -7.33701
-8.49394 123.943 6.93215
-19.0987 119.696 -3.59653
2.38298 100.036 -5.66796
5.93925 104.056 0.0437006
-24.6495 135.226 5.71052
-23.9215 123.287 -3.70343
2.59435 119.812 11.0121
-25.7092 129.52 0.385824
-14.1552 109.07 -8.9062
-14.2393 109.28 -8.78063
7.25151 108.126 4.56851
-7.93085 114.65 -0.0366554
-8.68044 124.332 7.52938
5.91206 103.693 0.0646417
-28.0821 127.377 -2.75942
-4.57962 113.516 1.324
-19.0068 117.131 -5.21891
5.39397 112.182 6.82469
-8.6278 123.47 6.9225
-19.0142 117.436 -4.9512
7.0071 106.8 3.43799
-6.42414 101.98 -9.40372
-26.7396 127.904 -1.30095
-6.85395 113.318 -0.239117
-1.60145 119.021 7.97395
-25.8847 128.878 0.0941646
5.92822 103.306 -0.0614029
-8.50876 119.737 4.02579
-7.76993 113.992 -0.252044
-8.73145 117.922 2.3765
-26.0607 129.393 0.44116
-23.5234 122.36 -3.69792
-30.3575 136.326 3.39205
-10.5328 127.441 9.13754
-6.1475 112.828 -0.0844454
-19.8085 117.458 -5.27364
-8.67192 123.042 6.76051
1.87542 119.793 11.046
-0.0823232 98.5745 -7.85507
5.72701 105.715 1.94203
-3.42544 114.921 3.5276
-23.9029 134.016 5.82618
-4.09368 113.692 2.11229
-32.0824 129.198 -3.51746
1.35604 120.079 11.0479
-10.9476 105.594 -9.07562
-21.0743 119.667 -4.03709
5.56462 100.712 -2.13343
-13.4231 130.908 10.362
-20.481 117.156 -5.71369
6.98338 108.809 5.54339
5.95342 113.7 8.92136
-23.3209 121.605 -3.87011
-28.597 127.249 -2.6701
-27.028 127.123 -1.64462
-0.354542 120.377 10.4243
-18.9763 115.295 -6.04752
-30.5697 127.419 -3.63423
-14.2166 108.212 -8.73829
-2.45299 117.402 6.7723
-2.67097 116.926 6.25583
-27.0095 128.145 -0.53216
-33.249 131.999 -1.45252
-13.53 130.69 10.5082
-24.5018 134.203 6.21943
-15.6562 113.123 -5.37709
-31.4562 136.28 3.39198
-26.538 126.528 -1.40781
-31.827 136.43 3.32061
-10.3178 125.992 8.92385
-28.3925 127.479 -1.79323
2.26435 98.9776 -5.1374
-18.1439 114.059 -6.06814
-8.86734 121.309 6.09251
-6.1892 111.75 -0.034802
-8.90388 118.471 3.7507
-8.93947 122.073 6.71709
-5.91619 100.052 -9.52523
-12.1432 128.663 10.1646
6.32624 111.487 8.17816
-15.2552 110.831 -6.63194
-25.0125 134.438 6.51421
-29.4859 135.768 4.69165
1.34691 98.1494 -6.10805
-32.0979 136.313 3.43837
-9.88366 124.586 8.413
-8.73286 113.63 0.104907
-2.16794 117.726 7.90234
-22.6801 118.962 -4.63666
5.59239 100.341 -1.35215
-33.4379 131.173 -1.58261
6.50154 111.213 8.29116
-8.67167 103.182 -8.39535
6.2551 105.366 3.31477
-13.873 130.333 10.7298
-27.2835 135.767 6.37118
-11.953 127.885 9.97398
-28.2782 128.436 -0.342715
-33.5783 133.683 0.598948
5.48793 103.855 1.71226
0.764522 97.3145 -6.80981
-1.89725 97.6997 -8.23064
-9.317 114.088 0.464586
-12.0374 127.782 10.0292
-20.3855 131.487 7.58048
-26.9337 129.42 1.56577
-23.7174 132.266 6.08088
-21.4412 131.775 7.23091
-3.05119 97.8631 -8.69114
-17.6256 130.902 9.08846
-12.4056 128.15 10.2839
-8.32829 112.016 -0.383433
-8.97998 112.922 0.0664687
-9.62157 122.75 7.80008
-17.047 130.719 9.56563
0.110009 118.677 10.9411
-33.7383 132.537 0.0682834
-4.16974 112.802 3.27454
-17.3147 130.655 9.49182
-28.6944 128.432 0.130782
-9.75824 114.523 1.13794
-4.69833 98.0681 -9.16369
-26.456 124.87 -1.30888
-8.26372 101.859 -8.34542
-3.31052 115.108 5.9493
-15.2363 130.053 10.4737
-28.9033 135.528 6.00163
-23.3124 131.564 6.41339
-26.61 135.011 7.16812
-33.0652 135.8 3.55653
0.0931214 96.3545 -7.23474
-26.6173 124.904 -1.20796
-26.7647 127.272 0.679793
-11.2246 103.98 -8.30574
-18.3494 130.643 9.15146
0.239167 118.201 11.1581
-28.2564 128.293 0.687231
-8.15689 110.982 -0.335883
-27.297 127.631 0.848161
-27.7145 128.456 1.2641
-33.2876 135.264 3.22945
-16.2377 130.065 10.2339
-15.4755 106.978 -8.41485
-3.31454 115.045 6.34347
-6.90963 110.108 -0.122099
-7.60705 99.7931 -9.10125
-8.41956 110.934 -0.367449
-9.60441 116.268 3.27557
-3.0731 96.9702 -8.40109
2.17048 97.3245 -4.63163
-28.0213 124.834 -1.75238
-29.0689 127.006 -0.628953
1.53969 96.7188 -5.51092
5.46752 101.774 1.33787
4.61457 113.147 10.2192
-23.9628 131.75 6.76517
-20.2362 131.299 8.89708
-8.61373 101.453 -8.1592
-27.2539 127.046 0.757184
0.321619 117.627 11.2037
-10.1281 122.11 8.01273
-29.3916 135.103 6.07301
-5.39374 110.741 1.77568
2.00505 96.9018 -4.80324
-27.7412 127.441 0.909643
-0.784693 96.0347 -7.30123
-7.59069 109.942 -0.23946
-18.6194 130.29 9.40428
-6.55439 98.0418 -9.32503
-9.52621 118.222 5.46922
-12.6061 126.472 10.2897
-4.37425 111.977 3.7087
-28.4965 128.297 1.29457
5.55155 104.025 3.71428
-4.22527 112.36 4.18922
-16.836 109.471 -6.54896
-25.9547 133.819 7.64057
-6.14553 97.5921 -9.26379
-27.8565 126.877 0.713446
-27.675 134.81 7.42949
-11.725 124.572 9.49951
6.45674 107.196 7.11824
-28.1832 128.289 1.70622
-9.58628 117.369 4.95574
-29.9615 134.812 5.99699
-25.5443 117.05 -5.81549
-23.2698 115.003 -6.00607
3.05803 96.9769 -3.53845
-26.2085 118.022 -5.37106
-11.2712 123.502 9.08632
-27.3249 127.103 1.48012
-32.0696 126.121 -2.43796
-5.82057 97.0526 -9.18681
-27.7015 127.778 1.83502
-23.4873 114.987 -5.9898
-13.2121 126.933 10.7369
-32.4679 126.249 -2.54489
-28.7952 128.797 2.00011
-25.3072 116.29 -6.01883
-10.0618 111.574 0.205414
-13.3582 127.018 10.8422
-2.7377 115.748 8.52909
3.4079 113.644 10.8623
-31.2847 125.97 -1.85022
-24.5075 132.698 8.23232
-33.9331 132.959 2.21835
-18.8714 110.571 -6.39018
-18.6342 130.154 10.0217
-28.8534 129.506 2.72405
-10.0582 120.21 7.47342
-10.1787 113.212 1.5968
-7.13576 109.018 0.137917
-4.59258 96.3222 -8.69365
-12.0682 124.191 9.56202
-9.74212 117.243 5.35035
-18.4479 109.978 -6.41267
-33.6614 133.596 3.12922
6.3326 107.689 8.12096
6.33525 106.973 7.56142
-28.1821 126.993 1.35643
-34.4233 130.554 0.242079
-4.65605 96.0976 -8.64513
-32.4348 134.883 5.21853
-27.1978 130.656 5.20367
-27.6987 119.772 -4.13463
-1.48309 116.454 10.4574
-11.3454 122.456 8.96125
-33.5933 133.773 3.64532
-28.8455 127.371 1.48146
-24.7093 132.514 8.52173
-13.3435 103.401 -8.08904
-26.2276 133.681 8.54744
3.22878 112.968 10.8638
5.27037 99.6744 1.19331
-7.43419 97.1387 -9.29215
-4.10668 112.437 5.6317
-28.9194 124.209 -1.01165
-24.8869 132.104 8.22341
-3.69509 113.744 7.11091
-25.051 130.949 7.29059
-13.5391 125.991 10.7935
-27.4707 134.027 8.25051
-1.14984 116.245 10.9194
-27.6763 128.019 3.16742
-33.0701 127.349 -0.954584
-3.01872 114.895 8.61286
-29.1363 121.259 -3.35779
-29.2481 129.239 3.19357
-22.1118 112.169 -6.20143
6.04713 104.272 5.89773
3.0385 95.1305 -3.66096
-6.69153 96.2714 -9.13024
-34.6516 129.841 0.234564
-33.3805 134.443 4.92704
-24.739 131.838 8.48323
-22.3999 112.665 -5.85851
-29.2873 133.993 7.299
-26.2605 115.797 -5.78044
-19.1011 108.726 -6.86506
-24.0942 131.185 8.48316
-4.78735 110.379 4.00172
6.04668 106.009 7.59439
-26.8684 131.071 6.62446
-22.0353 129.4 8.43838
6.01383 103.986 5.9179
-7.84539 96.7148 -9.28062
-3.97454 95.111 -8.02925
-26.5779 115.922 -5.63968
-23.4709 113.418 -5.659
-21.6727 110.405 -6.96751
-28.7501 126.371 1.69204
5.86963 102.796 5.03515
-19.4037 108.38 -7.03931
-13.027 102.45 -7.68166
-30.5088 133.629 6.62986
5.07184 100.744 2.88944
-32.7865 125.977 -1.15317
-3.24103 93.9855 -8.08791
-11.1281 101.211 -7.2606
-26.7197 131.456 7.55051
-29.4679 120.729 -3.15218
-12.5781 122.563 9.59387
-25.9558 130.197 7.08029
1.48119 94.4416 -4.43107
-29.3259 127.769 2.84397
-28.7277 130.318 5.35956
-25.7872 130.216 7.24539
-32.5237 133.88 5.83738
-4.71534 110.465 4.81586
4.85835 101.394 3.63029
-7.02292 95.6302 -8.9683
-31.9671 133.657 6.08718
-30.3011 128.908 3.352
-28.5726 118.909 -3.77864
-1.67112 115.037 10.8205
-29.1852 130.134 5.14751
-11.0158 119.271 8.15672
-2.88175 114.468 9.56977
-26.0982 114.552 -5.69186
-1.41465 115.078 11.0844
-34.9874 129.391 0.795849
-2.55527 114.757 10.1203
-30.6932 129.063 3.38296
1.10449 94.0276 -4.6463
-10.4215 115.245 5.33541
-23.0194 110.686 -6.7512
-1.60943 92.408 -7.75135
-10.9327 118.61 7.83922
-26.2076 114.473 -5.69028
0.38257 113.965 11.5865
-28.8291 128.156 4.05508
-27.4624 130.59 6.97958
-3.46557 113.462 8.65064
5.68429 106.32 8.77795
-26.7213 130.01 7.04485
5.58582 106.399 8.85904
5.82757 102.375 5.73674
-10.9817 100.39 -7.02292
-30.0618 120.893 -2.62466
-10.5117 115.776 6.08977
-29.4314 127.107 2.98773
-30.1188 128.899 4.02026
4.28525 97.0998 0.405729
-27.6791 130.311 6.85381
-7.10149 95.0343 -8.80238
4.81103 98.4177 1.89035
-19.3631 106.708 -7.21438
-29.7938 126.308 2.17801
-14.371 124.486 10.9016
-25.4436 113.249 -5.6629
-29.2551 128.929 4.86847
-6.1192 94.4171 -8.4518
1.32068 112.313 11.3295
-8.89323 96.3845 -8.62902
-14.088 101.85 -7.49999
-28.149 129.854 6.47665
-10.7649 116.606 7.02076
0.655558 92.9439 -5.00823
-20.0634 106.704 -7.28277
-11.1214 117.693 7.7769
4.64164 100.546 4.00963
-10.8627 99.7939 -6.82474
-33.2936 132.998 5.92675
-4.45413 111.172 6.90054
-29.7661 125.659 2.19103
-9.71243 106.764 -0.207733
-30.5401 128.831 4.40552
-34.3002 132.722 5.16169
-24.0198 111.131 -5.93293
-24.0274 111.07 -5.96492
-11.1818 109.495 1.25285
-11.2683 117.176 7.68781
-20.5155 129.292 11.6274
-24.0049 110.157 -6.52754
-35.2904 129.686 2.21926
-10.8002 114.294 5.68608
-23.9459 109.996 -6.57419
-34.5204 127.484 0.941843
-5.84465 93.0864 -8.62375
1.26272 111.285 11.1886
1.1944 111.332 11.1929
-29.6499 118.643 -3.1181
-29.8146 118.91 -2.99842
-1.70041 113.595 11.2012
5.73798 104.27 8.40775
-18.948 105.008 -7.2844
-29.6306 122.442 0.128761
-34.1972 132.736 5.65031
-18.5858 127.504 11.6574
-30.4092 129.175 5.25997
-23.9372 109.767 -6.50017
-34.8998 127.869 1.2812
-30.7729 128.97 4.94093
-29.2214 132.07 8.54279
-30.1181 121.467 -0.843982
-13.9185 121.78 10.1352
-18.8943 127.631 11.7078
-29.7394 118.349 -3.12139
-27.3091 129.242 7.56867
-27.0099 129.275 7.83143
-27.9332 129.211 7.17954
-28.8886 128.343 5.84672
-13.9164 121.401 10.0812
-27.0937 113.289 -5.36438
-3.30001 90.5119 -8.47769
-11.0216 111.403 3.76566
-11.1844 115.28 6.899
3.49385 107.703 10.3789
0.484441 91.4395 -5.06655
-29.6486 127.26 4.72735
-13.2144 119.907 9.50736
-27.5223 128.3 7.0207
-29.3732 125.463 3.44941
2.93705 92.9516 -2.09295
-30.2686 123.986 1.70489
-28.2105 130.04 8.1576
-34.4889 132.191 5.79531
-30.2982 122.201 0.299507
-11.1561 114.158 6.30938
2.63719 108.27 10.5556
-20.658 128.772 12.158
-26.7732 129.046 8.35629
-20.2117 128.299 12.0916
-26.0835 129.176 8.95267
-35.145 130.797 4.30364
-33.0697 126.957 2.55696
-23.9455 109.044 -6.26895
-29.6214 128.293 5.98381
-20.4348 105.996 -6.38027
1.77307 109.116 10.988
-29.5701 129.592 7.26983
-32.1744 129.846 5.76807
-35.3304 130.413 4.15397
-19.5278 127.321 12.0474
-35.6511 128.27 2.17557
-35.2648 130.594 4.36378
-30.6278 128.634 5.80605
3.50405 106.765 10.2433
3.47681 106.775 10.2575
-27.8355 127.342 6.64592
-32.8306 131.695 6.98895
-13.8931 119.946 9.8016
-11.8403 106.374 -0.0847309
-14.3392 100.364 -6.72134
-28.9829 128.514 6.9734
-24.1149 128.708 10.3867
-30.9081 128.846 6.04326
-14.0064 119.867 9.8187
1.56398 108.835 11.0193
-11.7112 108.018 1.57849
-25.9205 111.144 -5.18724
3.30098 106.555 10.3388
-29.4412 115.47 -3.92202
-11.7495 106.065 -0.0101861
-26.7644 128.544 8.72115
-31.0581 131.436 8.33138
-12.5758 116.823 8.48438
-18.327 125.442 11.8708
-12.647 116.868 8.54908
3.89848 95.5958 1.84634
-30.7805 123.009 1.69928
3.17636 93.8153 -0.00162054
-30.1151 116.263 -3.39513
-6.01315 90.8682 -8.51845
4.92775 99.5743 5.98214
-25.9737 110.507 -5.3841
-12.3036 98.6134 -6.1624
-25.8327 109.712 -5.89413
-11.8323 114.69 7.52721
-5.25906 90.0538 -8.50735
-24.6633 127.929 10.1021
4.38027 98.9096 5.26877
-12.1577 105.776 0.112459
4.42716 104.261 9.86636
-2.0972 111.535 11.633
3.94588 104.971 10.2017
-21.4539 105.912 -5.77899
-35.0731 130.96 6.0838
-28.4836 113.629 -3.88953
-30.6812 124.151 3.39986
-20.4371 126.956 12.519
-22.5157 127.74 11.7987
-13.9428 117.754 9.21305
-19.6538 126.051 12.3356
-11.5704 105.177 0.362046
-11.5286 111.354 5.52982
-18.7127 103.355 -5.85386
-30.7471 129.121 7.60568
-4.50858 110.163 9.29116
-32.8219 128.747 5.98607
-16.4617 100.807 -6.37366
-24.3003 127.936 10.9682
-11.5308 110.25 4.77541
-2.13657 111.099 11.7129
-27.0016 110.643 -5.09376
-31.0467 128.526 7.08168
-11.9566 105.194 0.360209
1.8443 106.79 10.866
-18.1597 102.298 -6.08538
-4.96034 107.475 6.98488
-4.93213 88.4498 -8.72335
2.71198 91.5385 -1.03779
4.58362 98.3389 5.86322
3.16085 93.483 0.914003
-0.0980743 108.542 11.2585
-11.2107 94.7652 -7.51911
4.20122 96.5515 4.19573
1.27641 88.9565 -4.04071
-27.313 110.447 -5.07174
-22.4149 105.65 -5.81085
-23.3199 127.725 11.9156
1.51847 88.9083 -3.86128
-16.2882 120.771 10.8311
-22.483 127.544 12.3592
-12.7251 114.278 7.84062
-31.5712 121.114 1.06741
-29.1672 125.219 6.06451
-31.8023 120.752 0.641359
-10.622 102.999 -0.0700391
-17.2314 100.973 -6.11905
-17.7611 122.833 11.681
-24.5703 127.015 10.6507
-28.9167 125.441 6.47531
-34.4682 130.518 7.06126
-0.902185 109.029 11.4358
2.77642 105.176 10.692
4.92225 101.589 9.1473
-11.0935 103.254 -0.0497366
-20.633 103.753 -5.93209
-22.5676 105.384 -5.84919
-16.5735 120.589 10.7646
-22.4646 105.288 -5.81965
-32.0574 127.95 6.64391
-4.79538 107.818 8.00097
-33.7407 130.183 7.51906
-11.8166 95.4061 -6.80652
-2.98457 110.311 11.4112
3.77423 94.6075 2.86812
-10.3501 92.4308 -8.27837
-16.7451 120.339 10.6807
-16.4426 119.888 10.5496
-27.6452 109.708 -5.29154
-14.1537 115.747 8.65106
-1.32868 108.98 11.5631
-17.5526 121.726 11.4103
-7.50849 89.8623 -8.35794
-20.1876 102.856 -5.895
-28.3677 125.339 7.36388
4.06315 95.5461 4.10105
-13.716 98.1874 -5.46436
-3.16776 109.99 11.3471
-27.2203 108.201 -6.0364
4.15909 102.427 9.93417
-27.5282 126.155 8.6914
-9.17966 103.631 2.17478
-24.0424 126.183 11.0921
-13.4704 114.299 8.23044
-35.6163 129.756 6.41984
-25.1531 106.577 -5.89168
-3.01044 109.839 11.5073
-11.8678 109.159 5.08669
-0.830193 87.6603 -5.43243
-14.9556 98.83 -5.48431
1.07599 106.141 11.2004
-30.4076 122.048 3.58405
-13.0772 113.049 7.62818
-30.8178 114.378 -2.99784
-0.46735 87.6689 -5.03888
-32.1749 118.298 -0.541991
2.82121 91.6057 0.561627
-10.3048 91.4501 -8.17119
-10.3154 102.064 0.642838
-13.3594 105.009 1.13825
3.51913 93.6937 2.94164
-7.84847 89.2971 -8.22473
-26.2278 106.83 -5.8051
-7.49002 105.057 5.13049
4.88235 97.2199 6.81214
-13.6148 113.454 8.0623
-20.9947 102.499 -5.90656
-34.8215 128.319 6.41684
-15.955 116.692 9.26579
-16.0026 99.2453 -5.20245
-16.6693 117.902 9.83885
-23.3936 103.98 -6.07599
-29.7554 121.644 4.40386
0.173458 87.2291 -4.33439
-8.24715 89.3297 -8.14119
-12.0285 93.418 -7.13641
-15.8116 115.81 8.96563
4.48858 100.348 9.56946
-29.2886 111.213 -3.74826
-13.7196 104.866 1.30691
-20.5537 123.292 12.0833
-34.2952 128.876 7.63238
-31.1633 113.788 -2.81151
-1.82866 107.838 11.6711
-19.4074 101.429 -5.21906
-33.6394 127.582 7.07843
-34.4972 128.567 7.35833
-3.97722 85.2321 -8.40776
-29.5278 121.089 4.44962
-13.3203 111.525 7.27916
-23.7266 125.163 11.748
-8.14269 104.47 4.90048
-27.2452 125.014 9.36274
-11.0857 101.29 0.380336
-1.75947 85.9672 -6.12438
-27.704 107.354 -5.48427
-33.414 127.46 7.46476
-18.0181 118.513 10.2735
-26.0318 105.513 -5.79054
-21.4722 124.045 12.6074
-20.4696 122.342 11.917
2.15933 102.872 10.7368
-9.33456 89.426 -8.02228
-8.29908 88.5308 -8.04676
-13.0669 94.8067 -5.98734
-12.6347 107.637 4.97475
-14.9887 97.5989 -4.89748
-24.8453 125 11.3254
-24.1234 103.458 -6.06107
-31.9876 115.009 -1.66155
0.785014 104.467 11.273
-1.85075 85.5464 -6.16218
-8.82853 88.8166 -8.0139
-28.8563 122.127 6.37809
2.72088 90.5098 1.08915
2.36623 102.094 10.5168
-36.8138 127.762 5.96465
-3.61022 108.079 11.5987
1.5396 103.357 11.1072
-5.64007 106.666 9.11769
4.72928 98.524 9.22714
-31.8382 114.149 -1.97244
-26.7054 124.697 10.2074
-14.9563 113.071 8.37617
-20.2694 121.174 11.6069
-1.11649 85.6894 -5.15335
-12.8063 93.3461 -6.4839
-26.8035 124.36 10.0095
-4.45334 108.023 11.2485
-25.271 124.665 11.3207
-36.3226 127.192 6.10745
-22.2677 101.77 -5.68572
-3.73811 107.741 11.5406
3.27821 100.287 10.0276
-29.8531 110.805 -3.11452
-27.6615 122.773 8.27716
-29.8945 110.798 -3.11406
0.617611 86.0848 -3.32454
-27.265 121.038 7.25941
-4.5418 84.1234 -8.26283
-12.4769 100.59 0.168256
-22.2244 123.786 12.9699
-26.2508 123.538 10.1018
-30.9026 119.374 3.6119
-22.6553 124.277 13.1489
-30.4733 110.856 -3.09288
-17.8714 116.402 9.85667
-27.6606 119.947 6.32871
-27.1861 122.237 8.56759
-1.30267 84.9274 -5.25143
-14.0496 108.551 5.94494
-10.5611 103.062 3.77293
-26.7814 122.466 9.17167
-12.3768 100.288 0.32828
-3.35828 84.0025 -7.20286
-32.0817 117.948 2.03838
-0.900159 84.9224 -4.70204
-19.8368 99.8916 -4.72939
-4.20451 83.4087 -8.05349
-27.1121 120.531 7.60412
-30.5611 118.98 4.0666
-5.46112 84.4298 -7.96152
-20.045 119.525 11.5467
-26.5456 121.376 8.7841
3.49974 93.1409 5.26204
-10.6135 103.064 4.16168
-4.31338 83.2225 -8.12288
2.7632 87.1472 -0.11892
-25.2038 123.8 11.8134
-0.950953 103.897 11.343
-31.8655 117.883 2.51512
-16.3842 96.642 -4.79639
-11.4056 102.433 3.32219
1.02967 101.968 11.1664
-32.5028 113.969 -0.879348
-7.20053 105.287 8.69484
-27.8084 105.054 -5.05984
-32.2781 111.924 -2.26445
-13.5726 92.1574 -6.28938
-15.3601 102.368 1.01061
3.34595 92.5952 5.30368
-6.6677 105.469 9.36957
-29.4967 107.057 -4.37207
3.12171 90.9444 3.84052
-5.09571 106.212 11.1621
0.245364 84.9896 -2.90637
-23.0472 122.982 13.2209
3.83064 97.3433 9.73601
2.42274 99.0617 10.2343
-17.9166 114.565 9.66275
-14.4124 93.0176 -5.89209
-16.7872 112.748 8.94725
-20.4326 119.149 11.8597
4.82527 94.4118 8.04408
-7.68978 86.2917 -6.83526
-1.00679 102.971 11.4286
3.84159 93.0118 6.3895
-14.8928 93.373 -5.66663
-14.6057 92.9554 -5.80406
-27.7188 119.209 7.3248
-25.8213 121.318 10.3354
4.83485 93.7427 7.85186
-18.8326 97.2496 -4.81254
-13.9871 91.7832 -6.11592
-32.6054 113.663 -0.242958
-25.7082 121.566 10.8866
-12.8436 99.0046 0.696092
3.28346 97.3143 9.98178
-16.7878 111.984 8.87661
-20.1056 98.4076 -4.53397
-4.02562 104.859 11.4629
-29.1934 105.96 -4.25477
-1.22565 102.595 11.4808
-0.128008 101.622 11.4159
-23.1945 122.135 13.1846
-18.7466 115.244 10.417
-23.1547 121.986 13.1311
-12.5792 101.318 2.99036
-27.1081 119.57 8.53283
1.76815 98.9354 10.523
-17.0002 112.048 8.99696
-4.33105 81.9418 -7.54607
-26.7191 103.054 -4.83751
-32.4722 109.611 -3.1969
-22.7514 121.243 12.8915
-0.807646 83.9166 -3.55589
-30.74 116.315 3.55984
-29.873 116.814 4.56585
-8.21971 86.1162 -6.56758
-14.4197 98.4533 -0.41341
-4.48785 104.671 11.3616
-16.3552 110.66 8.52582
-3.96454 104.37 11.5108
-24.9095 121.927 12.2383
-7.22632 84.4216 -7.1633
-21.9243 99.2704 -4.56217
-10.9194 102.938 5.77258
-3.61173 104.118 11.6147
-16.8355 111.265 8.83567
-30.4881 116.031 3.77371
-10.7533 87.4634 -6.86715
-29.9767 105.837 -4.30497
-13.0138 100.977 2.89313
-9.43239 103.798 7.61462
-9.95198 86.8845 -6.70538
-19.16 96.5888 -4.74403
-25.0387 121.635 12.1541
-19.5611 96.804 -4.76944
-32.1262 108.364 -3.45593
-19.7144 116.34 11.3772
-0.403752 84.0246 -2.58662
-31.9506 108.064 -3.50686
3.04353 96.5822 10.1166
2.90768 88.0194 2.96154
-32.291 108.326 -3.47245
-15.3998 99.3717 0.319245
3.67088 91.5505 6.46796
3.08152 88.9161 3.9739
-6.57396 103.182 9.4441
4.00552 91.7118 7.00472
-21.0693 117.956 12.2201
-27.2071 102.538 -4.61255
-25.9884 120.387 11.0168
-0.858105 83.493 -2.96465
-4.39 103.409 11.2393
0.74394 84.6582 -0.906079
-15.5768 99.2263 0.38976
-11.9318 87.8876 -6.52614
-16.0767 100.32 1.16649
-26.8076 101.201 -5.11753
-7.35116 102.807 9.09554
-26.9291 101.336 -5.01217
-26.219 119.801 10.786
-14.3072 89.7808 -6.23904
-3.25272 102.341 11.5249
-32.6197 112.01 0.159613
2.66727 96.0178 10.2376
-23.8169 99.2718 -4.56885
-5.58402 102.344 10.2157
-28.005 102.678 -4.32557
-17.9425 110.967 9.24922
-9.48666 85.321 -6.40977
-30.228 104.397 -4.24751
0.829769 97.7927 10.8704
-28.8337 103.31 -4.15857
-33.1365 107.981 -3.08046
-2.73592 100.919 11.1919
-14.7521 105.622 7.14549
-12.3571 87.6116 -6.20601
0.979346 97.4152 10.7606
3.19102 88.5883 4.95011
-6.27973 101.765 9.79073
-16.32 99.1835 1.0218
-18.8356 111.822 9.85177
0.923472 96.9082 10.6206
-31.6307 104.812 -4.33413
1.54308 84.2154 0.543674
2.69943 94.8369 10.1471
-23.3608 98.1264 -4.31797
-5.09271 80.3507 -6.96113
-19.6328 112.675 10.2635
-20.4346 95.4362 -4.54255
3.55936 89.696 6.57451
0.799018 96.6765 10.5912
3.4439 93.4073 9.68019
-28.2593 101.655 -4.38286
-7.35941 80.4146 -8.13407
-1.84363 98.9273 10.9089
-15.2012 104.653 6.85596
-4.76539 80.2526 -6.39433
-20.3731 113.529 10.9039
-16.5221 98.6498 1.12695
-18.3256 109.464 8.91929
-31.6947 114.342 4.14117
-5.1636 101.052 10.6891
-10.2267 83.9902 -6.80082
-8.20296 80.7961 -8.08916
0.51205 96.2866 10.5402
0.547212 96.2512 10.5402
-15.9694 102.929 5.18167
-9.0371 81.5994 -7.89885
-10.0563 83.0914 -7.31232
-1.35539 98.2993 11.0807
3.08324 93.305 9.87465
-23.4409 97.3578 -4.30267
3.51737 85.7 3.88065
-25.8526 118.67 11.8862
-1.82986 81.6764 -2.91246
3.28212 88.0942 5.79575
-10.372 83.7752 -6.80607
-0.455857 96.8717 10.6761
-16.3954 97.23 0.442225
3.35182 88.2677 6.14327
-29.1424 115.421 7.27733
-3.67511 99.3159 10.7624
2.67801 84.3991 2.71987
-28.7455 100.902 -4.36291
-28.6728 100.754 -4.4341
-7.33486 79.0505 -8.29275
4.2027 89.5118 8.02339
-17.2323 96.4708 -0.364686
-8.45462 100.795 9.04958
-6.98228 100.416 9.76245
3.91415 90.4689 8.76279
-17.1551 106.279 7.9995
0.178339 95.4984 10.5284
-33.6303 106.624 -2.56561
-14.9117 97.7354 2.4459
-15.5713 103.328 6.65641
-30.5025 114.614 6.17886
-21.2762 114.25 12.0022
-20.8914 113.02 11.2488
-16.9568 98.1992 1.55863
-28.7986 100.306 -4.49503
-0.385376 82.6135 -0.36453
-17.4756 96.8881 0.178763
-26.2659 117.557 11.5213
-6.86 100.114 9.88608
-11.2578 84.8011 -5.70998
-10.9396 100.003 7.13087
-33.026 104.031 -4.11433
-24.0385 96.446 -4.44502
-25.6481 97.6588 -4.49993
-3.24519 98.0915 10.6941
3.2327 91.248 9.3137
-16.12 89.9099 -4.58253
-23.9294 96.273 -4.45718
-24.4924 117.271 12.6291
-16.4926 96.3214 0.649621
-33.7881 112.212 2.39606
-15.5839 103.61 7.31596
3.29739 84.3774 3.85992
-11.757 85.4614 -5.18692
-15.6297 103.079 6.89761
-31.0449 114.203 6.033
-19.9211 109.77 9.78736
-11.5868 84.457 -5.64689
-23.6159 115.995 12.581
-31.3249 101.755 -4.3239
0.407564 94.4048 10.5827
-22.3335 114.957 12.6192
-7.9747 78.2935 -8.25778
-15.3786 97.993 3.20156
0.367862 82.5326 0.792559
-5.98627 99.1306 10.3813
-33.0949 112.597 3.65921
-2.57826 80.1525 -3.05855
-8.03795 78.2232 -8.24508
1.57542 93.0308 10.4273
-18.269 91.5444 -3.91865
-7.38838 98.4642 9.03396
-15.6034 98.6626 3.77256
-9.88872 78.9532 -8.74435
1.22737 82.9337 1.94188
-2.40001 80.3471 -2.5941
-28.9599 115.053 8.64981
-6.90101 97.8652 8.98335
-15.5515 97.3771 2.85969
-14.1912 86.9389 -4.88557
-5.37258 97.9281 10.1031
-14.8414 87.3019 -4.95367
-2.27726 96.4223 10.9966
2.2544 83.5675 3.398
-20.4458 109.896 10.2382
3.95838 87.8216 8.10949
-11.0923 79.8968 -8.41991
-8.11883 97.8446 8.44498
-17.2972 94.7849 -0.133141
-32.4966 112.858 4.83763
-33.9047 103.839 -3.55334
-16.3182 101.837 6.45597
1.54716 83.0237 2.69626
-28.8132 98.3463 -4.63968
-30.9538 100.486 -4.16144
-17.3109 94.5026 -0.0897499
-17.7637 94.751 -0.0462511
-8.20778 77.5293 -8.00474
-33.9879 109.507 1.47716
3.48958 83.3774 4.59023
4.0517 87.5986 8.54346
-3.80982 96.598 10.8377
-21.3979 111.371 11.4843
-17.2476 95.629 1.19132
-7.75561 97.0955 8.71598
-33.5289 111.649 3.80782
-30.7653 113.644 7.32687
-26.9365 96.3719 -4.4461
-19.6936 107.272 9.41783
-11.4203 78.7942 -8.72911
3.03452 88.955 9.27206
-17.3922 94.8545 0.667465
-12.2461 98.6261 7.20249
-18.1016 96.2752 1.42613
3.72141 84.7127 6.31468
-18.1248 96.2328 1.43531
-22.1488 112.81 12.5727
-30.1572 99.1026 -4.09724
-16.6114 94.8024 1.30995
-34.4815 106.056 -1.11208
-24.9233 114.932 12.5943
-30.1557 113.854 8.24178
-29.7072 98.3339 -4.32876
-20.3253 107.973 9.8896
-16.4813 97.3106 3.63501
3.77044 87.3249 8.74989
-29.8117 98.3766 -4.28812
-25.2646 94.5019 -4.46642
3.57697 83.9418 5.85262
-17.4182 97.9504 3.6059
-34.5079 107.394 0.142107
-12.5586 81.3723 -6.92646
-23.5317 93.357 -4.24058
3.41521 82.6321 4.69346
-2.06506 80.1874 -0.958891
3.38412 82.5947 4.67219
-34.392 110.453 2.83746
-13.4373 98.3742 6.6797
-4.55933 95.8619 10.4706
-3.15625 79.1531 -2.41439
-14.1833 84.378 -5.32801
-12.049 78.5035 -8.77738
-12.0515 78.4431 -8.792
0.754301 81.8578 2.52998
-17.1669 98.5696 4.56174
-17.5572 95.1419 1.57626
-0.0934033 92.0626 10.6751
-9.8883 96.8246 8.16916
-9.88394 76.9519 -8.2697
-17.8693 97.1246 3.22722
-17.661 95.5521 2.08337
-28.9988 96.7001 -4.45394
2.41817 88.6295 9.64665
-13.2382 80.1885 -7.68111
-23.2133 112.576 12.6526
-17.9996 96.0328 2.39613
1.58865 89.525 10.0184
-17.4219 97.225 3.83163
-2.13 79.7029 -0.573569
-33.2382 100.254 -4.07581
-17.2134 94.6419 1.91101
-14.1229 97.5202 6.37163
-20.0018 90.2929 -3.48023
-31.8436 99.0531 -4.03404
-19.9752 106.405 9.91937
-21.3962 108.674 10.8748
-7.7172 76.5013 -6.76536
1.31785 81.694 3.57857
-34.605 109.438 2.88461
3.66733 85.337 8.21609
-6.46881 94.8181 9.38382
-8.58707 95.6201 8.70518
-13.4339 78.5569 -8.6596
-23.3591 112.082 12.6366
-25.0793 93.0776 -4.22893
3.611 85.0065 8.11009
-14.2726 96.9987 6.23691
-11.3018 96.1846 7.56253
-2.80422 79.0608 -1.01863
-34.7235 108.621 2.41393
-19.0019 88.8594 -3.58265
1.14266 81.4371 3.59444
2.96199 81.2117 4.62964
-35.1421 105.416 -0.491071
-21.9586 91.1102 -3.63646
-28.3685 113.163 10.4922
-15.8043 85.4011 -4.22331
-35.1874 105.194 -0.615793
-11.4571 76.4804 -8.70021
0.503592 80.9066 2.90608
-32.5459 110.846 5.89549
-18.6334 94.4109 1.49588
-4.84405 77.8398 -3.11046
-35.1908 105.635 -0.11545
-18.7564 94.6212 1.62227
-18.4783 96.4703 3.35289
0.0890211 90.1855 10.4624
-34.7333 107.723 1.98731
-27.3479 112.917 11.225
-35.1329 101.305 -3.52381
-16.2569 83.2165 -6.03813
-33.7883 109.669 4.32701
-16.9681 99.945 7.39165
-14.0279 78.1859 -8.70033
-30.208 111.894 8.5819
-34.7838 107.897 2.24253
-12.0682 95.4578 6.9556
2.98695 81.5552 5.40989
-26.9976 112.676 11.4294
-25.0276 92.5184 -3.95489
-10.6039 75.8163 -8.13642
-3.56124 78.2424 -1.43906
-17.2964 101.347 8.66215
-17.2812 93.8236 2.4302
-18.4217 92.0129 0.186059
-16.9106 100.425 8.18111
-17.7662 87.0956 -3.40062
-19.2895 92.4791 0.0825128
-16.8195 84.1465 -5.17639
-13.2786 94.9702 6.17765
-26.6044 112.108 11.6121
-26.6385 93.3565 -3.87276
-16.9955 84.308 -4.98599
-16.9825 94.7946 3.75401
-17.4914 93.9405 2.73047
-18.276 91.8118 0.46495
-7.82416 93.7708 9.05259
-30.9525 96.7959 -3.72404
-33.5956 99.1373 -3.49279
-16.7739 84.7791 -4.27155
-9.05878 94.137 8.61819
-17.4333 91.3289 0.771175
-18.0851 98.2259 6.08253
-18.3298 93.9827 2.40277
-19.7875 104.644 10.3839
-3.62877 91.4813 10.1748
-4.4146 77.6233 -1.81666
-12.5146 93.6713 6.21178
-6.7969 93.0407 9.50257
-26.2637 92.6133 -3.72308
-12.1275 87.1582 1.14037
-18.3633 93.2092 2.03672
-24.5 91.3585 -3.47819
-17.5604 83.0621 -5.74519
-17.9895 84.6719 -4.69143
-18.9457 87.3573 -3.08336
-23.1009 109.444 12.5082
-19.1974 92.0575 0.672729
-17.4433 93.22 2.82539
-9.2105 93.5309 8.53067
-22.7641 89.7333 -3.56109
-7.51616 92.914 9.21036
-35.1276 103.778 -0.0154436
-19.3972 92.972 1.42771
-18.0548 86.424 -3.1097
-17.2579 94.4665 4.13538
-35.4551 102.715 -1.03487
-13.1914 87.7948 1.32135
2.11031 80.0802 5.05653
-0.137501 79.1802 2.82284
-16.794 81.6812 -6.10461
-22.3485 108.142 12.1994
-20.7357 90.6441 -1.23507
-4.69656 77.3171 -1.68138
-19.7722 92.8394 1.25588
-9.22115 91.3739 7.03667
1.44003 80.0346 4.69638
-31.4097 109.599 7.53665
-18.0934 83.1457 -5.56931
-4.58056 90.9742 9.88274
-21.8732 106.446 11.2967
-17.0169 92.6947 3.12622
-31.4823 109.358 7.40749
-19.2798 92.9438 1.88929
-26.2346 92.0989 -3.40388
-5.39567 81.1847 1.33328
-18.2404 93.1916 2.84941
-6.64955 75.9345 -3.80068
-3.97508 90.2605 9.86022
-21.8532 88.6989 -3.25271
-18.7731 91.6146 1.21067
-19.69 92.5322 1.38222
-22.262 107.156 11.8301
-32.6018 97.3647 -3.09548
-26.3927 110.131 11.6623
-18.643 89.9484 0.0556633
-17.3249 94.3708 4.5986
-19.0821 89.7864 -0.346423
-34.9029 105.011 1.87633
-13.0613 86.9283 1.33373
-19.4313 102.807 10.2964
-27.2667 110.049 11.1489
-13.1063 92.3963 5.90561
-31.9456 108.612 6.92489
-9.01844 89.7551 6.44677
-1.16261 87.4595 9.75346
-6.34112 76.0479 -3.14088
-10.4426 84.696 1.3362
-21.2745 105.071 11.0946
-1.17398 78.3902 2.27186
-17.0285 93.2716 4.14516
-9.45177 89.3373 5.8932
-30.9034 109.312 8.28541
2.88158 82.1713 8.13636
-19.1512 102.028 10.0421
-32.489 108.351 6.4922
-10.3812 90.0717 5.95878
0.715806 79.245 4.35455
-5.74332 81.3055 1.80715
-15.8087 89.1696 1.69374
-10.2931 89.4598 5.60095
-8.62123 89.1632 6.48642
0.0315029 85.9261 9.5394
-19.8231 91.0533 0.665168
-14.0433 88.9978 2.79897
-18.9551 93.7015 3.45791
-4.11413 89.2486 9.58966
-16.4235 90.5503 2.53278
-18.4564 100.069 9.17004
-16.4193 90.7275 2.7841
-13.7144 92.0819 5.70129
-8.52709 88.7606 6.39689
-16.6486 77.8777 -8.00304
-15.5946 88.7565 1.73618
-9.60637 88.4713 5.49381
-17.4569 92.3838 3.54807
-16.5188 91.1655 3.16129
-0.132073 85.6296 9.45297
-2.77627 87.5336 9.35592
-4.87181 76.8056 -0.930248
-9.28765 88.315 5.72249
-34.8019 105.206 2.89576
-16.9443 89.1784 1.43086
1.60918 76.7238 3.39273
-35.6867 100.669 -1.38401
0.306802 78.6299 4.16057
-17.5129 92.544 3.92088
-14.2821 91.7634 5.41808
-12.6722 90.0664 5.11562
-21.3258 89.2987 -1.2149
-18.7255 91.9874 2.7447
-17.839 92.1057 3.47647
-31.4684 95.6714 -2.58003
0.157641 77.3458 3.13641
-17.5407 91.7259 3.38454
-10.4441 87.6526 4.70453
-9.7972 87.7669 5.23291
-17.1878 78.3185 -7.42954
-22.8975 90.0723 -1.44288
-0.19971 77.9335 3.51686
-18.6264 99.7789 9.45758
-18.853 82.4564 -5.06128
-19.6012 85.5189 -3.00744
0.137001 77.7075 3.57049
-30.2208 94.37 -2.66456
-35.2336 101.905 0.379472
-7.65153 87.9087 7.02906
-8.6745 87.5955 6.09657
-15.9522 91.5262 4.55375
1.23612 77.6359 4.41416
-19.9407 85.9363 -2.68811
0.839104 77.8927 4.39139
-15.8383 88.6099 2.25698
-15.7474 87.4599 1.39647
-35.4918 101.14 -0.306704
-0.304082 78.5235 4.23829
-17.6223 78.3521 -7.33946
-15.4885 89.3745 3.23143
-18.1643 93.4502 4.85681
2.0082 77.3459 4.86
-17.7071 89.4828 1.92276
-17.1105 89.5695 2.39033
1.52044 82.8979 9.21593
-9.98263 86.9155 4.95427
-35.8174 100.317 -0.97679
-22.8714 90.0966 -0.881155
-26.3483 107.901 11.6192
-33.7101 96.7117 -2.50195
-27.0157 107.852 11.1832
-21.6789 104.119 11.6267
-20.6505 86.3157 -2.46434
-34.6658 104.541 3.39047
-21.7157 104.159 11.6517
-18.5964 90.2732 2.21155
-20.581 86.0767 -2.5687
-3.65867 76.6695 0.826356
-17.2038 90.6601 3.51453
-28.6836 107.936 10.277
-21.8932 87.4013 -2.26969
-22.5244 87.7231 -2.40815
-18.4343 81.2577 -5.06372
-31.1524 107.23 8.11921
-34.1236 96.5877 -2.49185
-21.5606 88.9835 -0.482255
-17.2006 88.5141 2.05723
-24.5137 88.6058 -2.68012
-17.2573 88.0656 1.69635
-35.4329 102.56 1.71919
-22.2541 90.0726 0.0810397
-17.8928 91.4641 4.12672
-18.1566 90.2938 3.00347
-8.94423 82.4489 2.58897
-32.7517 95.6529 -2.18473
-24.7004 88.688 -2.61313
-21.1939 84.677 -3.60842
-20.7151 89.9552 1.14113
-19.8987 100.038 10.0515
-0.520997 76.9707 3.7331
-3.09439 84.8219 8.54998
3.21356 75.7766 5.22825
-0.52521 83.0931 8.86044
-19.0479 98.4534 9.35789
-25.3908 106.845 12.1462
-4.01934 75.9519 0.673003
-17.9815 80.0924 -5.12464
-21.6756 84.4521 -3.93064
-3.4422 76.1939 1.29904
2.94763 77.2235 6.39423
-13.8782 85.352 2.01165
-18.0057 91.7076 4.60343
-5.66494 75.4357 -0.730955
-4.50974 85.3398 8.33518
-2.21315 83.8299 8.60709
-16.9149 87.2283 1.73183
-2.15998 79.6242 5.19847
-17.823 89.4313 3.03632
-5.00184 75.3986 -0.10291
-21.6665 88.6509 -0.0927069
-21.3721 85.6573 -2.37889
-23.4443 89.026 -0.896205
-26.8373 90.1189 -2.22947
-18.0595 91.4333 4.67989
-31.6209 106.017 7.83152
1.39524 77.1749 5.744
-35.7338 102.179 1.93304
3.23545 77.7334 7.43952
-17.1025 89.3226 3.65606
-19.8096 97.5487 8.7062
-31.7972 105.885 7.69973
-29.2252 106.333 9.78749
-10.7701 83.2716 2.89386
-23.1552 88.9626 -0.559097
-20.0539 87.1744 0.0098447
1.11166 76.7622 5.39192
-12.0212 84.075 2.78739
-23.0769 87.2321 -1.90336
-22.4729 83.696 -4.3269
-12.4625 85.6918 3.95175
-18.8634 79.2364 -5.63267
-34.9716 103.143 3.56836
-19.527 98.9919 10.3414
-18.4332 91.9106 5.20964
-14.3823 85.9314 2.94443
-31.5752 93.6261 -2.04376
-11.7849 83.9511 3.02852
0.8839 78.8677 7.19549
-22.6223 88.9567 0.0480014
-4.65739 75.0257 0.385491
-0.631603 80.2001 7.36842
-0.0660543 79.951 7.58403
3.31392 74.3808 5.22752
-2.75377 82.864 8.27794
-20.2306 81.86 -4.08738
0.3992 80.3173 8.32265
-0.389873 80.5769 8.02613
0.495243 79.8657 8.02395
-5.13255 83.8555 7.64634
-21.9517 85.3644 -2.19268
-27.284 89.8157 -2.02049
-20.0116 97.4328 9.11164
-3.70567 74.9126 1.24135
-7.34174 82.4937 5.13091
-27.741 90.0139 -2.1108
-27.173 104.792 10.5415
-1.46425 81.0849 7.89089
-36.0297 101.305 1.80486
-2.46275 81.7551 7.7903
-24.9469 104.888 12.118
-8.23785 84.8896 6.67086
-2.88167 81.2486 7.2223
-35.2786 102.652 3.55467
-18.8202 89.8937 3.92123
-19.9424 97.5738 9.5536
-1.03661 74.8774 3.25406
-32.8297 94.0328 -1.83125
-12.8967 85.077 3.97547
-19.4693 98.1564 10.4847
-23.2408 86.4486 -1.71221
-5.89181 83.219 7.09586
-24.9496 103.066 10.9738
-21.8931 101.167 11.4454
-18.6844 95.0921 8.5333
-8.82608 83.8192 5.71147
-7.0893 82.8294 6.11534
-23.1032 84.422 -3.15608
-22.965 83.5495 -3.77233
-10.8868 84.5687 5.09309
-25.5918 87.7834 -1.94471
-20.5007 99.2033 10.9087
-36.233 100.361 1.4912
-18.8168 91.4294 5.67689
-18.6182 94.0824 8.07454
-36.282 100.12 1.40361
-32.0763 92.8672 -1.79449
-19.5168 89.46 3.71303
-26.1915 101.537 9.33095
-25.6514 102.148 10.2221
-28.803 103.838 9.54539
-26.3817 102.235 9.81976
-36.8198 95.9755 -2.1402
-22.3927 101.211 11.7939
-30.9591 103.863 8.34072
-24.3586 100.384 9.83193
-31.8515 92.3631 -1.76577
-23.5493 101.542 11.3986
-31.2748 103.849 8.20851
-19.8498 98.0472 10.9818
-37.7633 97.1844 -1.48984
-19.8544 98.1235 11.1808
-25.4484 87.1294 -1.58891
-35.9678 100.709 2.73543
-31.4596 103.391 7.94333
-34.5294 102.933 5.55655
-35.2429 101.295 3.81439
-21.5391 81.6712 -3.37075
-21.3635 89.1121 2.99759
-20.3701 98.383 11.4074
-36.5795 99.8814 1.95935
-30.6588 101.885 7.57053
-28.5863 100.964 8.1816
-38.0798 98.3128 -0.29202
-20.8421 98.7051 11.4587
-33.6588 102.081 5.80667
-33.3969 101.778 5.79195
-22.0158 80.0664 -4.69154
-26.6646 99.265 8.1914
-24.2697 97.4153 8.27662
-25.3432 84.7784 -2.89693
-25.0383 84.7223 -2.72243
-29.6205 100.986 7.87415
-34.3846 93.4693 -1.50037
-23.9654 97.557 8.84024
-32.6743 101.609 6.46673
-37.3256 98.4417 0.762861
-19.8986 89.0367 4.54925
-27.1648 98.81 7.85908
-32.5573 101.623 6.66323
-23.7194 97.3852 9.05401
-25.0277 96.5237 7.50449
-23.8135 83.1924 -2.72177
-31.8751 101.66 7.27107
-35.6168 93.993 -1.47606
-27.7106 97.6097 6.79986
-34.7877 100.572 4.61747
-25.6227 84.1745 -2.7812
-23.2387 97.293 9.69707
-23.219 97.2232 9.66361
-22.0011 88.6713 3.38445
-36.0992 98.0751 1.87791
-36.7429 97.6482 1.12014
-19.8634 92.1013 7.72022
-22.7727 81.7442 -2.79754
-20.0933 93.4885 8.74166
-25.1163 85.5051 -1.17669
-36.2212 97.5551 1.50668
-19.5207 91.0021 7.13577
-34.8134 99.2525 3.8713
-22.584 98.51 11.3815
-31.1816 89.6526 -1.61954
-22.4978 98.4042 11.3873
-22.744 97.7331 10.7052
-23.3038 81.6095 -2.80242
-22.4652 97.0282 10.5984
-33.4371 91.0753 -1.49469
-26.0472 85.636 -1.11925
-22.5255 88.5087 3.75581
-25.1107 88.0058 1.69191
-30.0335 98.7286 7.33473
-31.1397 98.7175 6.62047
-29.8867 97.2154 6.37444
-25.843 84.9649 -1.02848
-25.6249 88.8398 2.38725
-30.3187 97.8287 6.8154
-20.9443 88.429 5.32207
-38.6854 95.3711 -0.623309
-20.0121 90.7847 8.02007
-28.0832 86.6654 -0.704982
-30.3466 95.9522 5.53009
-30.9079 88.1651 -1.25529
-24.6291 80.8556 -3.13927
-31.0222 97.7597 6.66402
-24.5768 88.6391 3.39684
-28.43 84.9669 -2.02938
-25.4594 82.7731 -1.8338
-30.4106 87.3235 -1.14796
-27.2359 85.2696 -0.735819
-20.4867 93.0356 10.2506
-26.2885 94.3307 7.60927
-32.7857 95.8605 4.66952
-29.7707 85.4333 -1.91296
-27.2021 84.5351 -0.929043
-22.1681 93.2407 9.67905
-23.4424 88.0962 4.69558
-21.7115 91.7217 9.09583
-32.7189 94.9956 4.55933
-30.9592 87.0746 -0.809823
-25.2053 93.2096 8.14646
-38.0444 95.3719 1.66329
-26.9332 93.8105 7.75256
-33.5745 94.8554 4.24373
-34.2217 88.7952 -1.21067
-22.0845 87.7757 5.98998
-29.4188 84.7003 -1.29888
-31.053 85.2032 -1.86973
-32.413 87.5351 -0.696318
-27.2883 87.1946 2.49505
-33.4959 87.9969 -0.929142
-32.873 94.2631 4.68527
-27.3151 87.1557 2.48067
-22.4215 87.5284 6.07493
-36.4691 95.2684 3.36424
-38.4594 94.7934 1.74884
-25.2638 92.3823 8.50124
-38.0855 94.8553 2.10184
-28.1681 93.664 7.67511
-22.1358 88.3129 7.26781
-32.5423 85.8842 -1.43197
-22.544 88.1643 7.41675
-25.0384 91.8069 8.81077
-37.5574 91.1394 0.0541495
-29.5916 83.7189 -0.695318
-24.0644 91.155 9.20586
-22.8472 87.5544 7.10399
-24.3705 87.076 5.82091
-23.3678 86.9519 6.38543
-24.513 91.0858 9.17685
-25.2554 91.3403 9.03568
-34.044 85.0903 -1.94269
-38.0334 93.8486 2.91949
-35.7419 87.6325 -0.713801
-25.8697 91.4038 8.98513
-39.1265 93.5805 2.05705
-23.7509 87.9933 7.93187
-37.8786 93.547 3.27149
-29.5065 92.326 7.80012
-34.1251 86.2133 0.0625693
-33.3163 85.0407 -0.31974
-26.9663 86.2779 4.96373
-33.8811 85.4975 -0.140973
-34.6355 86.2218 0.0646076
-35.7382 86.6078 -0.294653
-24.8035 88.0128 8.24249
-40.1117 91.7847 1.29584
-29.9495 86.1113 3.40902
-32.7659 91.8808 6.33844
-26.1662 89.7347 9.01238
-34.6228 92.5376 5.74796
-38.8934 92.6078 3.00579
-28.3878 90.8351 8.52201
-25.0856 86.0164 6.74481
-34.8399 86.0308 0.397567
-27.1539 85.6317 5.21529
-34.886 85.9904 0.428099
-36.1909 91.9124 4.77976
-25.9772 87.2913 7.71484
-25.6055 86.6013 7.45724
-35.2825 91.8521 5.53778
-26.9226 84.9262 5.46154
-25.8048 86.016 7.24756
-32.0245 90.7947 7.21456
-36.277 91.1307 4.70704
-35.194 85.3887 0.716616
-30.968 90.1796 7.56649
-40.098 90.1927 1.70159
-32.0688 90.3384 7.13899
-26.5746 85.7594 7.19892
-27.6483 88.7314 8.95546
-39.9366 88.8049 0.99967
-34.9561 90.7231 5.89662
-34.5591 90.6252 6.17148
-37.5064 90.0624 3.82399
-26.7968 86.3405 7.8412
-35.9694 85.0506 1.07368
-36.6366 84.6289 0.332996
-38.4206 90.0315 3.65521
-28.1939 87.9388 8.74266
-39.8906 89.4921 2.46189
-39.8352 89.6139 2.6252
-32.7682 89.076 6.96594
-39.8641 89.3722 2.75158
-28.1 87.1089 8.7373
-28.727 84.5336 6.18932
-36.4006 88.7934 4.7599
-35.1723 88.8218 5.63168
-36.1103 88.0358 4.57317
-39.2984 86.5877 1.31419
-37.5489 86.6708 2.59256
-37.0467 86.0779 2.50149
-32.2946 87.9951 7.32287
-28.901 83.9794 6.32316
-40.211 88.0838 2.35404
-32.963 86.5027 5.89543
-40.3708 87.7968 2.15686
-40.3146 86.9152 1.71214
-31.8391 86.7214 7.31028
-33.4279 86.3601 5.96197
-37.3733 84.6961 2.05225
-31.3181 84.3393 6.5378
-30.3164 84.4375 7.5358
-29.9528 83.9991 7.46083
-40.0823 87.5485 3.70632
-40.8042 86.3275 2.28825
-39.0622 84.5601 2.14018
-40.1982 86.9187 3.47706
-32.5091 83.6249 5.88471
-30.4128 83.8092 7.62133
-39.0232 86.7155 4.45726
-40.2141 84.7824 2.15028
-32.653 83.8648 6.41511
-39.4413 84.7925 2.73509
-40.3018 85.1578 2.96449
-40.7796 84.54 2.3301
-39.4214 85.4855 4.26064
-40.7508 84.6319 2.83739
-37.3795 85.0158 5.46849
-36.1053 84.6142 6.24348
-40.5688 84.6014 3.35259
-40.6287 84.7879 3.4721
-41.0806 84.5474 3.31155
-38.0241 83.4974 4.81141
-39.9342 83.1713 3.42042
-36.1654 83.1434 5.99591
-35.2944 82.8763 6.4458
