ply
format ascii 1.0
comment Created by Open3D
element vertex 1779
property double x
property double y
property double z
end_header
-6.18616 138.527 5.88308
5.00641 123.27 12.5063
4.08648 79.2476 3.97119
4.56459 80.6692 4.63023
-10.4982 105.041 -3.55139
-9.6817 120.691 -0.0985648
-14.1519 141.69 -0.0617851
-13.7416 124.741 -2.69966
3.47748 74.5724 2.8194
-1.83519 82.8466 -0.116124
-14.2524 143.396 0.270133
9.52604 96.0438 11.7282
-1.8695 82.5839 -0.131743
-9.24439 118.073 0.0378817
-9.18955 150.055 5.74892
-3.83377 90.0773 -0.376497
-1.85409 81.4645 -0.23406
5.30637 121.198 12.7565
10.6789 99.9387 13.5231
-9.32443 114.709 -0.491478
1.37126 74.4588 1.30861
-15.1681 140.237 -0.812247
-16.2383 138.275 -2.0029
8.40067 92.7697 10.4576
6.1968 118.097 13.1037
-8.99848 102.443 -2.26504
-2.12452 82.6266 -0.0460271
11.4382 112.185 16.4724
2.16987 122.429 10.5883
-14.0502 148.041 1.63189
4.64213 124.447 13.0333
10.562 108.195 15.112
-16.5133 127.858 -3.9344
-9.65371 110.234 -1.33926
-9.32802 102.695 -2.3941
0.933889 75.3397 1.32755
-4.38044 90.9333 -0.320979
10.2897 98.5132 13.2317
11.5595 114.699 17.1754
3.78978 78.1884 4.26604
-4.89008 94.1697 -0.121742
-5.23561 95.5703 -0.157342
-15.5134 132.182 -2.22682
7.00424 87.4726 8.6175
1.90545 120.07 10.1539
-16.5504 126.671 -4.01163
2.03732 111.694 8.81322
1.10299 130.342 11.3838
6.3317 84.2967 7.60604
2.87142 109.871 9.25467
-3.0171 84.667 -0.0617405
8.30859 92.2247 10.6991
6.14279 117.451 13.3654
1.9015 126.192 11.3877
7.71365 88.4984 9.56849
-8.35169 141.574 5.58192
10.619 117.654 17.1484
-2.29202 81.1743 -0.0425164
-7.66959 139.321 5.79233
7.84404 124.262 16.0512
4.77616 124.796 13.622
-10.9946 117.29 -0.810781
4.5216 110.065 10.831
-8.92623 143.246 5.5116
3.541 77.1227 4.2017
-14.8316 124.481 -2.70794
-14.687 140.876 0.320473
10.4333 100.867 14.1606
2.22266 109.988 8.95742
9.27714 95.6859 12.3112
-10.3348 109.499 -1.5652
-16.499 125.743 -3.78787
4.962 80.458 6.06885
-16.9134 125.811 -4.11333
-13.1709 118.71 -2.2167
-13.1849 117.724 -2.39797
-15.4796 137.882 -0.729665
-13.7686 118.025 -2.79337
-11.0356 114.325 -1.17088
-8.79569 142.569 5.68545
10.8855 107.035 15.8174
-10.9363 149.975 5.25979
-9.47809 102.049 -1.98822
5.5406 113.316 12.5083
-5.11188 91.1317 -0.240452
-14.3477 120.121 -2.79625
-14.1866 119.989 -2.68201
-15.3662 138.155 -0.423608
-14.1138 120.119 -2.56856
5.97023 82.289 7.46272
-15.0387 140.526 0.289631
-14.5046 121.242 -2.67275
-9.93241 148.618 5.98831
-2.76686 81.6785 0.119619
-11.5607 115.402 -1.20377
1.1945 117.337 9.76862
-14.1316 121.566 -2.20992
5.67053 117.98 13.6355
-16.1354 122.067 -3.77621
5.23763 112.246 12.2824
-5.3017 91.1003 -0.220735
-12.2909 111.742 -2.34325
1.65371 124.834 11.583
3.78826 107.973 10.4096
6.47924 83.5014 8.32739
4.68284 124.433 14.0674
1.12491 128.03 11.7597
10.2308 102.156 14.7651
-16.7948 137.55 -1.43486
-11.7047 106.451 -2.69096
4.90843 79.7492 6.41598
-5.05881 134.782 7.87614
-3.06242 81.7536 0.165892
-2.81338 80.6502 0.194874
4.34302 122.949 13.6471
9.8044 97.4749 13.6981
-17.3498 127.255 -3.63232
-7.87918 138.491 6.23434
1.62094 110.19 9.14307
-17.8014 127.828 -3.87422
-8.02041 98.5984 -0.852103
7.56417 87.8691 10.2218
0.0818528 74.2388 1.60511
10.3366 102.579 15.1624
-6.34757 95.5457 0.0406563
-17.1338 126.616 -3.44098
-10.3575 148.24 6.02338
-5.30446 90.0333 -0.032533
-15.1608 140.647 0.750663
-16.3431 132.872 -1.60101
7.38604 123.533 16.5445
-9.97659 145.008 5.92336
-9.6513 100.87 -1.59848
-4.93423 87.5706 -0.0237876
-8.5684 98.849 -1.0505
8.74717 94.7601 12.643
-14.8582 116.855 -3.08092
7.42865 86.8087 10.1559
6.98004 84.3867 9.38822
-16.7443 122.331 -3.64283
4.25835 108.527 11.4117
-17.3918 128.052 -3.10734
7.74859 87.824 10.7028
4.78791 124.683 14.7618
-16.7524 122.174 -3.59956
-14.3759 146.331 2.66181
8.58272 120.51 17.2161
-10.4466 146.835 6.03914
-6.08826 92.6017 0.0818094
-17.0382 122.624 -3.67236
-16.1816 134.124 -0.923818
-9.95653 142.59 5.75761
1.06168 117.8 10.5455
-13.8037 111.939 -2.85483
-9.97722 142.675 5.78011
5.61931 80.4843 7.80971
-15.1065 143.452 1.75136
-10.6977 147.476 6.14094
10.7331 110.605 17.4708
-14.641 147.107 2.82637
3.75593 107.021 11.0671
1.04484 118.156 10.8029
-4.57516 133.562 8.8662
-5.2349 86.9589 0.109602
9.76293 117.599 18.0204
-15.2668 143.062 1.69721
-8.21748 136.234 6.39163
-15.9668 115.452 -3.72825
-8.26563 135.592 6.25334
-4.99864 133.797 8.65486
-12.568 106.734 -2.42382
8.0559 120.89 17.2584
-16.1903 117.232 -3.55223
-4.3061 133.179 9.19839
0.496304 126.886 12.129
-10.3828 144.131 6.18515
3.518 106.031 11.0236
9.01879 95.1879 13.7044
10.1092 98.4235 15.1847
-14.6494 111.093 -3.15056
-12.8421 107.049 -2.32737
-10.2612 141.978 6.01663
-11.2495 102.267 -1.81615
7.86657 89.0669 11.7747
-7.74835 135.083 6.92049
4.48819 75.3653 6.59032
4.32443 76.1978 6.60349
0.611307 114.581 10.3504
-15.0101 111.827 -3.07191
-4.78577 83.734 0.485858
4.24435 77.944 6.98098
-1.05088 75.7181 2.18872
-16.348 138.354 0.552244
-6.42158 134.377 8.1208
5.06401 111.914 13.7196
-1.83989 130.768 11.333
4.24781 77.9092 7.09214
-15.9982 142.784 1.72081
-18.4334 123.481 -3.62961
-17.9313 128.585 -2.28912
4.30943 107.98 12.5885
8.76776 94.5615 13.941
5.33172 114.874 14.6739
7.5659 90.5404 12.2717
-2.49633 130.845 11.0507
10.7769 108.246 18.1309
0.440324 113.771 10.5171
-16.2382 141.985 1.63479
-8.92194 136.002 6.67085
5.95369 81.1805 9.41231
-4.17516 132.156 10.0199
10.5014 104.147 17.2845
-16.4785 141.575 1.51061
-1.78172 76.9809 2.34729
-2.91956 78.3443 1.64543
10.403 105.021 17.4628
-15.2367 149.162 3.93753
1.5292 105.5 10.1801
0.652335 116.75 11.4574
-2.17836 77.5368 2.17634
8.09179 93.277 13.5058
-2.1233 129.595 11.4321
-13.7219 104.23 -2.69335
-6.81792 133.772 8.2733
-10.8592 142.677 6.48849
-8.3333 134.653 7.17718
1.12688 106.005 9.99514
5.96839 81.2678 9.67525
-9.16971 135.671 6.70641
0.889099 119.579 12.2496
6.52141 84.0109 10.6554
-17.3219 132.903 -0.530687
-17.4653 114.682 -3.84349
-2.73133 129.73 11.0776
-16.8091 112.371 -3.70083
7.36842 89.4205 12.4162
-2.66531 77.9185 2.03636
10.2772 106.065 17.7821
-2.6697 129.446 11.1707
-19.2283 124.653 -3.45006
-14.9146 107.126 -2.94842
10.7941 110.929 19.1375
5.81004 80.9257 9.71175
0.29617 106.809 9.7138
-11.8241 101.411 -1.3118
0.837639 105.823 10.0061
6.3493 82.4922 10.477
7.41485 87.8817 12.3257
3.07496 104.061 11.5745
4.6591 76.1078 7.97481
10.6494 108.458 18.8291
-15.2589 109.36 -2.49385
-9.63694 135.687 6.8404
-19.0939 122.878 -3.27083
-6.76256 87.4007 0.730848
7.14832 89.8037 12.7373
9.9238 98.2027 16.5383
-10.8018 140.477 6.7772
-10.2873 137.774 6.77879
2.82841 103.737 11.6831
10.392 102.156 17.7301
4.96029 115.297 15.5504
-15.0758 108.866 -2.2315
0.438993 116.296 11.9945
5.0547 113.446 15.3479
-18.9261 126.703 -2.25882
-7.87237 133.178 8.09884
-10.6152 137.907 6.73983
-19.016 120.975 -3.22337
5.61846 80.5586 10.1425
4.64635 76.402 8.60913
-17.9772 130.684 -0.608313
-18.1729 135.733 0.141267
-15.5299 109.176 -2.34961
6.65955 119.024 17.8564
4.54756 108.862 14.3036
-5.87768 82.0746 0.903393
-12.3652 100.97 -1.15226
8.01851 116.234 18.5321
5.99442 120.541 17.612
-18.1772 112.993 -3.82373
-10.2331 135.532 6.79317
10.1236 111.568 19.5004
-18.662 115.521 -3.74592
6.37518 119.463 17.7876
10.5133 108.458 19.2936
-4.50793 129.646 10.5554
10.1586 99.0418 17.3572
9.61091 113.174 19.4457
2.53073 103.336 11.8177
-0.160124 105.252 9.93238
4.3794 108.024 14.2212
4.55384 109.018 14.5484
10.299 101.003 17.9142
4.02213 106.755 13.7667
4.56305 109.127 14.6627
-5.28369 131.23 10.3835
0.0870987 121.197 13.0875
10.3107 107.876 19.2681
6.28004 118.889 17.8778
8.81857 114.712 19.2573
-16.8609 146.547 3.53051
-0.205449 107.242 10.4463
-6.19695 81.6228 0.935111
-20.1786 121.81 -3.58103
-10.4836 136.17 7.06052
8.29145 93.1555 15.0816
10.0631 98.8559 17.568
-8.64256 92.0689 0.803568
0.209425 118.92 12.9247
1.97127 103.574 11.6974
3.77968 105.952 13.6294
-10.437 136.126 7.1399
-7.23641 131.515 8.98838
9.31808 96.2691 16.5549
9.42336 96.7837 16.7623
9.2981 113.147 19.5647
-18.7245 136.419 0.440707
-19.3671 118.19 -3.26993
-10.9056 137.366 7.16896
5.63846 119.46 17.7795
7.83756 92.3321 14.8166
-12.7043 99.2489 -1.02857
-19.1379 113.827 -3.79707
-20.2779 122.146 -3.25038
-20.2893 121.979 -3.28452
-16.8382 147.239 4.05362
-4.07977 127.241 11.1568
-6.11203 130.803 10.1122
10.2212 108.952 19.8463
2.25248 102.519 12.1097
-18.9615 136.485 0.47388
2.66295 101.934 12.382
8.55517 93.3742 15.7898
-2.95197 126.419 12.0897
-19.6574 116.46 -3.55365
-4.5581 127.66 11.0015
-10.6268 134.529 7.18197
-0.374202 121.615 13.4374
-19.6958 125.819 -1.88915
-18.9654 141.3 1.49755
-6.27294 130.531 10.17
-19.4097 138.682 0.728824
-18.2193 133.106 0.742107
2.04952 101.896 12.1063
9.66489 110.468 19.9599
-18.8134 132.52 0.175483
-20.3614 122.939 -2.79358
-0.689715 122.378 13.4816
-0.442775 110.75 11.6414
-0.641188 122.157 13.4975
-0.435273 109.295 11.396
-18.7206 130.339 -0.0495101
4.87569 77.4594 10.2402
-0.456089 103.468 10.4169
-17.2226 147.511 4.30177
-11.5942 96.4357 -0.0380056
-14.1656 100.157 -1.51731
-15.099 148.951 6.33595
-5.18746 128.52 10.9829
-11.3158 136.171 7.24016
-10.8602 135.224 7.4606
7.52254 91.6028 15.0562
-0.440798 107.671 11.2767
-0.480037 109.906 11.6415
-18.8233 130.813 0.129615
9.59724 105.796 19.38
-20.2324 136.197 -0.0255035
-19.2549 124.221 -1.32501
-19.7784 113.115 -3.71391
-20.3966 116.623 -3.60058
-9.74193 133.248 8.20385
-19.2998 125.373 -1.13103
5.76206 80.4846 11.8078
0.94738 102.694 11.7364
9.55106 105.672 19.4402
3.45313 118.369 16.6169
6.04588 84.5867 12.8178
5.09928 77.8422 10.8831
5.28577 118.487 18.228
-14.7339 100.594 -1.5846
-20.4965 130.043 -1.16264
4.3016 108.261 15.6242
-19.74 126.722 -1.10881
-19.2317 142.28 2.06502
-2.56242 124.575 12.8124
-13.1546 146.108 7.84172
-20.1035 125.383 -1.59809
6.38683 85.8032 13.4511
4.09085 115.651 16.8345
-0.958089 103.791 10.5593
9.30984 96.2067 17.7634
0.968698 100.783 11.6409
-10.8316 93.0319 0.467151
-0.579578 109.574 11.9536
-0.561562 111.301 12.2917
-5.2852 128.197 11.3484
5.45354 78.9729 11.6018
9.6132 106.678 19.9823
-10.9511 92.8943 0.481911
-19.8854 138.728 1.15028
-0.598703 108.771 11.911
-12.0445 95.9441 0.126951
-19.0157 132.484 0.796275
6.27928 85.9922 13.6345
-14.692 148.522 7.27106
-2.74074 124.084 12.9163
-8.82745 86.2987 1.173
-10.3452 132.748 8.13478
6.24553 86.7406 13.8406
-17.4308 147.774 4.93441
-8.02113 83.7328 1.4516
-20.2585 129.358 -0.632179
3.94441 114.001 16.8138
-0.909218 120.152 13.8754
-9.61304 88.2749 1.02445
-19.3712 128.496 0.0145133
9.30053 108.815 20.4528
8.85813 94.1205 17.4952
-20.7936 133.064 -0.289643
5.81878 83.028 13.0136
-1.00642 120.455 13.9546
-11.0063 92.0629 0.63346
-11.4915 93.001 0.421856
-0.605639 105.92 11.7806
-3.58767 124.046 12.5289
9.75824 99.392 19.3105
-0.66719 114.972 13.3917
-0.902058 118.866 13.8922
5.81151 82.4831 13.0773
-20.2609 124.16 -1.23571
6.23641 88.6387 14.5362
-20.1092 123.769 -1.16105
-17.913 147.248 4.91992
4.48623 75.9747 10.9782
-0.841446 116.544 13.7247
-17.0278 101.914 -2.31217
-18.667 109.246 -2.37568
-1.40451 121.422 14.1713
-8.82623 131.949 9.86739
-10.4105 89.1978 1.00993
-0.89204 116.621 13.7841
3.30374 117.086 17.3602
-16.8531 101.251 -2.20741
-0.830169 115.728 13.6929
-9.86723 86.8174 1.06632
3.63011 114.116 17.1228
-19.593 130.229 0.657533
-22.4196 131.645 -1.44205
5.05981 79.223 12.168
-10.0227 87.2701 1.06531
-15.1203 148.115 7.5781
-22.1864 136.464 -0.321371
0.630928 99.3581 12.1209
-20.2803 123.224 -1.05922
3.26948 116.996 17.4702
-5.1915 77.3472 3.45325
-8.52643 131.503 10.2679
-10.6924 89.1206 0.979897
4.80566 78.3228 11.9975
3.45331 116.301 17.6109
-11.1177 90.0222 0.87196
8.57778 93.764 17.9466
-0.549603 102.056 11.818
3.88421 118.031 18.3538
-0.980187 114.188 13.6277
9.33263 102.739 20.2033
-0.574084 101.999 11.833
-16.4476 148.155 6.79104
-19.4173 109.232 -2.52553
8.51487 109.175 20.7215
-8.71317 80.7922 1.37368
2.30699 102.727 14.4417
8.10858 111.115 20.7576
-11.8148 134.436 8.30759
-18.9431 105.703 -2.68037
8.33946 109.7 20.7397
-1.28494 102.557 11.4711
-19.831 128.196 0.579547
-18.544 104.1 -2.58905
-20.0262 128.798 0.557814
8.43944 93.3298 17.9805
-10.885 88.3194 1.03084
-22.063 129.994 -0.89998
-8.53536 131.235 10.5895
-2.31398 121.246 14.0281
-22.493 134.542 -0.366337
-20.5763 123.462 -0.71665
8.88287 107.979 21.0924
-1.07422 112.633 13.6433
-20.9335 122.576 -1.1193
-15.308 147.502 7.97713
-20.7534 125.38 -0.452344
-19.3376 130.273 1.5963
-11.8767 133.697 8.43282
-21.893 115.932 -2.99264
-21.9049 115.948 -2.98737
3.66366 117.493 18.5723
-1.19792 104.912 12.3208
-1.00738 105.65 12.6207
8.04322 91.4098 17.6633
-19.8291 144.506 3.86027
-23.3395 130.53 -1.52597
4.39307 116.611 19.0902
4.71645 116.509 19.3502
-13.197 138.282 8.30227
-0.269468 97.8309 11.9588
-10.2742 130.817 9.46472
-1.08397 88.7457 9.70128
-20.7364 139.413 2.3482
-17.6844 100.363 -1.99582
-10.0438 130.603 9.71249
-16.7994 98.5231 -1.5679
-2.53603 100.961 10.7443
5.41907 83.6619 14.3069
-20.9369 120.958 -1.00082
-1.64869 88.0624 9.3338
-0.205257 97.5654 12.236
-12.8066 90.7273 0.549205
-23.25 133.096 -0.64908
-17.6223 99.9131 -1.83086
-1.2321 106.571 12.9861
-11.4991 87.6779 1.10773
-13.3962 138.666 8.54399
-19.6909 127.917 1.41428
3.00762 115.098 18.0936
-2.47118 98.7118 10.6419
8.72301 95.3867 19.3855
5.91595 113.669 20.2834
0.516757 87.2531 11.1281
-15.294 96.6642 -0.335121
-22.2308 114.377 -2.96458
-12.9084 90.3267 0.576686
-23.296 133.216 -0.485486
-20.1748 126.989 1.01305
-2.13094 119.324 14.6775
-2.01912 118.372 14.6106
8.86636 106.309 21.554
4.29389 79.5486 13.0317
-14.7906 143.947 8.54885
1.20099 86.9489 11.7977
9.22767 98.1712 20.5085
-21.5536 122.461 -0.806104
-19.6801 107.215 -1.93184
6.45298 88.7577 16.5596
-18.8479 101.731 -2.1766
-16.9517 147.4 7.47827
-22.7273 117.425 -2.59271
2.97153 113.888 18.1712
-22.584 119.533 -2.0902
-12.3987 88.431 0.887844
5.12376 83.0233 14.5488
-20.4732 128.999 1.38145
-20.3211 129.371 1.60044
-12.9223 89.301 0.67739
-20.1365 129.296 1.75994
-20.1441 104.983 -2.5435
-9.57705 130.186 10.7517
-13.4049 136.449 8.70741
-2.66968 103.234 11.7981
0.720847 85.5313 11.5046
-14.1915 92.7323 0.382801
-2.80677 97.5138 10.7048
-23.3616 128.452 -0.929054
-1.34906 89.3804 10.4945
-19.2364 101.729 -2.19775
-20.7994 126.89 0.961399
-4.92774 122.568 13.4112
-23.3974 133.811 0.038651
-23.4245 133.552 -0.0276779
-20.8988 127.306 0.98382
-13.2241 89.1683 0.629754
-23.4433 135.735 0.385206
-8.21856 78.4361 2.96004
-12.866 88.1886 0.821822
-14.418 141.54 8.97996
-10.1291 129.649 10.4613
-4.25544 121.171 13.8663
-14.3445 92.1049 0.346625
3.90009 79.0873 13.2355
-23.5018 134.756 0.298368
-0.505519 88.8595 11.3339
-1.4287 95.5967 11.7658
-3.38486 99.3492 10.8107
-20.2549 144.665 4.79963
-13.5409 137.608 9.15242
2.48948 84.7016 13.1404
-19.7717 124.661 1.68324
-1.61576 106.602 13.6001
7.39797 109.478 21.6118
-13.7629 89.7785 0.535325
-22.7755 125.652 -0.62139
0.994052 82.9477 11.6172
-3.36288 98.219 10.706
2.67687 107.564 17.3844
-17.7201 97.8491 -1.28125
-12.9521 87.393 0.843609
-17.922 98.5147 -1.30909
-20.4124 103.175 -2.53386
-3.93359 120.488 14.287
-23.1941 118.855 -2.02188
8.0197 93.5038 19.4712
8.04313 93.8086 19.5589
-23.5759 136.439 0.802753
-20.972 121.06 0.258322
-2.77368 88.8822 9.73616
-17.9225 146.829 7.39142
1.47687 102.686 15.7336
-14.0706 139.64 9.33129
-3.63579 99.9379 10.9984
-23.6709 135.126 0.556967
-13.9423 88.8169 0.476747
-17.311 96.7116 -0.925295
-23.0463 115.443 -2.34097
0.651064 99.8372 14.6212
-22.8204 122.731 -0.848802
-21.8573 122.581 -0.0659255
0.329854 83.7255 11.5299
5.02354 85.9876 15.8464
-19.7674 101.152 -2.09943
-14.2268 89.3042 0.417125
5.99298 111.939 21.2881
-14.333 89.4563 0.402248
-23.7864 135.753 0.725163
-24.7429 130.234 -1.04223
-8.01443 77.3328 3.54259
-15.5723 145.189 9.26024
-23.9809 127.933 -0.785671
-21.7283 140.427 3.29952
6.87036 110.454 21.9021
-3.5112 85.3307 8.82771
-11.7406 130.531 9.99362
2.81634 84.5099 13.9912
-3.6112 100.326 11.4456
1.83709 86.955 13.6198
-21.6263 123.375 0.551083
-0.767304 84.2308 10.9904
-2.3149 94.6138 11.5907
-15.5492 93.1641 0.346066
-7.85304 76.4434 3.80439
-22.7127 123.361 -0.265002
-8.10358 76.9397 3.70597
2.11729 86.2908 13.8735
3.07954 110.978 19.0606
2.60141 113.331 19.0816
1.25896 103.585 16.2604
-3.28757 94.5242 10.8813
2.51706 85.4931 14.1152
-14.98 89.5186 0.271277
-22.4494 122.593 -0.0963695
-13.6073 133.279 9.15998
1.36912 87.6067 13.5667
3.25672 84.4355 14.5929
-3.9811 85.5457 8.767
-22.4571 122.683 -0.0288316
-3.85519 89.6939 9.62003
-2.67971 114.549 15.0253
-22.8108 137.81 2.41741
-15.4571 142.295 9.3397
-12.8647 131.04 9.5162
8.32557 104.924 22.5539
-16.0665 144.849 9.35765
-21.2373 143.44 4.8071
-0.625923 96.9149 13.7383
-2.96131 115.548 15.0903
-10.5669 128.93 11.135
-8.87663 128.134 12.4188
-14.9157 88.1342 0.333992
-20.779 144.27 5.3776
2.89099 109.648 18.9547
2.03616 107.868 17.9334
-16.8176 145.365 8.88836
-20.8875 122.403 1.50073
-10.2426 78.7946 2.66619
-16.3243 93.8589 0.286297
-16.9861 94.9633 -0.0629867
-0.256062 97.8867 14.4228
4.28091 83.5492 15.6706
3.64795 77.6786 14.1195
1.83137 107.319 17.8837
-14.4901 137.89 9.707
-24.5407 124.767 -0.97076
-25.091 129.706 -0.507
-21.5524 142.341 4.67224
-13.0006 130.852 9.76093
2.49714 112.136 19.3644
-21.8048 105.136 -2.09116
-4.47742 98.275 11.1484
-4.10274 90.4915 10.1052
-14.484 134.432 9.24451
-9.36349 127.856 12.3544
-22.6029 122.359 0.372869
-6.98048 124.882 13.8225
3.40251 113.765 20.5006
7.81021 92.3694 20.4242
-4.10342 94.34 10.8633
2.21218 109.039 18.7669
-5.42207 84.0659 8.00574
-20.7468 122.537 2.05883
-25.3981 130.025 -0.453102
-14.4957 85.9749 0.866021
6.74879 88.6048 19.0311
-10.5093 128.636 11.7618
-3.83902 117.564 15.3579
-22.1329 105.693 -1.95069
-2.94309 111.065 14.9836
-16.455 140.934 9.02509
-1.85633 82.9192 10.9228
-21.2373 101.919 -1.83567
-4.88319 84.1012 8.62475
8.4443 99.8147 22.4955
0.57481 88.1691 13.8972
2.04208 83.3871 14.2768
-24.5461 128.298 0.102447
-14.8388 135.385 9.44556
-22.2622 140.191 4.11867
-19.058 96.1125 -0.984776
7.95946 93.1626 20.9811
2.99136 85.1764 15.4369
-18.3387 95.1982 -0.534421
-2.72211 83.7999 10.4897
-3.23823 113.182 15.2643
-3.91748 116.924 15.3861
0.0189255 100.874 15.8354
-21.9128 123.827 1.64785
-18.6356 95.2775 -0.645508
2.52797 85.3582 15.2249
-14.6445 133.727 9.5112
7.10458 88.9981 19.7062
-23.7984 113.58 -1.64085
-12.869 130.422 10.433
-4.21586 91.5101 10.7663
7.8257 104.952 23.165
-7.65349 125.064 13.8466
7.88976 92.7517 21.0702
-23.3966 110.953 -1.73749
-8.70503 75.9603 4.34572
-19.2398 95.7421 -0.910713
-1.50065 95.8278 13.8675
-20.893 124.787 2.85802
-5.73652 120.21 14.6625
-21.1002 123.231 2.41851
-0.432836 99.1552 15.3665
6.62489 88.3907 19.3466
1.75792 108.819 18.9176
-21.6893 124.064 2.10496
-3.75957 93.1869 11.5739
-21.0181 123.088 2.50532
-16.5866 140.28 9.23733
-3.45293 93.8572 11.9696
4.93737 110.091 21.8239
-22.7286 109.351 -1.28399
-3.47828 90.7351 11.4485
-14.9337 132.869 9.37405
-20.7434 144.428 6.64002
-24.2792 136.175 2.24911
-21.0528 123.232 2.65433
-1.33855 96.2312 14.2914
-21.624 101.222 -1.67378
-15.0739 134.783 9.72397
-0.0346848 88.651 14.0961
-3.79467 113.832 15.4317
7.8113 101.212 22.8816
0.0313334 103.521 16.8176
-3.99891 114.629 15.4353
-16.844 140.305 9.3112
-5.20617 94.7786 10.9521
-21.4621 123.981 2.62373
-21.881 102.773 -1.42358
-24.7468 128.215 0.693717
-17.2683 141.118 9.21933
-3.78013 111.9 15.2858
-9.13354 127.116 13.5293
-22.4763 120.191 1.20604
3.45673 111.604 21.2733
-5.47248 95.3164 10.9886
-22.1444 122.749 1.97716
-0.476346 89.4116 14.143
-5.28386 84.618 9.30486
-22.1031 123.278 2.14749
7.49256 90.949 21.0696
4.76406 109.661 22.1243
-9.82662 127.331 13.1203
-5.29011 96.7473 11.5132
-6.1133 83.6314 8.51089
-22.3211 121.944 1.83453
-8.87391 125.288 13.6499
-15.5348 135.205 9.86613
-8.71072 124.976 13.7571
-25.2101 124.873 0.018394
-3.27157 104.583 14.6922
-11.8 78.6833 3.03059
-3.14319 93.0378 12.7822
-4.88674 87.1401 10.304
-4.54836 100.624 12.9995
-9.08547 125.905 13.6934
6.57593 88.1524 20.0696
-10.0057 77.0124 4.31777
-1.4639 96.3605 14.8593
-15.7527 135.374 9.87873
-4.28655 92.7268 11.882
-3.9618 108.362 14.9466
-18.5965 143.089 8.92649
-6.58648 82.9803 8.30665
-23.0315 107.011 -1.12955
-14.2785 83.1105 1.92971
-13.409 129.837 10.9179
-13.948 129.468 10.4259
-16.6727 88.0818 0.843718
-21.5603 143.462 6.56921
-4.71304 86.521 10.5541
1.34197 108.265 19.452
-16.0769 87.3352 1.26605
-4.50115 113.56 15.5506
-15.542 129.053 9.1446
-20.6264 97.2895 -0.698679
-23.6517 122.887 1.31209
7.36907 103.88 23.7679
1.2746 107.384 19.3223
-22.934 119.834 1.387
7.31484 101.347 23.2907
4.90624 85.5992 18.5186
-2.44695 94.6073 14.0041
6.3465 87.5947 20.0936
-21.3282 124.249 3.54547
-4.50682 91.2921 11.7849
-12.2294 128.174 11.9099
-20.9504 144.191 7.49868
-9.82639 76.0216 4.70844
-17.1025 88.1911 0.805616
-4.36588 107.282 14.7997
-4.02979 105.993 14.866
-19.2938 142.92 8.69175
-4.97173 86.4343 10.6256
-22.902 123.113 2.19994
7.17672 101.746 23.4621
-4.59745 112.056 15.4916
-5.94511 118.495 15.5519
-16.1356 132.636 9.61295
0.117269 87.2892 15.1241
-2.57897 89.6027 13.2938
-5.54258 97.7776 12.3021
-0.924289 102.602 17.0194
-1.32302 90.1919 14.5392
-25.9317 128.485 0.836581
-22.7803 123.31 2.54804
-21.8867 123.326 3.295
-6.04364 94.4967 11.387
-16.6293 129.011 8.68294
2.38408 110.668 21.2658
1.17852 106.842 19.5977
-5.04795 113.495 15.6401
7.34233 90.3971 21.8675
-15.1831 83.2127 1.85932
3.343 80.7402 16.8461
-21.1051 96.9721 -0.605116
3.26156 109.473 21.8963
-1.05917 102.582 17.0831
-22.8706 102.673 -1.04476
-21.3416 122.926 3.81917
-19.9365 93.0522 -0.291367
-0.641176 103.664 17.6854
-25.4669 132.328 2.12156
-5.07209 112.807 15.6496
-21.9059 98.8229 -0.818077
-5.8126 95.8411 12.0561
-16.5016 132.227 9.62719
7.37488 90.8669 22.2182
-23.379 107.501 -0.423235
-16.9273 128.684 8.69523
5.20067 107.547 23.3783
-24.5556 125.179 1.73515
-9.6176 123.87 13.9358
-26.0342 126.64 0.794447
-17.2861 133.844 9.36949
-7.54919 120.438 15.1086
-15.5376 127.877 9.77813
-23.6551 117.473 1.21092
3.06268 79.257 16.6981
-6.61895 118.197 15.5263
-22.9613 124.208 2.9965
-26.0093 124.239 0.476476
-6.46829 93.662 11.3323
-22.0553 123.333 3.63567
-17.2078 135.095 9.76612
-26.6785 129.669 0.926765
-22.8381 123.289 3.04909
-5.50064 90.6963 11.7666
-17.2632 132.418 9.35558
-12.0343 77.8831 4.08613
1.43471 88.288 17.1394
-6.03629 95.5385 12.2156
5.93634 104.639 23.7948
-3.33569 94.9371 14.4218
-21.8815 97.5949 -0.536631
-0.892664 89.4573 15.5257
1.01094 105.908 20.0699
-18.7168 135.234 8.85055
-21.7376 124.457 4.44211
-18.463 89.0915 0.916224
-11.2791 76.9234 4.74674
-6.58013 93.8917 11.6868
-6.58197 115.329 15.4744
-4.47599 92.1947 13.1396
-23.3141 122.477 2.81837
-12.9737 128.13 12.4275
-16.6273 85.3409 1.83561
-25.4657 124.438 1.39329
-8.0471 82.5056 8.49277
-16.7768 130.926 9.79856
-14.9134 128.251 10.8821
-21.8856 123.163 4.19827
-21.8411 143.134 7.77078
-23.7931 107.149 -0.147643
-18.2673 136.208 9.60316
-5.49243 107.354 15.1372
6.8092 87.7664 21.9302
-20.9517 93.3982 -0.162555
-23.2908 99.844 -0.96696
-18.7457 139.528 9.85052
-18.6925 134.128 8.94829
-15.7389 82.2928 2.25362
1.68334 107.962 21.3012
-11.1631 125.355 13.6948
6.14157 103.458 24.2561
-23.7445 104.209 -0.478548
-17.2556 86.2984 1.76143
-8.01351 81.4786 8.60311
-26.4642 127.521 1.39247
-18.4099 137.496 9.87869
1.84901 106.402 21.243
-5.36593 101.378 14.3613
-5.69263 110.442 15.6916
-23.7202 105.49 -0.16463
5.17002 105.016 23.8434
-4.85795 104.945 15.4908
-22.4888 120.469 3.56567
-25.1854 135.413 3.97141
1.18744 88.8461 17.6996
7.17662 89.9038 22.8955
0.199314 89.2767 17.0044
-23.8709 123.078 2.9651
-5.9642 86.2504 11.3729
-14.6947 79.8841 2.99341
-22.4207 124.078 4.37965
-8.09485 119.818 15.5505
7.21271 92.5926 23.484
0.371568 92.682 17.8257
-26.731 126.07 1.18184
-23.9426 117.186 1.98073
0.551184 93.6256 18.2019
-23.5118 124.478 3.64823
-24.1093 102.377 -0.741382
6.90491 95.3898 23.8486
-26.722 123.688 0.869852
0.144134 104.495 19.8816
7.11856 89.957 23.117
5.62974 85.5471 21.1251
-22.0086 124.958 5.09466
-12.4463 127.222 13.4623
0.944561 90.2281 18.0978
-8.366 82.741 9.04487
-7.99619 117.529 15.511
-1.81622 101.99 17.9332
-16.3961 82.3072 2.3524
-22.8376 123.083 4.25113
-6.08839 85.1295 11.5146
2.62522 84.5774 18.6676
-20.132 135.071 8.67633
-23.2325 124.527 4.26202
-19.335 89.1746 1.31213
-19.06 87.8666 1.32199
-22.3945 124.616 5.04635
-13.1922 77.8402 4.44856
-23.4247 97.4514 -0.570965
-23.8921 98.8553 -0.703114
-0.953059 89.5996 16.76
-9.46861 121.039 15.2395
-23.7243 98.0158 -0.688413
-24.4089 105.26 0.0398771
-5.95669 90.1618 12.7493
-19.399 133.943 9.31594
-25.2233 109.789 0.200683
3.13289 106.453 23.2288
-16.7678 82.3045 2.41066
-3.87839 91.9317 14.861
5.25998 84.8678 21.2602
-0.022045 95.3007 18.7209
6.61932 87.3942 22.8501
-19.2733 87.6564 1.35381
-6.89119 91.4068 12.3372
-6.64223 109.32 15.7259
-25.9929 134.286 4.05292
-3.37983 96.3441 16.1817
-20.6876 138.379 9.21079
-23.1874 124.214 4.63846
3.24751 80.1026 18.8462
0.744278 91.1991 18.7455
-5.65183 101.679 15.2777
6.53417 87.1707 22.879
4.40463 103.919 24.0724
-22.9807 123.684 4.78885
-27.7094 123.517 0.827534
2.47255 84.3173 19.023
3.8248 81.617 19.6719
2.57068 78.7848 18.1317
-1.05451 92.8071 17.5976
-24.0341 97.97 -0.589157
-3.97275 92.4191 15.1306
6.8577 91.5638 23.9937
-5.84624 104.911 15.811
6.65094 97.6522 24.9416
-3.45807 95.902 16.2369
6.43637 86.9075 22.8894
-22.8166 123.045 4.94601
6.55032 94.225 24.2914
-9.16781 81.5958 9.00064
-5.92192 90.697 13.3194
2.07207 82.6692 18.5542
-25.3601 136.517 5.27611
-4.4634 94.8436 15.3022
-6.54171 97.5721 14.0573
-8.17284 113.549 15.5289
-21.1139 91.3686 0.847561
-15.862 79.8959 3.19926
-7.25928 94.1559 12.8895
-23.7052 96.6066 -0.359812
-24.3483 98.5854 -0.540952
-21.4691 136.732 8.60727
-18.8774 132.345 9.99381
-6.48715 98.985 14.4217
-12.9475 76.8169 5.13299
-6.14831 100.314 14.9481
-23.6006 140.909 7.60493
-19.131 86.4559 1.69949
-8.56548 114.288 15.4262
-15.893 126.563 11.5057
-2.06869 90.4523 16.6312
4.01615 104.132 24.1335
-0.0219353 103.589 20.6815
-21.4027 135.97 8.61527
-27.6974 129.534 2.24518
-9.6458 118.663 15.3484
-0.296766 96.6309 19.2447
-19.8384 129.072 8.72862
-25.4616 112.638 1.1926
0.719046 94.0513 19.7127
-23.126 124.722 5.29305
-0.892568 95.1873 18.589
-22.8747 123.245 5.26207
-7.2892 90.1034 12.4022
-6.23164 104.516 15.849
-24.6901 98.9445 -0.454239
0.600402 91.3782 19.3006
-23.4729 125.009 5.21659
-27.9736 124.687 1.44312
-7.79185 111.579 15.9316
-23.4298 120.114 4.43038
-25.3721 105.575 0.247441
-6.49962 99.6518 14.9144
-2.32733 100.958 18.6309
-8.41034 83.8382 10.5479
-26.6103 132.209 3.95711
-24.9373 138.931 6.53863
-19.4703 128.116 9.18008
-26.0851 135.092 4.91267
-19.7948 128.791 9.06016
-12.104 122.594 14.3818
-23.9423 96.0986 -0.126618
-19.646 128.172 9.12614
-7.71017 92.0153 12.677
5.47157 101.549 25.3462
6.52351 87.3794 23.7297
-24.816 116.8 2.89006
0.591562 89.8173 19.2743
-18.2355 84.4172 2.67446
-6.97058 105.708 15.8181
-2.78834 92.1729 16.9117
-13.5622 76.6716 5.21141
-15.6788 126.414 12.2452
-9.57228 115.161 15.3559
-9.25205 83.3061 9.99354
-14.3794 77.8724 4.76945
-9.46006 80.5054 9.354
2.20618 85.4878 19.9443
0.587246 101.51 21.4481
0.314021 101.427 21.2104
1.00317 101.809 21.8532
-25.035 116.545 2.79974
-2.78302 92.8619 17.1302
6.51544 92.3694 24.7995
6.18409 94.5654 24.9217
-14.1027 126.844 13.7604
-25.6105 104.213 0.220051
-3.7465 93.4484 16.5312
1.53123 103.805 22.7652
-1.29979 98.9394 19.6109
-28.1524 124.204 1.73902
-3.30973 93.6217 17.0208
5.74016 100.06 25.6908
6.0879 97.1345 25.4691
0.553292 90.1962 19.6561
-13.1135 123.682 14.2237
-13.5149 125.246 14.1678
-0.463844 98.1707 20.2678
-9.84655 114.744 15.4106
-19.5409 131.379 10.285
-25.1639 138.026 6.78732
-7.41493 105.69 15.8528
-25.8277 104.075 0.247545
-7.64468 106.716 15.8492
-4.05864 96.4046 17.0218
-25.2594 114.249 2.53755
-14.0747 126.241 13.9797
-4.2365 94.3667 16.5481
-1.77902 99.3568 19.5149
-25.9595 104.303 0.288871
-19.5269 131.776 10.4982
-2.20473 95.9534 18.6265
6.30362 92.6071 25.1178
-7.37438 95.9373 14.3493
-6.49288 102.299 16.2088
-26.0224 107.538 0.908863
5.52599 99.4252 25.7684
-13.3261 122.844 14.228
-18.512 82.8151 2.84352
2.21519 103.792 23.816
-28.7471 128.326 2.4024
-22.8445 138.062 9.04513
-9.25322 83.927 10.7921
-26.0625 105.915 0.72312
-27.6284 130.75 3.82552
2.43365 103.643 24.1045
-9.14714 110.124 15.6143
1.08211 86.5205 19.961
-25.6477 110.36 1.93321
-21.5075 128.023 8.55473
-22.9509 137.135 8.97723
-23.4049 124.63 6.39249
0.50632 90.5933 20.3074
-26.1679 103.735 0.436372
1.6741 85.9027 20.4594
-19.7004 130.209 10.5216
-20.3234 85.9356 2.18101
-8.48591 107.343 15.8188
-28.9422 123.648 1.70104
1.03798 96.9408 21.9435
-2.50395 97.6665 19.1276
3.78191 82.1774 21.6301
-24.401 125.053 5.75779
-15.5734 125.928 13.2584
-20.6176 127.55 9.34803
1.4198 100.479 22.9192
-23.1529 138.313 9.1736
-26.216 102.279 0.260904
5.23546 99.8563 26.0047
-24.6203 95.2734 0.355621
-28.8153 126.66 2.42972
-0.357662 98.5319 21.1426
-23.379 124.407 6.56948
-23.152 123.393 6.58953
-23.3423 92.8473 1.04435
-7.58986 103.525 16.0694
-25.7987 99.398 0.188744
1.83778 94.7299 22.3714
-2.80566 97.0957 18.9322
-11.9111 119.738 15.4371
-0.156382 98.4714 21.4594
1.74913 83.5883 20.4268
-25.585 107.281 1.88472
-29.1439 123.624 1.84008
5.42726 97.1304 25.9408
-11.3226 116.827 15.5263
-21.8194 88.2439 1.74506
-20.6912 85.8992 2.27677
-22.9424 124.078 7.20706
-21.9623 89.2957 1.87494
5.83623 85.7959 24.3899
5.76424 91.2619 25.323
-19.8947 84.3882 2.75795
-25.3367 108.457 2.48615
-7.66169 91.903 14.276
-20.6643 128.027 9.87872
-7.95142 86.8195 13.176
0.478447 100.177 22.5561
-7.20424 102.002 16.4889
-23.9322 117.909 5.39953
-14.188 123.402 14.4838
-0.122578 100.011 22.0548
-21.7846 87.1459 1.75719
-9.57663 107.866 15.588
1.75284 94.2149 22.6178
-23.2946 133.491 8.76503
-23.7534 117.656 5.62485
-29.0758 124.032 2.32496
1.93618 85.2396 21.2901
-24.6303 123.847 6.03203
-11.9773 118.402 15.6064
-26.2673 136.607 6.94071
-22.1371 127.333 8.74558
-28.7417 129.614 3.6894
-21.9684 123.556 8.26588
-21.6478 132.777 10.1784
-9.32234 84.7282 11.9519
2.79541 79.4928 21.1267
-24.2959 134.929 8.40186
-23.7597 121.913 6.54729
-22.9667 116.889 6.33182
-14.5877 124.426 14.6499
-11.0526 112.408 15.478
-25.7243 137.773 7.7565
-23.5304 124.184 7.18152
-20.2082 83.648 2.81005
0.531869 91.372 21.4336
-0.178287 99.076 22.217
-21.7827 125.297 8.88182
-22.5089 90.1327 2.07555
5.6955 85.1291 24.6663
-24.3792 108.588 3.80162
-9.08893 104.637 15.8287
-10.8373 110.768 15.4623
2.10954 84.7435 21.6386
-11.2229 112.665 15.4955
-27.4294 132.745 5.56657
-24.6311 110.298 3.96223
-24.6525 115.537 4.88101
-24.3927 108.598 3.8734
1.92662 93.7504 23.1538
5.52553 88.3674 25.2079
-22.1837 127.372 9.09113
-22.2475 116.063 7.04677
-20.4154 130.921 11.2176
-21.4488 115.874 7.71992
-25.1393 112.953 4.15653
-7.64433 101.014 16.6045
-20.5626 130.984 11.1893
-24.1979 115.89 5.52213
-25.3527 135.845 8.08898
-9.77409 105.392 15.6983
2.3407 99.1018 24.6675
-19.6503 124.929 10.9525
-26.3967 102.96 1.46084
1.91721 84.3563 21.735
0.635698 91.0997 21.8621
-9.00989 103.948 16.1156
-15.888 75.8984 5.43697
2.74257 99.2778 25.0746
-22.7635 117.798 7.13045
-23.3373 132.493 9.25124
-22.2716 117.418 7.47458
-23.7246 132.747 9.02971
-14.8455 123.776 14.8589
-9.21331 104.08 16.0921
-22.5454 111.045 6.25515
0.231028 98.7526 23.0819
4.75714 82.9044 24.0487
-23.2802 124.328 8.06043
-14.9319 123.276 14.8375
1.72342 92.5985 23.283
-16.6572 125.445 13.7999
-20.3086 129.732 11.5349
-23.7439 119.753 6.93178
-11.4825 79.3093 9.99793
-12.0311 113.162 15.5441
-26.3759 102.808 1.78941
-24.8273 133.717 8.54652
-20.9369 83.3056 2.87786
-12.1141 113.636 15.5829
-9.44696 93.9955 14.3494
-20.9584 114.677 8.42788
4.92171 89.124 25.4535
-16.4243 125.111 14.055
-12.0031 112.49 15.5318
-16.3672 124.654 14.0527
-11.3552 110.123 15.6973
-18.0647 124.527 12.6729
-23.1383 131.988 9.77023
-26.4432 103.037 1.9116
-20.9545 113.887 8.43337
-26.3213 102.561 1.9693
-26.6337 100.187 1.30232
-14.7501 121.107 14.8994
-9.02297 103.07 16.4934
-22.3598 111.225 6.87861
-25.205 133.758 8.49783
-24.3096 132.552 9.04727
-8.34332 101.502 16.8562
-22.5953 126.802 9.50311
-9.30032 92.4822 14.5112
-22.5734 127.413 9.64808
-26.3916 135.795 7.9535
-22.088 128.712 10.287
-23.7745 124.164 8.09078
-23.0222 120.263 8.06657
-22.7281 131.596 10.3586
-21.4908 130.81 11.2833
-19.4685 80.0813 4.02209
-22.5597 120.342 8.57027
0.760471 97.9962 24.066
-22.4971 119.002 8.44148
-23.0408 86.8329 2.32037
4.53398 95.6819 26.8392
-14.9804 120.864 15.0569
-22.7999 128.622 9.92609
-21.122 119.003 9.62856
3.79514 81.8139 23.8347
-22.6866 121.039 8.75361
-10.1761 104.329 16.2173
1.06598 82.6709 21.7578
-22.3339 111.213 7.34073
-28.5094 130.613 5.63302
-30.3327 124.22 2.98997
-21.4927 122.403 10.0341
-23.5112 126.277 9.05832
-12.1717 110.69 15.7405
-24.7317 124.398 7.74834
-11.6092 106.923 15.6138
-26.1007 105.14 3.2727
-22.7486 85.0883 2.51866
-21.3274 122.356 10.3298
-30.4077 124.05 3.10372
-19.4762 77.9711 4.125
-23.9379 124.851 8.70747
-9.83628 95.5321 15.2603
-24.0389 90.1588 2.50589
-9.54571 90.1465 14.5793
1.38459 97.6931 25.0167
-12.6636 111.541 15.7794
-13.7753 81.0093 9.46087
-20.6914 119.987 10.5957
-20.6797 119.992 10.6403
-20.6238 122.426 11.179
-20.5657 119.592 10.7397
-19.7461 78.3162 4.16952
-9.48278 90.3457 14.8591
-12.2106 108.07 15.7623
-20.3996 114.435 10.0848
3.81563 81.4716 24.4083
-10.5148 85.2422 13.1553
-22.3855 130.544 11.294
-29.7601 128.216 4.75178
-13.5889 115.682 16.0099
-19.1992 77.278 4.57608
-20.9694 121.271 10.9096
-9.61286 92.9587 15.3906
-13.965 80.5299 9.59137
0.971088 90.3763 23.7675
-23.626 130.168 10.3556
-15.1472 117.994 15.2705
-25.7479 93.0799 2.05873
-30.7946 123.293 3.20369
-12.5512 109.738 15.9906
-16.2258 121.913 15.0902
3.00805 80.6455 23.811
-19.7904 115.903 11.1315
-24.8509 91.1837 2.56094
-29.8695 128.143 4.99889
-12.5935 108.126 15.8368
-9.69172 90.4417 15.136
-20.3805 79.2527 4.29011
2.36059 97.9583 26.5462
-24.0982 127.459 9.74559
-30.1626 125.665 4.39631
-27.6356 134.323 8.03376
3.89378 92.1869 26.8313
-24.6895 90.3832 2.78501
-26.5529 94.081 1.94621
-13.5082 112.382 16.0926
-12.9879 109.794 16.0694
-26.0961 132.583 9.19038
-30.7522 123.192 3.68877
-24.1143 127.365 9.97075
-9.54943 92.5535 15.9375
2.8237 80.2594 24.0944
-26.7146 94.1759 1.97659
-13.5355 111.511 16.0426
-22.585 129.669 11.7313
-30.1239 126.729 4.9404
2.91701 96.4442 27.084
-22.2695 111.05 8.72147
-10.9842 102.914 16.7283
-29.2755 129.557 6.22854
-18.7733 117.519 12.8434
-10.1238 95.8016 16.2163
-25.9394 124.048 8.05142
-17.7845 121.352 14.3619
-13.7238 112.501 16.1896
-22.5891 83.3864 3.67262
-9.63371 92.8222 16.1311
-11.2185 86.5972 13.7528
-18.4808 119.502 13.5269
-11.9183 104.105 16.2936
1.22676 90.5123 24.8441
-18.9792 75.8266 5.44523
-25.6517 124.262 8.49263
2.8015 95.9805 27.2259
2.99056 80.6981 24.7084
-25.806 121.291 7.92399
-29.9605 128.392 5.75969
2.08825 96.8512 26.8678
-29.5535 129.22 6.26961
-26.3705 103.103 4.31305
2.66887 80.4943 24.5098
0.726692 85.1638 23.775
-13.7267 110.447 16.2376
-16.478 119.816 15.6145
-24.6369 125.037 9.76778
-25.2559 125.694 9.36906
1.46999 90.8119 25.4689
-10.353 91.1516 15.746
-21.6336 78.5866 4.17266
1.24812 91.7821 25.5458
-15.1901 80.3167 9.84507
-28.0218 133.433 8.55956
-24.6646 126.571 10.1418
-10.0688 93.129 16.3796
-16.9209 119.498 15.4145
-30.2891 127.029 5.67973
-27.4047 98.311 3.01373
-26.6448 122.354 7.89699
-23.9407 126.43 10.872
2.45829 93.8675 27.0902
1.08127 88.5645 25.0176
-25.1134 85.4988 2.70206
-28.023 133.207 8.77767
-22.4986 80.5564 4.07489
3.57466 87.4904 27.0171
-25.7561 130.618 10.2386
1.86312 94.4073 26.8227
-13.7627 107.428 16.1239
-25.5225 89.4071 3.1694
-27.4869 97.7765 3.05176
-25.5899 125.379 9.511
-24.2984 108.002 7.5186
-22.6 80.3928 4.07711
1.18628 88.4464 25.3165
-31.1284 123.395 4.64949
-11.2097 100.749 17.2353
-11.4768 87.7962 14.7445
-27.4595 97.6451 3.18957
-26.5559 125.176 8.81057
-27.3271 98.0981 3.3934
-14.6822 81.9635 11.0734
-27.3063 98.5241 3.54284
-27.0583 95.8704 3.31393
-24.8535 126.282 10.5311
-10.8484 89.2954 15.6485
-29.5522 129.945 7.2789
0.729051 86.7663 24.8523
-17.9131 118.005 14.8763
-25.6719 86.756 2.90651
-16.6166 117.208 15.843
-11.5164 100.883 17.2141
-10.8646 88.3164 15.5605
2.59523 92.5088 27.5062
1.10703 88.9838 25.6476
0.970453 87.5621 25.2864
-19.8473 114.33 12.7352
-25.8869 102.771 5.67563
-13.3686 104.449 16.3976
0.660133 86.7051 24.9656
-25.6388 104.624 6.26817
-25.5953 99.028 5.32404
-22.8422 79.0612 4.08923
1.19132 93.1553 26.601
-26.6519 100.926 4.82015
-18.8302 115.401 13.8902
0.918911 91.9836 26.2206
-30.5117 126.708 6.21719
0.663704 93.2686 26.2811
-24.5514 106.724 7.68597
-25.9398 99.8316 5.32205
2.75288 81.4631 25.9666
-25.9631 102.176 5.7453
-12.9848 86.0227 13.6908
-22.8909 109.901 9.66978
-25.0037 125.563 10.7463
-25.4889 105.03 6.71972
-27.6907 132.278 9.71976
-11.1023 94.2279 16.8125
2.00606 92.1672 27.365
-21.7411 111.149 10.975
-20.0951 113.81 12.8281
-21.2499 76.7091 5.31514
-18.6444 116.737 14.5713
2.99653 81.5003 26.3596
-11.6634 98.321 17.1543
-26.5831 89.4857 3.21913
-30.598 126.712 6.48662
-15.9217 81.3772 10.7355
-30.8788 123.686 5.77923
-11.9867 100.098 17.3341
-14.6787 107.631 16.4436
-15.2275 110.588 16.5227
-11.9933 99.6285 17.2983
-22.6758 110.081 10.3808
0.171014 86.2639 25.2092
3.05403 86.8558 27.7457
-27.4944 123.873 8.87376
-11.9129 88.7006 15.6239
-13.2973 102.425 16.92
-25.1296 101.012 6.84149
-25.6783 83.6029 3.30918
-21.9541 76.7139 5.20267
-26.9437 94.1393 4.13231
-11.2958 96.5155 17.6188
-18.833 115.065 14.7736
-24.0717 102.944 8.28009
-17.1178 80.3438 10.099
-25.3718 98.8203 6.50462
-11.1883 93.2344 17.3294
-20.9882 111.992 12.4952
-26.336 83.7489 3.05926
-31.9788 123.3 5.3823
-15.7699 82.1303 11.596
-24.3484 100.579 7.73035
-20.943 112.027 12.6304
-23.1 108.635 10.2535
-11.5482 96.4018 17.7323
-30.4669 128.359 7.66972
-23.6446 106.882 9.65484
-22.6952 109.522 10.9513
-16.3902 81.7479 11.3108
-23.1557 108.302 10.4035
-21.9618 106.693 11.1512
-26.3708 95.933 5.58266
-0.304722 85.1612 25.3722
-23.3361 107.562 10.1694
-28.1729 130.943 10.2853
-21.5392 108.031 11.7616
0.105641 89.0609 26.4589
-17.392 113.712 16.2587
2.58038 86.7581 28.1462
-30.7586 127.314 7.59698
2.60694 86.5983 28.1694
-25.8454 98.132 6.58105
-14.6427 85.351 13.6531
-21.4079 108.446 12.1074
-18.1496 114.827 16.0148
2.70068 85.9674 28.2879
-17.7349 113.59 16.188
-17.6434 112.93 16.2046
-21.8784 110.497 12.2722
-21.8325 106.902 11.7076
0.630854 91.3631 27.6562
-14.0787 86.2032 14.5046
-18.7042 114.55 15.6755
-14.6511 103.55 17.1086
-26.5884 95.3105 5.72813
-26.5942 82.816 3.62691
-26.0836 97.8001 6.71043
-15.8348 83.5356 12.7671
-12.6526 91.7452 16.8746
0.313628 91.347 27.615
-32.1694 123.04 6.21418
3.2267 82.1408 28.5083
-25.4163 99.1732 7.6911
-20.4373 112.228 14.1572
-27.85 88.1369 3.76135
0.207487 89.7064 27.4538
-27.0287 94.5767 5.65799
-21.2004 107.812 12.8768
-18.0187 78.4199 10.3453
-27.3364 129 11.537
-13.3447 91.0484 16.4786
-21.8287 106.646 12.2535
-18.346 111.708 16.0573
-15.4816 85.2426 13.7704
-28.2641 123.497 9.93285
-13.4871 90.8483 16.4954
-26.5415 96.6543 6.68945
-17.6366 81.624 11.4636
-15.432 103.463 17.1618
-20.2145 111.04 14.5312
-18.0287 110.605 16.2776
-13.9445 89.3849 15.9598
-26.3641 97.3285 7.06408
-16.5251 92.3074 14.3986
0.672523 89.4581 28.2106
2.72711 83.3633 28.895
-26.0965 80.0676 4.33698
-15.0405 94.4588 16.0937
-14.8758 86.4047 14.8224
-14.8556 86.5656 14.9157
-16.1486 85.0018 13.6043
-17.7174 109.142 16.5679
-0.724079 83.8729 26.2455
-22.6743 103.957 11.5528
-14.4424 98.8667 17.5212
-28.9923 129.224 10.7909
-17.1474 107.157 16.7538
-17.6711 92.5549 13.762
-16.0092 94.9986 15.5823
-15.316 98.4379 16.8641
-26.6918 81.401 4.39747
-15.9417 95.224 15.802
-15.8913 102.487 17.1545
-18.0438 94.9167 14.0501
-24.8891 100.359 9.32376
-27.6058 84.6882 4.30815
-15.9207 100.114 16.8003
-17.8988 108.086 16.5895
-31.1024 126.429 8.90936
-26.7688 96.1892 7.17407
-16.0112 97.1843 16.302
-26.7245 79.6479 4.29261
-26.3451 77.9634 4.34825
-30.0762 128.536 10.2209
-31.321 125.113 8.61464
-0.887401 83.8181 26.6531
1.95086 84.0792 29.1291
-28.6099 90.386 4.85475
-28.2793 122.374 10.7955
1.40879 85.0814 28.9387
-27.2004 80.6831 4.37131
-18.7074 80.1982 11.3555
-17.1637 98.7388 15.9576
-27.2479 80.5808 4.3657
-18.4289 107.401 16.464
-17.544 96.8065 15.3385
-0.498023 85.9841 27.6114
-27.3276 80.7413 4.38615
-18.266 81.8357 12.1303
-27.7139 92.4394 6.1593
-17.317 103.137 16.7093
-18.5968 91.5816 13.6321
-19.6896 93.3342 13.0343
-20.074 97.5526 13.4924
-19.7387 97.1693 13.718
-18.7529 97.6391 14.6824
-18.3927 97.8095 15.0278
-19.9748 98.756 13.9003
-28.7326 127.958 11.8086
-18.7711 98.6945 14.9346
-19.1959 107.032 16.0673
-20.259 93.6168 12.8134
-28.7548 89.8963 5.08759
0.548302 86.3921 28.908
-18.9469 91.3649 13.5666
1.22183 84.4918 29.1624
-18.7057 99.2914 15.2142
-20.9134 99.1886 13.3831
-19.4406 91.9115 13.3358
-19.6873 78.4176 10.7462
-26.4212 96.5704 8.41838
-20.227 106.989 15.443
-21.8091 99.3265 12.7919
-18.5528 100.124 15.7334
0.985833 84.4694 29.2291
0.660648 84.9183 29.149
-25.7642 98.6034 9.5846
-27.1355 94.3275 7.7082
-20.2891 100.318 14.4937
-20.921 105.882 14.962
-21.7678 105.018 14.1093
-29.0567 124.126 11.4238
-22.2467 99.7958 12.8139
-21.4141 100.261 13.6122
-20.2172 104.145 15.3498
-32.8498 122.941 8.17366
-25.3143 98.0618 10.0564
-20.2379 100.869 14.8183
-27.1046 93.431 7.79462
-19.1958 80.8734 12.1708
-28.9028 121.378 11.2638
-22.5556 100.226 12.8965
-29.0453 88.0147 5.35681
-20.4974 79.0284 10.9698
-30.1055 126.824 11.4315
-21.3921 102.309 14.3737
-26.3066 96.6008 9.33027
-19.9768 80.5904 11.8313
-26.056 97.3535 9.73601
-26.8769 93.7505 8.48933
-1.29015 83.0962 27.9325
-24.5045 98.6516 11.3693
-22.3622 102.262 13.8047
-31.3044 126.11 10.5803
-23.0813 98.5624 12.5843
-27.7042 91.3542 7.52716
-21.4934 79.4059 10.5995
-20.0023 89.7499 13.6833
0.0386717 83.5594 29.369
-18.8754 88.6441 14.5656
-33.1325 122.793 8.74621
-29.612 125.62 12.2343
-29.582 124.511 12.0859
-24.0933 99.8544 12.3127
-19.1504 82.5493 13.3826
-32.9363 123.147 9.12816
-30.0565 125.29 11.9136
-28.2685 90.6327 7.28017
-19.8763 81.2475 12.6068
-33.4444 122.68 8.67839
-26.5623 94.2321 9.40027
-28.2674 77.0278 4.94703
-31.1759 125.563 11.1124
-28.8532 84.4474 5.7883
-24.8931 95.3489 11.034
-30.6716 122.811 11.0971
-30.7756 124.84 11.4072
-30.9518 124.901 11.309
-23.6456 94.9757 12.1041
-25.9316 95.6481 10.3457
-28.8332 77.6647 4.82465
-32.6737 123.255 9.74609
-19.3542 85.5357 14.275
-20.5719 88.7522 13.8551
-24.1182 94.5544 11.9962
-21.1818 89.0886 13.5168
-29.0082 88.1462 6.87498
-19.4248 85.9603 14.464
-29.3903 82.0773 5.59929
-26.0534 94.9085 10.6917
-21.9292 89.9157 13.2628
-27.4378 91.3916 9.02961
-29.2774 77.7157 5.08702
-20.4618 82.4917 13.2855
-29.3036 77.6984 5.0996
-22.5431 90.4686 13.0768
-21.1949 83.0565 13.2125
-29.6346 77.1029 5.2043
-29.6583 84.7357 6.53374
-25.8101 93.5691 11.5371
-27.4936 91.1697 9.71765
-27.4302 91.2443 9.82204
-21.9996 83.6901 13.1245
-30.0357 81.2554 6.01324
-27.989 90.0744 9.34652
-30.135 79.9106 5.8143
-22.3699 88.0149 13.7828
-26.7896 91.815 10.8659
-28.8932 88.6426 8.57863
-24.2214 90.8517 12.8848
-22.8195 85.7108 13.1748
-23.3354 80.5836 11.8715
-24.0465 90.4709 13.031
-29.8578 86.2994 7.50249
-22.7674 84.4063 13.0818
-30.3041 80.2808 6.0857
-27.209 90.9532 10.5838
-24.0166 83.3878 11.9574
-27.613 89.931 10.1327
-26.4101 90.9454 11.7143
-23.6128 88.0359 13.559
-23.684 86.2883 13.2737
-30.4578 81.1362 6.74555
-30.1917 84.2398 7.52974
-23.7389 84.7327 13.0397
-29.6504 86.1187 8.46217
-26.2663 90.0266 12.3441
-25.3973 83.6563 11.9613
-24.9876 83.8586 12.3422
-24.2941 86.9652 13.4695
-23.6128 80.7804 12.9501
-24.8413 85.0314 12.7976
-24.8802 85.0614 12.7768
-29.9796 84.238 8.40915
-24.6803 81.594 12.4367
-23.8822 80.8034 13.0027
-26.6833 88.8242 12.1587
-28.3553 87.6229 10.5657
-29.9222 82.5787 8.3778
-25.598 86.8518 12.9733
-25.0164 78.9269 12.0856
-26.2809 82.5204 11.9644
-29.0977 79.7286 9.4838
-28.6456 79.0484 9.83574
-28.8251 86.3716 11.0452
-28.7419 79.186 9.90632
-26.6649 82.2332 12.3362
-28.9 85.1245 11.0837
-27.5815 83.9902 12.0243
-28.8518 82.8448 10.9575
-28.8435 82.2466 10.9435
-28.573 80.836 11.5862
-27.0101 79.7059 12.7706
-26.6813 78.1946 12.9582
-27.0993 78.3878 12.6991
