ply
format ascii 1.0
comment Created by Open3D
element vertex 1705
property double x
property double y
property double z
end_header
-16.0521 114.012 15.1812
14.5943 137.849 6.11309
-20.3895 95.5351 -10.7
7.39102 126.426 -2.35748
19.1696 138.887 0.0591371
8.20877 125.43 -5.53423
15.3821 132.374 -5.23296
-4.04813 111.136 -10.4781
7.18816 126.41 -2.16768
-15.0373 100.206 -11.5726
-39.1812 90.3707 11.574
-19.7813 110.963 15.6637
0.0421745 115.483 -9.71823
-30.1854 88.9959 -6.22915
-18.0257 97.5552 -11.4545
9.24964 127.019 -4.75821
-27.5342 90.3692 -8.33297
15.348 138.817 6.00664
0.184174 124.992 6.77964
19.1814 141.194 3.61477
9.66267 128.553 -2.99728
6.46811 131.949 8.4779
10.3268 129.417 -2.57535
-0.817676 124.41 7.15494
-38.8547 91.3314 12.1357
7.24693 126.631 -2.54409
-39.5371 86.8643 5.2109
-21.9229 94.7501 -10.4279
-15.9499 99.7652 -11.5822
9.01865 134.264 8.01832
8.39535 126.581 -4.71344
-31.1937 88.4898 -6.08907
-24.8471 92.4404 -9.86519
9.3936 127.02 -5.78419
-7.69465 119.758 10.0253
-12.7333 117.037 13.6319
18.0027 141.201 4.95995
3.6499 120.085 -8.62151
-18.3889 97.8998 -11.2712
-38.2756 86.8015 2.41067
-3.06772 123.145 8.02559
-38.8306 91.5446 11.8276
-25.4866 92.0492 -9.86603
4.84535 129.629 6.19035
11.6798 130.53 -3.80427
-6.39421 109.129 -11.6115
2.84653 127.721 6.06927
-18.2825 98.1036 -11.2894
6.23798 131.381 6.84442
-30.1801 101.334 14.5195
7.65074 125.528 -6.0453
-2.9715 113.021 -10.5294
-17.3253 113.857 15.1826
2.17062 119.706 -7.37726
-39.1953 88.8724 7.24388
-20.471 111.194 15.5939
-34.8464 87.9526 -1.78119
10.1897 128.001 -6.11611
-2.14109 113.937 -10.5106
5.90108 131.106 6.55125
-35.1058 96.2396 13.3397
-25.012 92.8649 -9.79449
7.71351 127.728 -2.64364
-0.144344 116.614 -9.27749
7.31719 127.05 -3.22418
19.6065 141.618 2.03787
12.1058 130.618 -4.99727
-33.5026 88.5934 -3.29929
-16.2257 115.17 15.0895
-12.7756 117.589 13.5882
8.83636 126.791 -6.43012
14.3942 133.195 -4.37858
-29.7953 102.828 15.8267
9.79342 128.193 -5.69019
-25.4977 107.664 17.138
9.73027 135.41 7.28493
-17.3842 99.3744 -11.4603
-39.1772 89.4265 7.44385
-22.2408 95.6179 -10.1226
-37.7349 87.2395 1.01941
10.2744 128.643 -5.98883
-29.5628 103.386 16.0387
19.5126 142.386 3.00165
19.4885 142.378 3.01953
-21.4378 96.4087 -10.1989
11.4408 130.939 -3.8967
-4.35255 112.826 -9.67155
10.198 130.036 -3.44649
18.8985 140.439 0.47792
10.2627 135.554 6.28973
-25.7131 92.7402 -9.66235
-26.3623 92.5467 -8.95833
13.2712 132.866 -3.69684
-24.2013 94.2161 -9.68001
-16.3252 115.435 14.9942
11.5392 136.974 6.51127
-19.4749 112.693 15.3772
9.40277 129.633 -3.06759
3.13856 120.684 -8.69214
14.2119 133.666 -4.14547
-39.2619 88.1354 4.55824
17.9162 139.355 -0.279735
-39.0199 89.1157 5.85231
2.62974 120.931 -7.55516
-0.261802 126.142 6.65743
17.9067 142.085 4.51642
15.3395 134.979 -3.97372
-3.3888 114.208 -9.55333
-30.3501 101.971 14.0237
7.54981 127.015 -5.14577
-38.2488 93.4293 11.9359
11.4939 130.808 -5.17479
6.46115 125.319 -6.52317
7.54406 126.577 -6.12337
-13.8138 117.73 14.0668
14.0851 133.95 -4.00953
-26.4781 92.9994 -8.88921
0.0777085 118.425 -8.20687
-9.13849 120.694 11.2648
5.91518 124.015 -8.23511
-38.4105 88.2071 2.46398
6.04092 132.169 6.09492
-38.8511 91.6995 9.42854
-16.1148 116.12 14.7111
-30.4057 102.297 14.0891
-38.8797 91.4055 8.88972
17.7029 139.625 -0.313796
-9.05461 120.817 11.1849
2.02275 121.211 -6.84606
7.20155 126.295 -6.50212
-17.6956 114.964 15.2382
-10.3563 106.719 -11.9445
19.354 142.838 2.53985
-1.42711 125.76 7.03831
-7.64052 109.322 -11.908
13.5485 139.726 6.71657
8.07665 126.357 -8.015
-35.2987 96.9611 12.4634
2.33352 121.674 -6.95697
5.63201 124.639 -7.26146
16.1641 141.964 5.94597
-22.6912 96.6207 -9.65728
7.57101 126.032 -8.1168
-37.3464 88.5186 0.534646
11.2725 137.783 6.59781
-9.45164 121.057 11.5245
-32.7302 90.4408 -4.04739
-31.4142 90.9153 -5.44099
-2.0273 116.589 -9.10927
-27.0688 93.3813 -8.39001
6.29171 125.619 -7.08933
14.3596 140.807 6.45691
-12.9612 104.767 -11.9913
8.34096 129.476 -3.72649
-10.0243 107.622 -11.8814
-2.22889 116.663 -8.97319
1.62905 121.838 -6.29282
14.7765 135.96 -3.23522
-3.26999 115.892 -8.71016
1.62748 121.69 -6.64546
9.11319 129.009 -6.2015
11.564 132.708 -3.72571
-15.8204 102.683 -11.2842
15.5619 136.95 -2.92071
6.57881 134.201 7.31462
9.38985 130.262 -4.49365
4.92942 123.319 -9.44261
12.7176 139.731 6.73236
-20.9113 112.875 15.4159
-22.8317 97.1819 -9.44347
-35.5315 89.6125 -1.588
-26.9103 93.8137 -8.62526
9.8788 130.848 -4.47589
-25.6073 94.7459 -9.21181
-38.6256 92.8594 9.38007
-16.8967 116.331 14.6807
-18.0827 101.086 -10.63
11.8598 133.537 -3.08816
10.2576 137.576 6.84103
10.1696 131.367 -4.1628
3.55855 130.516 5.47295
18.1743 143.279 3.64843
-22.1138 111.956 15.4938
11.9022 132.803 -4.66239
9.60493 137.2 7.08165
-38.9212 90.5076 5.35996
9.47627 129.7 -6.21867
14.1429 135.926 -3.01537
-10.4793 121.104 12.0177
-34.9862 90.0882 -2.17401
-14.9624 103.705 -11.7095
-20.0232 99.6094 -10.5343
-33.1398 99.8026 11.8884
-0.508895 119.198 -8.50942
-5.63604 124.068 8.75927
-1.53678 126.911 6.92409
15.5102 137.667 -2.6147
12.6632 135.019 -2.59737
-29.8888 92.7605 -6.45626
13.6336 140.95 6.32817
12.2746 139.919 6.75926
-12.2663 106.334 -11.9451
11.7118 133.729 -3.41355
0.0220652 121.606 -5.39946
-17.0148 116.705 14.5739
6.35421 134.125 6.23389
-15.6274 103.488 -11.5264
-8.44404 122.63 10.5405
-22.0043 112.596 15.4344
-19.5075 100.597 -10.2755
-12.6922 120.275 13.2892
-11.9447 120.692 12.768
10.5707 138.8 7.15501
18.4671 142.918 1.17988
-20.9332 113.716 15.3723
-14.8642 104.306 -11.7378
-38.7906 91.1384 4.96216
-10.0371 108.895 -11.829
-21.0784 99.4991 -10.0599
1.28918 122.634 -6.44795
-12.791 106.333 -11.9204
-9.33628 122.61 11.3181
8.42234 128.987 -7.34532
-38.5344 94.1032 9.45017
-32.7977 100.932 11.9575
-36.2856 90.6853 -0.505538
18.5046 143.75 1.99494
11.1679 133.689 -3.64501
-4.84805 116.091 -8.11921
-21.3205 99.5769 -9.89971
15.4205 138.611 -2.13476
1.96005 122.792 -7.75366
-18.9049 115.907 15.1399
-14.0327 119.766 13.7972
-1.63475 119.224 -8.10894
-24.1975 111.319 15.7769
-0.726435 128.313 6.56618
3.50465 123.447 -9.43877
1.51186 130.016 5.64435
-18.3908 102.306 -10.3984
13.9376 137.546 -1.95462
-11.6496 121.515 12.4793
-33.7552 100.311 11.8204
-4.42897 116.778 -8.24776
-29.2374 94.2192 -6.75748
6.42924 135.097 6.21457
-13.6889 120.356 13.7746
-8.83548 123.24 10.7366
-12.6932 106.978 -11.8914
5.51414 125.326 -9.85068
-12.4411 107.315 -11.8826
-14.4284 105.494 -11.7926
11.8608 135.673 -2.1932
-18.6587 116.506 15.0113
7.28209 127.551 -9.03141
-10.746 122.366 12.05
-1.8868 120.851 -5.69998
-38.3577 94.9333 9.46396
-2.75459 127.528 7.55343
-33.0868 92.8331 -3.40332
-18.7806 116.612 15.0008
13.4459 137.668 -1.71829
-37.3807 91.5378 1.39937
11.3465 135.001 -3.12687
-9.15566 111.114 -11.3154
-15.9455 104.593 -11.5653
-38.2547 94.8001 8.49676
1.2999 130.462 5.56025
14.2569 138.776 -1.47505
-6.24857 125.299 8.99298
-17.0287 103.926 -11.0879
1.93601 131.004 5.37193
-3.28208 118.543 -8.17229
-31.4787 103.697 12.8231
-24.0786 98.7668 -8.60538
12.3211 141.431 6.32596
-16.6762 118.414 13.9788
11.9655 136.61 -1.86132
-11.5274 108.935 -11.7619
0.786377 130.333 5.74252
-6.75479 115.168 -8.71827
11.6254 134.864 -4.48869
0.339362 123.81 -5.25373
-36.1403 91.9142 -0.786068
-38.15 94.9489 8.01036
-12.8338 121.669 13.0584
16.0836 144.33 4.73742
-34.1023 100.944 11.7758
9.77809 139.8 7.2235
-38.185 92.1583 2.88226
-10.1856 123.499 11.7184
11.694 135.228 -4.24513
-4.00713 118.175 -8.27873
-8.2391 112.758 -10.9562
-15.0709 105.919 -11.6808
12.8361 142.074 5.93313
-1.85715 121.909 -5.38903
-13.1614 121.65 13.2305
-33.3485 93.5715 -2.99531
-16.9695 104.444 -11.2274
-18.4277 117.519 14.4845
-28.708 95.631 -7.36778
-33.1474 93.8466 -3.19042
-6.25567 116.486 -8.10728
-37.9742 95.0078 6.96925
12.2181 141.829 6.05264
17.364 145.185 3.33257
-3.15283 120.001 -7.17457
1.95091 131.742 5.21586
-37.7038 97.0848 10.0503
4.50502 126.053 -9.406
-36.9424 98.0039 10.3484
-37.9268 95.1419 6.82015
8.0259 129.703 -8.90724
12.3447 137.889 -1.54522
-4.67049 118.355 -7.8518
-0.298133 130.332 6.18348
-31.2596 94.9612 -4.87593
8.54606 138.8 6.40232
-4.85663 118.275 -7.7715
13.7365 139.52 -1.20193
11.8458 137.288 -2.01378
-25.698 98.3683 -8.32548
-1.66148 122.784 -5.23725
-22.2453 101.168 -9.253
-13.4069 108.196 -11.6413
1.23723 124.543 -7.11866
-13.8483 107.777 -11.7038
12.4236 142.361 5.83811
-28.2774 110.083 16.748
17.4385 144.528 1.22589
17.0313 144.053 1.06081
17.4573 144.576 1.23826
1.19892 124.694 -6.92608
-34.8918 93.5462 -1.83537
-37.7427 92.851 1.72564
-31.1658 95.4051 -4.85598
0.82534 125.248 -5.46023
-35.4437 93.29 -1.49818
-9.73867 112.424 -10.6955
-14.8811 121.146 13.543
-14.5426 121.482 13.5457
-28.4324 110.16 16.6579
-19.5973 117.394 14.6788
-21.2707 116.202 15.2998
-5.36635 127.489 8.63236
-37.471 96.9377 8.13327
2.72855 125.714 -8.21798
-16.9707 105.514 -11.1323
10.4298 133.613 -7.09296
-2.9026 121.908 -5.56517
-5.58 127.358 8.70928
-7.84435 125.812 9.7565
0.431163 125.743 -4.35337
-37.5224 96.3493 7.07583
-12.1852 110.078 -11.1342
4.81246 127.273 -9.17889
-29.6496 108.9 16.0995
-2.90016 129.367 7.57614
3.66496 133.989 4.72085
0.699276 126.036 -4.63069
2.89838 126.765 -7.12349
-9.60297 125.056 10.8939
9.09225 132.064 -8.13344
13.5238 140.481 -0.572892
2.57117 127.097 -6.11351
3.33707 127.613 -6.6143
-25.3699 99.7361 -8.08646
-10.917 111.999 -10.5405
-14.5303 107.981 -11.6344
-25.7446 112.905 16.0959
-11.845 111.018 -10.7916
16.8665 145.688 2.80049
13.5546 144.173 5.61874
-30.7996 96.3677 -5.13548
-17.6512 105.677 -10.7955
-37.4693 95.2395 3.96156
-21.8575 102.435 -9.53497
13.7927 141.111 -0.525278
-3.58111 129.474 7.88269
-33.3496 95.4432 -2.86786
2.55863 133.627 4.84815
-37.4171 94.7869 2.69225
-29.7607 96.8053 -6.65829
-14.393 108.624 -11.4669
-7.84921 126.593 9.65868
15.057 142.967 0.25133
-29.8225 109.463 15.9677
-17.5491 106.109 -10.8092
-13.8312 109.412 -11.1838
-25.075 113.926 15.8811
-20.8851 103.618 -9.68827
-12.5113 124.098 12.816
-5.08464 120.298 -6.56241
10.4967 135.169 -6.27516
-19.0306 118.69 13.9572
6.79177 130.262 -8.97415
0.468381 127.172 -3.84437
-25.7146 113.585 16.0195
12.8411 140.795 -0.369026
-36.8494 97.7859 6.49166
-20.9188 117.431 14.7143
-1.74644 124.835 -4.40629
16.7059 145.758 1.88782
9.6232 141.531 6.22442
10.3301 135.321 -6.17285
-36.7244 98.7161 7.69637
3.11399 128.763 -5.92764
4.38155 129.267 -7.21134
-17.1462 106.878 -10.9901
-35.6615 95.0631 -0.892628
-1.08902 126.07 -3.81478
13.4693 141.897 -0.0578053
-35.8989 100.518 9.1726
5.6854 129.608 -9.0337
-31.7357 107.01 13.66
-37.3288 95.1438 1.79653
-4.63048 121.594 -6.09415
-36.9972 97.1344 4.75144
4.14334 135.72 4.33017
11.5463 139.293 -1.88375
-14.9959 108.975 -11.4022
-32.4694 96.9477 -3.43762
9.44229 133.978 -7.93802
6.51112 138.012 4.19472
13.1252 145.037 5.52063
4.61172 129.746 -7.53155
-4.15386 122.559 -5.61678
10.3676 136.676 -4.88199
-31.2901 108.255 14.5593
12.0243 144.147 5.67085
14.5896 146.059 4.75564
3.91972 129.828 -6.37834
-7.65625 127.78 9.49671
6.25158 130.792 -8.64706
7.10735 138.787 4.2067
6.7694 138.474 4.14712
-0.268251 127.762 -3.29147
7.01405 131.938 -8.11201
6.23338 138.101 4.14406
1.4661 128.786 -4.54451
-10.2673 126.638 11.3702
-26.1103 101.053 -7.79544
-23.826 116.222 15.4752
6.13549 131.382 -7.97124
-17.1608 107.743 -10.9881
9.85983 135.234 -7.43729
-31.3102 108.672 14.512
-18.9463 106.554 -10.1616
-18.3478 106.975 -10.4192
-29.7969 98.2527 -6.78453
-37.2482 96.3901 2.37374
-11.3935 113.852 -10.0319
-32.3366 106.826 12.6681
-19.9885 119.205 13.9754
-36.0785 100.697 8.00123
-14.4898 123.922 13.1292
9.64201 135.845 -6.38042
-25.2393 115.452 15.9735
-36.4377 100.113 7.40334
12.6114 145.247 5.36645
-21.8861 104.475 -9.41967
5.27494 137.638 4.04888
-29.1681 98.9389 -7.11585
-14.1539 111.08 -10.8308
10.8774 138.605 -3.84047
-14.7271 110.538 -10.9385
-8.9882 127.804 10.2256
-8.71428 117.353 -8.97161
5.07285 131.395 -7.15803
8.06384 140.771 4.57482
-35.3614 101.62 7.79464
-18.4143 120.79 13.503
-14.4049 124.322 13.0154
-17.4533 108.117 -10.8823
-33.439 97.5999 -2.73801
-4.85132 122.875 -5.75838
4.22457 131.009 -6.7097
-32.5427 98.0679 -3.64215
-11.5666 126.616 12.0001
-13.7612 111.856 -10.7615
10.6162 138.223 -4.80033
-15.287 123.785 13.0734
-11.5072 114.601 -9.75951
6.45937 139.172 3.88164
2.6291 130.451 -5.30952
-17.3508 108.489 -10.9048
5.45639 132.24 -6.88961
-12.7311 113.101 -10.4666
-21.0002 106 -9.29858
9.41611 136.441 -6.15009
-29.6967 111.845 15.8407
-13.4731 112.314 -10.7218
-14.4354 111.379 -10.7954
4.03987 131.414 -6.15715
-11.1109 127.218 11.8539
-10.1376 127.788 11.1683
-25.6038 115.86 15.9145
8.44113 141.66 4.61791
-28.212 113.512 16.0695
-35.1577 102.074 7.25575
-36.4333 99.4839 4.71841
6.79275 139.719 3.73755
-12.2609 114.088 -9.98695
-1.49886 133.707 6.95818
12.7757 143.08 -0.376292
-25.4 116.157 15.8401
0.408779 134.842 5.6587
-7.69611 119.697 -7.78914
-29.742 112.077 15.7916
-17.1262 109.032 -10.9666
-0.432258 129.102 -3.24221
5.59996 138.805 3.90852
-0.765982 128.951 -3.0857
-4.65064 124.044 -5.35608
-33.3606 106.046 10.886
-30.3665 111.324 15.226
-20.4279 119.987 13.8589
-14.1386 112.239 -10.6469
-17.0987 109.335 -10.9616
0.454729 135.2 5.71283
6.57872 139.876 3.66182
-25.8734 102.604 -8.28784
-5.26184 123.471 -5.80543
-22.0495 105.828 -9.10625
-36.4937 97.8003 0.875361
8.45471 142.188 4.37734
-4.88991 131.676 7.99412
8.30045 142.067 4.26603
9.23401 137.06 -6.32434
-36.5176 100.295 5.06669
-9.56472 128.776 10.5408
10.9369 145.026 4.83702
-5.02686 131.803 8.00174
-25.4623 103.278 -8.57455
-15.7307 111.31 -10.6461
-36.7522 98.5575 2.00552
4.19505 132.88 -5.71612
-0.753573 129.701 -3.11619
-36.528 100.518 5.03089
-26.0026 102.974 -8.38017
5.82911 139.712 3.65254
-4.85815 124.642 -5.34717
-3.38456 126.587 -4.4042
-14.9474 112.793 -9.60975
-36.42 100.037 3.74234
-29.1511 100.857 -7.07153
1.10822 130.947 -4.31819
3.2247 137.724 4.11008
-22.4173 106.343 -8.90622
-15.7386 112.378 -9.56942
-16.6501 124.219 13.1464
-36.065 101.46 5.15907
-15.3751 113.196 -8.94996
-28.4578 101.7 -7.44747
12.7707 147.172 4.12503
-5.37546 132.208 7.96803
8.39132 136.209 -8.20247
-35.3276 102.848 5.87709
6.77785 135.17 -7.47288
6.46007 135.076 -7.15822
-28.6749 101.859 -7.31959
-34.9712 104.354 7.71878
-35.9679 98.4471 -1.23417
10.4909 140.059 -5.18383
3.66311 138.806 4.05464
-9.96395 129.68 10.722
-9.60695 129.928 10.4721
-26.5405 103.615 -8.10009
-34.8371 99.1783 -2.07003
-22.1756 107.433 -8.75486
-35.8022 100.399 1.53404
-27.7937 115.921 15.7508
12.5695 145.032 -0.286561
14.8332 147.968 1.09399
-14.3569 115.064 -8.54138
-17.5386 111.6 -9.39326
-6.11504 124.246 -6.07665
2.1346 132.725 -4.84362
-35.4378 102.922 5.12186
-30.368 113.262 15.0557
-14.5349 115.237 -8.20168
-30.6293 112.891 14.7672
-31.9619 111.003 13.4735
-35.9705 99.3625 -0.664697
12.8367 145.954 0.330461
-31.4235 100.975 -5.48546
-29.9253 114.003 15.2802
3.04753 138.914 4.13978
-16.4465 113.63 -8.2478
8.12958 137.021 -7.88926
12.9284 146.469 0.83741
-25.348 118.472 15.3009
13.969 148.833 3.003
10.3426 145.974 3.86855
-3.1911 135.216 7.40098
-28.828 115.651 15.6526
-25.2591 105.467 -8.65328
13.1469 147.129 1.09282
-29.1834 102.966 -6.52977
-28.793 115.847 15.6305
-23.3447 120.404 14.5314
-27.0113 104.626 -7.53379
-35.7076 102.986 4.20417
-18.311 112.211 -8.65778
-13.8847 117.181 -7.29901
8.39035 144.144 3.32688
-10.646 130.493 11.02
-3.15018 135.565 7.3779
-13.0718 117.867 -7.62225
-14.1584 117.018 -7.34652
-34.8336 106.702 9.04232
3.2313 139.89 4.17339
-26.1645 118.46 15.4028
-29.7582 103.14 -5.98079
-19.6173 110.612 -9.79602
-7.84699 123.299 -6.97965
-18.004 124.923 13.0769
-16.54 114.747 -7.64716
2.58576 139.48 4.25503
-19.1915 111.486 -9.10586
-12.681 118.44 -7.65236
-32.7483 101.39 -4.37014
-4.87321 127.714 -4.33509
-11.881 118.862 -8.37667
4.33969 141.141 4.05736
11.8522 144.879 -1.94034
1.7189 138.962 4.56849
-11.7155 130.076 11.3076
-25.4567 106.135 -8.40142
-11.6842 119.178 -8.36572
-4.50425 134.804 7.48783
5.53073 136.677 -6.11758
-24.2993 120.271 14.8344
-16.1362 115.502 -7.51014
-35.5526 100.551 -1.51599
-28.7502 104.364 -6.21555
-2.28251 131.365 -2.56908
-33.1431 110.374 11.9083
-19.4825 111.637 -8.92064
-10.2769 120.866 -8.02201
13.4111 148.463 1.35872
-34.958 106.371 7.63837
-35.0995 105.988 7.1588
-4.34938 135.174 7.45808
12.0873 148.434 3.42437
-16.1219 115.824 -7.42184
-3.03017 130.92 -2.50044
-8.6172 132.653 9.96641
-15.0396 116.984 -7.2702
14.1472 149.638 1.89584
9.09256 140.619 -5.72765
-9.54449 121.921 -7.76138
-7.48808 124.774 -6.22402
-35.5449 101.399 -0.731413
-2.4367 131.62 -2.52229
8.56339 139.491 -7.06251
-9.9773 131.837 10.4956
-2.38455 136.878 6.6089
-32.286 102.37 -4.70126
-1.53408 137.595 6.24823
-21.1691 110.375 -9.42576
9.53237 146.467 3.1835
-26.1477 106.496 -8.14832
-18.4268 113.94 -7.88886
-34.2151 106.412 5.25577
-34.2174 106.107 4.69286
-24.4221 108.212 -8.08534
-33.2676 110.2 10.399
-26.6863 106.199 -7.88065
-32.478 102.627 -4.51211
-10.3695 121.977 -7.24725
-33.242 110.454 10.6736
-12.0348 120.753 -6.70175
-31.6807 103.209 -4.9787
-23.9873 108.805 -7.99437
-0.178256 133.973 -3.17302
13.4403 149.769 2.09852
-4.68483 129.929 -2.88485
-11.0481 131.564 10.6083
-18.0477 126.159 12.6593
-26.3371 106.825 -7.98601
-34.2216 102.201 -2.95757
-32.1835 103.19 -4.69114
-24.098 121.601 14.5854
-33.4413 108.095 6.1259
-21.9265 123.104 13.4834
11.6037 148.948 3.05197
-30.4422 104.748 -5.18055
-10.0577 123.042 -6.87907
-11.4675 121.897 -6.58476
-17.3993 126.914 12.2465
4.91534 143.094 3.47929
-20.3962 112.689 -8.2432
-35.6265 102.301 -1.15438
12.2039 148.274 0.397883
-14.9832 119.243 -5.72561
-30.9707 115.117 13.8748
-6.34796 128.381 -3.95834
11.4798 145.961 -2.63552
-10.5625 123.044 -6.47521
6.53126 144.453 2.98627
-35.4415 103.209 -0.105751
-3.95532 137.059 7.32875
-7.76666 134.419 9.00176
-26.0196 107.718 -7.99007
-32.9821 110.34 8.36069
13.1144 150.147 1.78141
-1.65308 133.844 -2.47923
-1.72458 133.816 -2.43965
-5.08613 136.362 7.72633
-32.8587 111.808 10.6409
-20.3343 125.116 13.3059
-20.914 112.624 -8.12889
-9.79811 124.062 -6.41959
-14.2382 120.626 -5.21678
-19.6365 125.778 13.097
-25.7597 108.354 -7.83836
-18.2665 126.799 12.5134
-3.29623 132.862 -1.91707
-26.2093 107.968 -7.82476
-34.8479 104.875 1.09454
11.8898 147.502 -1.51281
-31.2241 105.071 -4.8314
-23.6186 110.462 -8.03993
-15.7601 119.194 -5.69079
-5.61628 136.381 7.91791
-12.6467 131.345 10.7378
-32.6484 112.44 10.555
-35.0489 104.74 0.755042
-26.3054 108.271 -7.70091
-14.1621 121.344 -4.88417
-25.2436 109.424 -7.56633
11.623 147.457 -1.72006
-31.0294 115.502 13.0536
10.7975 145.962 -3.08982
-8.08746 127.304 -4.62036
-32.8524 111.268 8.47895
-16.3576 118.865 -5.80606
1.52667 141.391 4.27239
-9.38769 125.713 -5.40063
-3.83737 132.823 -2.04491
-5.96825 136.415 7.98344
-33.1616 104.279 -3.64655
2.11718 141.896 4.11679
-32.8517 111.481 8.67756
-26.8967 120.448 14.6665
-16.7444 118.534 -5.911
-31.0639 115.488 12.8136
-30.7637 116.471 14.0274
-8.52587 126.901 -4.86082
1.5453 136.912 -3.95444
-14.8375 130.171 11.6336
-30.5987 116.719 14.1084
-34.686 103.862 -2.10192
-35.5834 104.012 -0.338981
11.5464 148.097 -0.985249
-31.7728 105.326 -4.43819
9.99428 144.501 -4.85748
0.628089 141.054 4.78362
0.888919 136.621 -3.6635
11.4976 148.449 -0.502851
-26.6828 108.59 -7.41275
-14.9884 121.182 -4.61304
-34.6293 106.69 2.59483
-31.8694 114.099 11.1488
-20.8045 113.962 -7.8576
-1.8088 135.356 -1.71456
-4.7584 137.559 7.14651
-22.9105 111.73 -8.46007
5.95529 140.167 -6.2862
-0.161393 136.425 -2.73263
-15.6032 120.607 -5.01681
-30.6736 117.017 13.9737
-25.8454 109.711 -7.42617
-7.30569 129.33 -3.76139
-17.2788 128.877 12.2682
-16.2373 129.851 12.1977
-1.55805 140.263 6.04368
-7.91874 128.684 -3.95769
-31.1424 115.851 12.1878
-10.3962 125.684 -5.337
-33.9517 109.459 5.36981
-32.15 113.801 10.0705
3.41963 138.823 -5.20591
9.96453 149.358 2.50317
11.8921 150.181 0.579544
9.93719 145.3 -4.87663
-33.1828 105.599 -3.16127
-11.3435 125.443 -4.57695
-16.9934 129.656 12.369
2.47039 143.262 3.83701
-21.4591 114.387 -7.56894
-13.1679 123.942 -4.53762
-23.8944 111.905 -7.99854
-10.4165 126.377 -4.84642
-3.25063 135.308 -0.959634
7.05484 147.065 2.69011
-30.9005 117.202 13.1625
4.32944 140.088 -5.34797
-9.77575 127.082 -4.84265
12.3783 151.233 0.945028
-34.097 109.787 5.16903
-18.5272 128.343 12.0612
-34.552 108.748 4.03143
-31.3237 107.044 -4.52675
-20.4757 126.901 12.7102
-15.2904 131.157 11.5514
-16.4729 120.724 -5.1392
-9.02046 135.66 9.01678
-20.926 115.14 -7.63245
-1.39408 137.078 -1.33352
0.54807 138.007 -2.97862
5.62266 146.159 2.92598
3.47703 140.03 -4.44257
-29.704 108.075 -5.65768
-30.7952 107.55 -4.80588
8.52831 148.673 2.42095
-28.6228 120.493 14.6886
-27.2435 121.646 14.3392
-30.9154 117.517 13.1119
-2.17812 136.71 -1.13383
-3.36817 135.716 -0.938271
-31.2786 116.501 11.7705
4.0365 141.036 -4.11393
-26.8697 110.191 -7.18043
9.60795 149.96 2.31949
-0.697583 137.858 -1.96354
-2.93284 136.298 -1.00239
-27.8727 121.39 14.365
11.9881 151.443 0.81797
-0.968431 141.826 5.41517
-26.6261 122.682 14.3738
-31.5798 116.269 11.1726
-35.0894 107.357 1.12937
7.89436 148.621 2.43751
10.9289 150.207 0.144472
10.3568 149.191 -0.787092
-1.62087 141.488 5.59624
2.62504 140.6 -3.1679
-28.383 121.224 14.4453
-33.0962 112.806 7.29542
9.68376 147.002 -3.83981
-33.6636 106.902 -2.57523
-31.546 107.829 -4.4949
-17.4814 130.501 12.3082
11.7652 151.834 1.07344
8.39737 145.066 -5.42233
-34.2066 110.563 4.70043
9.72989 147.667 -3.07333
-22.4022 114.96 -7.39558
-34.8386 107.006 -0.661904
5.66217 142.898 -4.9045
-4.99721 135.196 -0.761724
-12.9474 126.483 -2.97364
1.80049 140.536 -2.71574
5.81426 147.373 2.73472
-13.6799 125.756 -3.10151
-17.4529 121.21 -4.90119
-0.121196 143.045 4.91031
-0.914164 142.428 5.11008
-18.3198 119.921 -5.80964
-25.2685 112.53 -7.41929
7.30016 144.248 -5.70564
-1.17863 138.661 -1.42497
-26.5 111.686 -7.06224
-9.93705 136.238 8.75001
2.54983 141.544 -2.86705
-34.5006 107.154 -1.9277
-32.2095 115.85 9.76941
-26.8339 123.516 14.4095
-12.7077 127.343 -2.59449
-17.5048 131.167 12.2752
-34.3355 107.994 -0.812214
-18.4354 120.358 -5.52273
6.83549 148.626 2.40734
-15.543 124.626 -2.84807
-28.8851 109.989 -6.56793
-19.143 129.593 12.0828
-6.26285 134.331 -1.20132
-3.76847 140.654 5.89583
-14.7306 125.493 -2.78782
-27.0319 111.682 -6.77154
-10.3375 129.825 -2.51446
1.89696 144.959 3.88995
-28.0104 110.841 -6.74354
-26.8319 111.997 -6.69918
3.46782 146.192 3.31007
-21.2548 116.999 -7.24932
-16.0917 124.318 -2.8623
-14.1963 126.262 -2.65853
-11.8602 128.767 -2.14763
-11.7322 135.424 9.50928
-16.9146 123.395 -3.29597
-25.5528 113.377 -6.72749
-24.9068 113.853 -6.97425
11.0135 152.381 1.29708
-19.9988 118.911 -6.31141
-8.62975 137.47 7.67754
-14.3049 126.418 -2.54039
-34.3548 109.938 1.78022
-28.5196 110.918 -6.42468
7.2103 149.42 2.18046
-8.73379 132.068 -1.97318
4.94488 147.661 2.8326
3.65265 143.09 -3.19158
-0.442983 143.595 4.5942
10.5251 151.518 0.227559
-15.3381 125.668 -2.44808
3.87691 143.29 -3.34397
-15.465 125.57 -2.43999
-14.9183 133.53 10.879
-28.143 123.022 14.3606
-7.96127 138.086 7.22585
3.62252 146.779 3.20342
-27.9988 123.216 14.3424
9.60596 149.994 -1.32427
-18.9437 130.687 12.3042
-0.126593 144.077 4.46066
-28.7079 111.184 -6.18343
9.66228 151.822 1.72409
9.28044 148.738 -3.17913
-19.6988 120.101 -5.62163
4.45806 147.76 3.02301
-33.9603 111.29 2.55381
-4.11395 141.261 5.81579
-29.904 121.056 13.1775
-15.1093 126.437 -2.18915
-19.2546 120.841 -5.21134
-9.4318 132.229 -1.44172
-31.0862 119.081 11.5521
-7.95022 133.68 -1.4113
9.21679 149.048 -2.91844
-30.0887 120.822 12.8592
-24.1397 126.627 13.1965
-13.3246 128.609 -1.52512
4.34195 147.873 3.06351
-23.7506 127.003 13.114
-21.4206 128.818 12.425
-13.6115 134.782 9.88642
-33.9163 108.952 -2.10813
-12.9649 135.332 9.68224
-20.1271 129.899 12.0444
-16.2578 133.323 11.4666
-32.7282 115.868 7.89142
-19.6786 120.911 -5.15478
-3.14113 142.372 5.34034
2.90186 143.665 -2.56258
-17.637 132.341 11.8305
-16.4326 125.646 -2.20185
-13.8178 134.887 9.86339
-33.1499 114.743 6.42741
-22.6247 117.186 -7.16436
-7.79042 134.858 -0.59489
6.35964 145.912 -4.69975
-28.1691 123.765 13.9323
5.49401 145.449 -4.13593
-6.69852 136.055 -0.432787
-13.8144 135.149 9.78061
-8.11913 139.05 7.06141
-31.7579 117.667 8.61217
-11.361 136.87 8.51917
-9.87764 137.804 7.68153
-31.7712 118.419 9.86677
0.965652 142.741 -1.87036
-4.51819 141.835 5.76338
1.93143 146.671 3.52439
-2.74097 139.839 -0.902184
6.20066 146.449 -4.23477
-33.2385 110.022 -2.88335
-21.3485 129.746 12.2561
-33.8499 111.406 0.524376
-14.9566 134.605 10.0559
-12.8262 136.22 9.29762
-23.141 128.48 12.8497
-14.6775 128.572 -1.29811
4.47859 145.583 -3.19224
4.38365 145.541 -3.13868
-25.9461 115.17 -6.33741
-3.49732 142.75 5.1105
-14.4404 128.981 -1.09542
-21.0427 130.152 12.1162
-31.2169 112.052 -3.24544
-31.8356 117.456 7.45919
-21.6878 129.761 12.3488
-11.7907 131.911 -0.536316
9.03097 150.897 -1.80921
-3.7043 139.518 -0.760648
-31.3121 119.485 9.9714
-12.8012 131.061 -0.575025
-31.3503 119.433 9.79049
-30.4202 112.161 -4.85375
-9.09337 138.996 7.13704
9.96053 153.214 0.421352
9.87301 153.026 0.227588
-31.4157 117.882 6.9714
-33.2699 112.577 0.424333
-31.1608 118.158 6.84046
-30.9958 118.932 7.93394
-33.4066 113.755 2.70574
-29.4622 113.02 -5.36255
-16.1013 134.546 10.5645
5.14935 147.064 -2.92489
-5.07149 138.874 -0.584229
-20.376 131.76 12.3913
-22.8947 129.63 12.8254
-24.4147 117.127 -7.08222
-26.0391 127.384 13.9474
8.81188 151.476 -1.77753
-31.2024 113.138 -3.01461
2.82011 145.689 -2.29692
-33.6805 112.313 -0.51694
-16.375 128.414 -0.910031
-21.2164 121.717 -4.78247
-10.1165 134.691 -0.320929
-28.9331 124.49 13.0471
-25.3461 116.818 -6.78693
-33.5718 112.266 -1.18773
9.3373 153.425 0.041995
-4.2088 140.191 -0.791074
-30.5316 119.54 6.65651
-6.34505 138.411 -0.399936
-30.3572 121.713 10.2273
-33.5345 112.291 -1.34173
-7.98114 136.915 -0.416977
-24.0408 118.181 -6.85697
3.30489 146.447 -2.43066
-6.56838 141.709 5.68994
-31.2648 117.363 3.76446
-21.9141 121.143 -5.28938
-12.1365 133.127 -0.369812
-7.02273 137.915 -0.460408
-16.8696 134.97 10.7361
-22.6373 120.317 -5.86541
-16.2458 135.379 10.1909
-10.2268 139.48 7.14139
-18.1446 134.009 10.7099
9.15336 153.988 0.381147
-19.0278 133.406 11.0025
-15.8155 129.978 -0.577063
-31.3106 114.018 -3.07192
-5.14417 139.993 -0.745709
-30.4611 121.543 8.93664
-33.1572 113.492 -1.13086
-14.1142 137.047 8.82309
-3.88727 141.192 -1.06038
8.6874 153.241 -0.718001
5.57937 149.059 -3.00124
9.16608 154.811 1.23147
-32.408 113.632 -2.35241
-16.0353 130.097 -0.54039
-30.1301 121.992 8.39208
-29.0052 125.212 12.1266
-24.0878 130.387 13.0581
-11.8499 134.407 -0.552171
-0.355868 147.514 3.28554
-22.6735 131.593 12.392
-7.01719 142.284 5.05335
-32.655 115.728 0.6914
-9.43303 140.805 6.37683
-33.1041 114.19 -1.31405
-28.7496 125 10.6568
5.02413 149.339 -2.82355
-6.78942 142.539 4.87826
-18.5453 128.07 -1.26287
3.64563 148.242 -2.62072
-32.5806 116.204 1.15775
-3.67507 142.102 -1.29905
-18.9457 127.604 -1.53705
7.48259 151.478 -3.50338
-19.5549 133.956 10.7364
3.7719 148.586 -2.62332
-29.7675 122.808 7.82047
-13.689 138.202 8.12901
-30.7636 115.721 -3.5751
-31.151 115.497 -3.33318
-20.1039 133.792 10.7527
-27.479 128.063 12.812
-5.77529 143.752 4.21122
-19.6788 127.166 -2.02393
-5.66926 140.76 -1.35055
7.88034 154.898 0.994848
-19.0944 128.167 -1.37448
-20.5669 133.648 10.8998
-4.61517 144.779 3.8017
-26.6046 128.963 12.6022
-10.6625 136.337 -1.21955
-6.30285 140.318 -1.53169
-28.532 117.017 -5.85557
-27.1986 118.149 -6.23021
-9.96356 141.195 5.8749
-21.2877 133.553 11.1981
-29.279 125.49 10.2162
-7.52985 139.266 -1.96047
-22.8307 132.835 12.2632
-13.6923 139.03 7.75471
-5.76725 144.379 3.93917
-32.5119 118.611 2.94162
-28.7706 127.071 11.7282
-19.6125 134.656 9.80915
-32.3807 115.982 -2.12605
7.25615 153.916 -1.15073
-30.1371 123.034 6.57914
-28.7711 117.51 -5.62356
-31.4611 121.134 5.36926
-8.21426 138.948 -2.04061
-10.4136 141.268 5.73855
-32.3972 119.496 3.79576
-31.0223 121.871 5.64394
-30.9872 116.742 -3.64048
-5.18371 145.159 3.62321
-26.4243 119.645 -6.24971
-16.4418 137.551 8.95091
-27.2768 119.026 -6.04425
-27.8409 128.625 12.0837
-17.3719 131.338 -0.829052
-20.7326 134.178 9.89642
-20.7292 134.192 9.89102
-31.9154 116.542 -2.87779
-27.3229 129.159 11.9506
-26.181 130.497 12.4088
-5.56371 145.082 3.64694
-0.915207 146.198 -2.2378
-18.0317 136.589 9.3527
-28.9817 118.083 -5.33971
-14.7447 133.686 -1.47466
-31.3758 117.043 -3.39877
-33.049 116.878 -0.888551
1.66919 148.694 -2.55192
-16.2963 132.62 -1.28729
-19.0632 135.876 9.13001
-21.3985 134.158 9.94228
5.05638 152.003 -2.87723
-0.890535 146.696 -2.33898
-30.6366 124.06 7.2262
-23.8568 132.94 11.6257
-29.8697 126.348 9.95115
-18.1392 131.142 -1.28044
-8.71172 143.182 4.31182
-0.356472 147.337 -2.39795
-33.1551 118.765 1.7899
-23.7233 124.604 -4.00809
-14.4149 134.481 -2.06256
-5.26626 146.193 3.23844
-7.69928 144.251 3.7791
-4.01004 147.652 3.45967
-19.7223 136.005 9.11305
-32.9074 118.132 -0.719578
-32.1914 117.888 -2.36997
-26.6073 131.152 11.9367
-15.0839 134.19 -2.16679
-28.8287 119.598 -5.13312
-22.0148 134.509 10.0251
-10.1941 138.704 -2.46043
5.97085 154.575 -1.36312
-6.8361 141.972 -2.32456
-31.7618 118.317 -2.78014
-27.6633 130.149 11.3021
-27.061 130.899 11.6175
-0.384227 148.146 -2.56471
-16.733 133.077 -2.28813
0.74686 149.449 -2.66847
-19.7139 131.391 -0.560622
-5.67752 146.871 3.43304
-26.1187 131.909 11.1563
-12.5715 141.362 5.1932
-32.2982 122.151 4.03834
-29.8923 119.901 -4.14901
-26.0061 123.146 -4.98957
-23.9622 133.718 10.4686
-18.2529 132.103 -2.09742
-20.806 129.943 -1.6611
-21.6422 135.537 9.57812
-28.7921 120.732 -4.8792
-14.4046 140.351 5.92013
-16.1795 139.317 7.03528
-29.1229 129.284 10.9015
-16.4902 139.186 7.18958
-24.8747 125.219 -3.85103
-31.0757 125.487 7.06709
-2.17105 147.309 -2.82154
-13.7616 140.88 5.17747
3.64604 152.767 -2.99086
-15.1727 140.011 5.92943
-13.7467 140.97 5.03738
0.713553 150.2 -3.03571
-22.3816 128.655 -2.7016
-12.997 141.71 4.79815
-32.8538 119.908 -0.719956
-31.634 120.099 -2.46607
-16.9919 133.674 -2.88462
-2.61034 147.212 -2.9272
-17.5234 133.284 -2.8225
-22.8004 128.374 -2.75737
-31.4712 125.485 6.67654
-1.98427 147.954 -2.97207
-19.3094 137.864 8.18528
-21.6255 129.861 -2.3214
-4.57063 145.649 -2.93537
-32.9679 120.399 -0.224626
-20.9488 131.275 -1.30876
-30.3228 128.56 9.61446
-31.8555 125.157 6.07804
-25.6942 132.711 9.18957
4.07857 154.876 -1.59269
-13.4436 142.23 5.07107
3.62946 154.441 -1.91455
-21.0604 131.732 -0.99022
-30.1737 121.791 -3.46718
-32.7305 123.298 3.5004
-9.80777 141.24 -3.10257
-33.0753 122.36 2.28354
-30.2875 128.894 9.2017
-22.3605 135.964 8.37284
-17.0982 134.59 -2.97402
-4.38027 146.534 -3.20444
-26.7804 124.69 -4.51636
-0.996859 149.693 -3.44821
-25.1893 126.855 -3.58174
-20.1468 132.701 -1.89258
-18.8125 133.451 -2.83558
-32.3415 125.148 5.12449
-7.2585 147.814 3.32646
-26.67 132.786 9.16401
-32.2102 125.769 5.86969
-17.3904 139.473 5.37799
-18.0411 139.377 6.28065
-26.5764 132.859 8.95652
-1.40477 149.636 -3.57755
-28.0882 132.176 10.1778
1.02034 151.971 -3.53804
-22.1499 131.117 -1.81124
-13.9403 142.926 5.40621
-4.78912 146.676 -3.37652
-22.7671 136.227 8.14658
-25.9701 126.62 -3.77995
-16.3087 141.053 5.70221
-26.2738 133.089 8.25614
-32.2038 122.36 -1.0222
-21.4845 132.442 -1.13225
-4.51674 147.19 -3.49666
-10.6442 141.46 -3.64982
-14.644 142.741 5.37667
-25.0118 128.296 -3.13449
-25.8683 133.549 7.55104
-13.8568 138.583 -3.74341
-17.8572 139.899 5.28543
-23.6189 130.751 -1.4153
-14.4312 143.134 5.08975
-4.8315 147.331 -3.64326
-32.8489 124.399 2.33818
-32.8921 124.772 3.05962
-28.509 124.96 -4.08565
-29.763 130.532 7.99178
-18.9203 135.252 -1.86944
-12.9404 139.993 -3.58189
-28.9753 132.017 9.12504
-18.3971 139.98 5.5044
-5.26468 147.225 -3.72017
-27.4371 126.445 -3.49506
0.879579 154.071 -1.97348
-15.7546 137.802 -3.02789
-28.3369 126.637 -1.78825
-21.281 133.665 -1.12753
-28.896 124.956 -3.87061
-14.849 143.145 4.93708
-17.866 136.189 -2.48522
-26.5721 127.907 -2.75165
-26.9479 127.23 -3.3311
-8.39399 144.627 -3.5251
-25.2958 130.473 -0.388191
-16.6897 137.492 -2.35541
-28.8626 126.92 -0.754223
-28.7061 126.04 -2.62445
-1.69007 150.717 -4.1025
-20.2379 139.029 6.24759
-24.0876 131.148 -1.50621
-29.4146 131.868 8.6576
-25.4908 130.02 -1.29914
-25.756 129.929 -1.18163
-32.9246 125.389 2.7133
-17.8296 136.968 -2.06173
-29.3196 125.388 -3.43434
-25.146 130.654 -1.11174
-15.5407 138.451 -3.42127
-27.4971 133.37 7.52224
-15.8401 142.837 4.75263
-29.3952 125.999 -2.69564
-29.3535 129.026 2.61088
-28.3573 129.044 0.909695
-30.3374 130.481 6.82517
-10.7468 143.021 -3.85513
-30.7388 126.23 -0.181007
-10.4172 143.395 -3.77667
-18.5959 136.939 -1.6251
-30.7762 126.129 -0.502384
-28.0532 128.046 -1.69595
-26.8197 129.541 -1.24703
-23.7686 132.717 -0.731103
-27.6829 128.803 -1.23734
-29.5464 132.466 8.45376
-26.7749 129.778 -1.19155
-29.4631 129.099 2.09662
-18.7101 137.376 -1.24926
-26.9995 134.008 6.67797
-27.0329 129.54 -1.2788
-0.496873 154.084 -2.15215
-27.6681 133.659 6.98028
-28.6554 129.539 1.19266
-21.2986 139.366 6.31964
-22.145 138.852 6.67335
-26.7554 130.089 -1.30854
-10.2785 144.253 -3.91909
-29.0574 133.109 7.77704
-32.5823 126.992 2.73441
-30.5656 128.489 1.93111
-21.1632 135.614 -1.62113
-29.5002 129.398 1.27588
-32.1291 128.453 3.99246
-14.5903 144.882 3.78542
-14.9289 140.689 -3.16201
-27.3837 131.138 0.479756
-25.343 132.148 -1.1961
-11.5348 147.13 2.28187
-29.6707 129.745 1.60759
-27.0808 131.442 0.233049
-18.248 138.651 -1.77281
-27.1274 130.696 -1.1229
-26.744 131.056 -1.17375
-30.7557 129.203 2.18138
-28.3157 130.853 0.995945
-25.2697 132.671 -0.929314
-28.2284 129.83 -1.21613
-27.3432 131.721 0.613955
-8.93503 146.264 -4.46519
-28.2433 131.292 1.26796
-2.15525 153.65 -2.75027
-16.6763 139.781 -3.0935
-18.1409 142.699 4.51493
-26.9669 131.715 -0.30708
-21.0258 136.806 -1.31001
-9.50061 145.914 -4.49517
-30.9518 131.455 5.72885
-27.7288 131.782 0.862828
-22.6806 139.75 6.57453
-6.41224 148.815 -4.72746
-28.032 131.583 0.905393
-31.7591 131.73 7.35352
-31.2208 129.159 1.82288
-15.2466 141.348 -3.33317
-30.012 130.591 2.29884
-31.599 131.577 6.4788
-27.7696 132.274 1.22737
-31.2533 129.193 1.55549
-31.8017 130.086 4.04949
-31.447 131.939 6.68882
-19.7859 142.993 6.76282
-30.7101 131.635 4.75699
-18.872 139.179 -1.74812
-26.8126 136.361 6.57763
-12.3391 147.392 1.81767
-30.3037 133.031 6.36948
-31.4179 130.003 2.80126
-7.14263 148.617 -4.88218
-30.2621 133.069 6.31173
-30.0829 131.275 2.54826
-19.9903 138.826 -1.01707
-3.52781 153.34 -2.86635
-26.1313 133.397 -0.57554
-26.8369 136.843 6.78114
-31.6991 131.282 4.90369
-20.8783 142.573 6.64868
-26.3223 133.672 -0.130366
-19.6941 143.019 5.34333
-5.5477 150.763 -4.72346
-6.27803 150.091 -4.80769
-30.5094 133.763 6.84553
-28.9193 131.965 0.929431
-29.1921 131.64 0.631691
-21.7768 142.126 6.83132
-31.0435 131.811 3.97204
-30.3384 134.027 6.7492
-27.5031 133.431 0.811265
-22.8502 141.416 7.1945
-23.1798 141.12 7.10368
-29.3802 132.122 1.35478
-32.5004 130.683 4.02474
-30.8617 132.927 5.2683
-30.0642 131.462 1.23213
-31.78 132.171 5.39639
-12.421 147.687 0.434754
-19.9096 143.751 6.03121
-24.8924 139.599 6.96854
-18.5068 140.522 -2.19263
-19.1293 143.912 4.87007
-18.5738 140.516 -2.15762
-25.3401 135.807 0.833187
-20.0543 144.36 7.16343
-32.0172 131.82 4.88114
-24.9923 136.213 0.575076
-18.996 140.477 -1.99976
-17.2282 141.649 -2.9569
-7.55225 149.701 -5.10892
-25.319 136.002 0.34189
-24.6388 136.701 0.414395
-33.1126 131.31 5.06023
-19.4755 140.331 -1.85389
-26.1358 135.283 0.269872
-6.96269 150.41 -5.03631
-5.34936 152.798 -3.56476
-26.121 134.868 -0.623629
-25.7368 135.632 0.0227904
-21.5796 139.248 -0.528335
-25.5351 135.853 0.0532172
-5.41628 153.307 -2.70105
-31.4861 132.897 4.77097
-9.07591 148.51 -5.15399
-15.3341 146.755 2.16075
-24.5514 136.777 -0.175183
-19.259 144.624 4.81665
-15.3069 146.815 2.02156
-30.9136 131.566 1.05473
-31.2667 131.489 1.49584
-22.8188 138.187 -0.856889
-8.17342 149.651 -5.09457
-5.79136 154.158 -1.06773
-20.9976 144.438 7.11292
-23.5781 138.216 0.326035
-32.8039 132.232 4.91421
-15.4266 146.971 1.91792
-7.66683 150.488 -4.98735
-30.8725 135.497 7.29244
-30.4794 132.298 0.89675
-31.4953 134.745 6.96875
-6.13513 154.603 -0.317116
-24.6312 137.463 0.147945
-17.8661 145.496 3.08807
-33.2377 130.707 2.5256
-19.8295 145.503 6.31031
-32.9342 130.885 2.23652
-22.8686 143.183 7.24741
-26.5667 135.335 -0.606421
-24.9272 141.169 7.04901
-32.9659 130.919 2.14397
-20.8054 145.123 7.04294
-29.8863 133.07 0.729521
-30.9242 131.822 0.212409
-16.6944 146.75 2.8958
-29.6338 137.471 7.87521
-19.8632 145.289 5.05008
-19.8059 141.414 -2.09409
-14.2494 145.897 -3.66264
-28.5765 134.486 0.0572857
-26.5396 135.756 -1.15662
-23.3626 139.485 0.0983891
-24.2197 138.25 -0.891873
-21.4593 145.329 6.97474
-21.6652 140.619 -1.17308
-15.463 145.275 -3.34242
-20.5342 141.413 -1.92859
-11.1381 150.916 -0.77953
-33.5356 131.227 1.77982
-22.413 140.239 -0.865776
-22.3264 140.344 -0.842266
-13.5234 146.901 -3.9822
-20.1392 141.667 -2.26761
-32.7495 131.618 1.00668
-26.0771 136.593 -1.49546
-18.4278 146.502 3.33178
-23.3175 139.469 -1.0733
-6.8998 153.362 -3.92168
-7.27301 154.407 -1.44768
-24.3358 138.608 -1.10473
-17.9708 146.765 2.71944
-18.251 143.144 -3.36277
-34.0588 131.307 2.06718
-21.9324 141.223 -0.6665
-32.2927 132.048 0.345282
-14.3978 149.085 0.607555
-22.2075 141.029 -0.734466
-17.7686 147.041 2.49287
-19.4365 147.836 6.58951
-31.9747 132.397 0.0644478
-7.49201 154.245 -2.40845
-17.7213 147.416 2.52593
-21.4137 146.397 6.92407
-7.78923 154.788 -1.06878
-20.7165 142.01 -2.13375
-17.6829 144.302 -3.20609
-13.0915 150.562 0.22228
-35.8109 132.15 5.58063
-27.0689 141.235 7.06964
-21.1509 141.814 -1.99236
-32.3039 132.364 -0.094153
-31.6367 134.003 1.65411
-12.6218 151.247 0.282939
-16.3567 148.771 2.13999
-23.9957 139.604 -1.46822
-33.1955 131.68 -0.269227
-16.383 149.037 2.4219
-23.4393 145.092 7.26861
-23.4939 145.078 7.28896
-15.548 146.523 -3.63169
-15.4838 149.574 1.71331
-9.50185 151.696 -4.69089
-34.9478 133.624 5.87776
-32.6374 133.692 2.02739
-18.4502 148.124 3.90358
-9.50799 151.775 -4.66099
-14.7798 150.373 1.62895
-16.8082 150.437 5.15532
-19.4344 148.828 6.65676
-18.3283 144.573 -2.89138
-19.1009 148.595 5.51494
-20.8315 143.707 -0.498174
-35.159 133.79 5.83315
-33.5152 136.453 7.51602
-19.2111 149.056 5.92129
-16.0477 150.597 3.27353
-16.3076 150.798 3.98662
-12.0704 149.965 -4.70203
-34.8029 132.1 1.66769
-28.4709 136.861 -0.563441
-30.4745 135.348 0.0279802
-22.1258 147.315 7.30388
-27.0583 142.304 6.63655
-18.8539 149.762 6.10218
-15.8127 147.675 -2.79246
-25.2918 139.613 -1.2542
-12.5981 153.234 1.68926
-9.5895 152.805 -4.20077
-17.9038 146.954 -0.804664
-17.3282 151.024 5.45265
-10.9149 154.142 0.125634
-25.8286 143.672 6.54254
-25.6683 143.97 6.74803
-23.9666 146.103 7.60285
-14.6532 152.377 2.96211
-23.7233 141.977 -0.399635
-35.9101 134.686 6.96825
-17.4108 146.911 -2.44087
-16.3323 148.017 -2.38907
-27.015 142.856 6.40564
-25.877 140.009 -0.768021
-9.46195 155.025 -1.67462
-36.7107 132.289 3.53862
-19.0348 146.751 -0.601987
-16.7625 147.934 -2.33495
-25.0684 140.385 -1.85574
-24.2831 142.294 -0.266965
-35.6067 135.631 6.62334
-25.1882 140.812 -1.81778
-15.0551 150.611 -1.47878
-14.8848 150.826 -1.4329
-10.4075 155.16 -1.24549
-28.9207 137.79 -1.20381
-10.4196 154.061 -3.34167
-15.1637 153.347 3.38584
-35.8021 132.14 0.0816634
-28.1356 143.107 6.60984
-33.2593 139.105 8.06311
-36.7005 134.727 5.98792
-19.9318 150.807 6.4614
-37.328 132.119 2.3385
-12.4191 152.199 -3.77822
-10.4087 155.226 -2.10751
-32.5576 136.474 1.39586
-23.5672 148.149 6.93844
-38.0188 131.498 1.51099
-13.779 153.143 -0.702861
-35.9919 136.675 7.3147
-23.9171 143.896 -0.302662
-18.4575 149.108 -0.341884
-38.7791 132.123 3.48334
-12.7366 153.559 -2.13959
-38.118 134.994 7.24579
-11.3677 155.287 -1.62358
-26.1639 141.731 -1.21678
-31.4035 141.574 7.29568
-25.2102 143.009 -0.713863
-19.8769 148.318 -0.316721
-29.6653 138.831 -0.82836
-36.6405 136.647 7.01374
-39.1592 132.176 3.23931
-27.5837 144.714 6.11599
-38.3615 134.395 5.83466
-27.4275 141.5 0.0653011
-17.4495 153.096 3.92086
-27.7664 144.658 6.12593
-35.6949 135.864 3.66382
-25.7527 147.273 7.22777
-20.0693 151.762 5.66862
-29.8043 139.72 0.482289
-18.8975 152.582 5.05465
-23.7419 148.88 6.5715
-29.9884 142.914 6.39025
-23.2509 149.454 6.38852
-39.4317 133.083 4.38102
-18.6592 152.836 4.59505
-25.0398 144.158 -0.177692
-38.672 134.663 5.81926
-34.2516 140.467 7.92001
-37.555 136.772 6.80271
-34.3945 137.155 2.11367
-19.2985 150.049 -0.417798
-28.7396 142.211 1.32486
-26.79 142.754 -1.03308
-31.8549 138.649 -0.0272366
-17.7605 151.872 -0.215143
-32.4816 142.027 6.93424
-31.9993 138.832 0.298258
-16.6441 153.566 0.64883
-17.3791 152.95 0.508194
-34.9785 137.391 2.32703
-34.1595 141.104 7.58597
-28.9393 142.93 1.99459
-19.6226 152.975 4.06326
-17.7871 153.21 1.23707
-32.9589 142.113 6.87512
-40.3986 133.809 4.33023
-35.5166 140.526 7.93238
-37.5922 136.614 4.38263
-21.4621 152.24 4.93048
-29.8594 143.092 2.14994
-36.1242 140.473 7.96324
-19.58 153.39 3.13021
-28.2569 143.574 0.169329
-19.5542 153.321 2.70206
-40.2976 136.37 7.34224
-34.4699 141.764 7.13909
-24.5035 147.675 0.647766
-21.5286 150.385 0.220055
-32.4038 141.514 2.18651
-22.5011 152.133 4.24699
-28.3161 144.737 0.786793
-25.0169 150.597 5.5794
-34.2761 139.997 2.06684
-24.0897 148.912 0.671763
-20.6651 152.45 1.00658
-20.962 152.293 1.10384
-22.231 150.879 0.501827
-28.235 145.631 1.15616
-24.3399 149.106 0.751763
-32.6336 142.217 2.38518
-30.8056 144.243 2.91714
-32.5828 144.131 5.55728
-23.3758 150.259 0.752818
-36.5838 141.682 7.62582
-24.5972 151.248 4.36209
-37.2893 141.269 7.68721
-35.0213 142.946 6.84887
-29.4682 146.419 3.64046
-36.2441 139.341 2.18779
-37.7155 141.084 7.67772
-30.324 147.025 5.79831
-23.3906 151.277 1.69734
-38.3387 140.61 7.66825
-31.0161 145.283 3.51035
-33.2083 142.8 2.68869
-23.9948 150.938 1.68762
-30.5467 145.868 3.66926
-28.3962 147.107 2.07786
-27.2402 149.88 4.99549
-31.0039 145.588 3.65896
-24.712 150.996 2.44284
-25.5273 150.761 3.21495
-40.7006 138.125 6.17106
-26.1983 149.855 2.52414
-32.156 144.556 2.98154
-41.7181 138.518 8.22434
-36.7889 140.069 2.62128
-40.4508 138.54 5.83138
-37.2945 142.557 7.3019
-26.9326 150.287 3.58246
-31.1612 147.466 5.26182
-28.0321 149.202 2.96331
-28.4437 148.893 3.06028
-30.2489 148.669 5.4754
-40.5986 139.022 5.65631
-36.1203 141.984 3.29469
-32.3103 145.83 3.68763
-30.695 148.422 5.51543
-40.5334 140.423 7.60524
-41.8739 138.218 5.58782
-40.2715 141.075 7.5053
-40.0361 139.924 4.71636
-32.985 145.958 3.60545
-32.2919 147.69 4.62548
-33.8926 146.026 4.24228
-38.7126 141.259 3.83892
-36.4794 144.485 5.50522
-41.2002 140.089 5.47777
-39.5041 141.061 4.17528
-35.7646 144.819 3.99121
-38.8678 142.075 4.21289
-39.1593 141.859 4.2851
-38.3193 143.342 5.23426
-42.3303 140.856 7.42538
-41.1042 140.758 5.06086
-36.9372 144.469 4.47736
-41.7442 140.809 5.63465
-39.8816 142.365 5.2646
-42.0596 141.678 7.00634
-42.8588 140.905 6.63008
-42.6292 142.153 6.69849
