ply
format ascii 1.0
comment Created by Open3D
element vertex 1949
property double x
property double y
property double z
end_header
-5.51409 119.265 -8.36764
15.7705 102.749 -9.87992
-14.8377 115.861 0.581405
-7.69048 89.9128 15.9117
-13.7707 125.116 -7.26186
-25.6714 124.517 1.23968
-12.1264 124.518 -7.82144
-0.137331 117.773 -10.6471
-16.4465 124.048 -4.52211
-7.11726 120.395 -7.96627
-16.1517 109.484 6.64006
24.6034 77.5814 3.91895
-18.5425 115.512 3.58332
-16.4813 105.877 9.69833
-27.3484 125.621 1.72222
-12.4393 98.2449 12.8991
-15.7882 120.639 -2.18383
-19.5688 124.874 -2.90697
18.7698 95.9946 -6.3402
-24.2547 126.5 -0.985115
4.79402 75.6319 18.8887
14.8847 104.68 -10.403
23.1211 83.0039 0.936148
-14.6757 119.22 -1.66393
-19.1361 124.803 -2.84588
-17.4032 107.705 9.2602
-15.8119 125.4 -5.52568
-17.1488 116.702 2.12407
24.9399 77.7218 3.98756
-16.2946 105.5 10.2427
2.67316 114.595 -9.54467
-16.0715 120.346 -1.36446
-4.64181 119.507 -8.41084
21.3227 87.0567 -0.724134
8.12657 112.121 -11.2618
-15.5194 120.042 -1.4642
-5.20243 87.2031 17.0569
-14.7764 119.014 -1.14627
17.2487 100.781 -8.56233
-16.1737 105.188 10.5569
-8.73525 122.998 -8.23698
-3.92626 119.462 -8.72611
-11.7525 124.893 -7.64953
7.97091 112.711 -11.4707
25.043 78.3081 3.70733
3.27323 79.1386 17.7353
-25.7359 122.407 3.74405
-18.6424 124.672 -2.76659
-14.8371 126.312 -6.60076
-19.1351 126.128 -3.4966
-26.6996 123.329 3.78612
-17.8234 123.86 -2.60139
21.5133 85.6932 0.504731
6.47413 113.348 -10.7766
-1.9374 83.9026 17.7163
-25.2686 126.581 0.357264
2.69242 114.872 -9.38664
-13.8078 118.518 -1.08982
-14.372 126.212 -6.67018
19.1472 95.8101 -5.67793
-15.8767 124.261 -4.13129
-15.4568 115.633 2.30588
-15.0415 112.856 4.19032
-15.5606 121.042 -1.74057
-5.33508 88.0954 16.9418
-22.1414 119.575 3.87294
-24.6592 121.849 3.83053
-21.1578 127.77 -3.09792
-16.2835 125.438 -4.55125
16.7979 102.048 -8.70216
-6.77551 121.285 -7.72868
-16.0372 126.089 -5.2033
-8.08142 92.325 15.6112
-1.42803 83.8053 17.7603
1.45826 116.342 -9.38886
-4.41715 87.3261 17.0809
-15.5214 118.008 0.779346
25.4708 77.2998 4.74182
-16.3852 106.687 10.1623
-16.1016 118.8 0.597398
18.4716 98.5652 -7.00314
19.5471 94.8836 -4.85603
-17.5282 116.569 3.32365
-23.8851 121.332 3.94827
-6.01497 89.1911 16.8341
14.539 106.355 -10.2946
-14.0551 120.405 -1.87617
-20.5853 118.068 4.33809
23.5429 82.7089 2.03005
15.8283 104.808 -9.89701
9.30698 112.212 -11.2307
-2.04812 120.039 -9.63615
-19.4643 127.651 -3.80226
-16.0937 118.871 0.733361
-15.5319 126.596 -5.61375
-15.4852 118.993 0.257184
-13.9535 120.53 -1.9322
1.48167 81.5271 17.9213
-11.4873 98.4508 13.5503
-10.3998 125.289 -7.97715
-14.8282 114.163 3.64318
10.914 110.507 -10.8614
16.5804 103.522 -9.18298
-13.6317 117.965 -0.0112052
1.91268 116.197 -9.10845
-14.7488 120.341 -1.08523
3.87532 114.689 -9.23882
-8.10786 93.0919 15.6593
-22.1647 128.108 -2.00899
2.2782 115.861 -8.98046
-25.4342 122.984 4.16732
25.0333 78.9289 4.32879
-15.9501 110.332 7.59535
-15.2298 126.281 -5.24971
5.58838 114.135 -9.81895
-7.22116 91.2166 16.5744
24.9962 79.1313 4.26201
15.5379 105.683 -9.93311
-15.2776 115.05 3.58358
-3.39531 120.387 -8.52633
-23.5732 127.485 -0.395602
-15.7137 116.763 2.6283
19.6606 95.8696 -5.00483
-7.83249 123.333 -7.77112
-3.92688 87.6868 17.2429
6.66199 76.6723 18.6562
-19.6032 128.424 -3.76512
11.0759 110.943 -10.8768
14.0419 107.512 -10.1833
16.3809 104.652 -9.5338
-15.8452 119.919 0.378873
11.0178 111.205 -10.9551
-7.65385 122.966 -7.48566
20.5747 93.0246 -3.26939
-15.5067 121.817 -1.27854
-14.9639 122.886 -2.44052
20.0328 94.7497 -4.1614
-6.6691 90.9498 16.7925
-24.2136 122.419 4.26011
16.099 105.476 -9.70321
-24.0405 127.938 -0.0753106
-16.7786 125.932 -3.41094
5.31773 114.792 -9.65439
-14.2888 120.612 -0.957134
10.8917 111.888 -11.1569
23.527 82.7667 2.91575
-14.2855 118.127 0.98306
2.04664 81.9802 18.0082
-15.4984 122.066 -1.2404
21.901 89.2122 -0.947602
-17.742 127.18 -3.67184
10.9234 111.993 -11.1688
-1.87436 85.9616 17.6303
-14.101 102.702 12.9091
-15.3171 121.91 -1.13625
-22.7872 128.036 -0.85082
-16.6034 125.913 -3.31223
-10.9298 98.7878 13.9025
-7.58101 123.959 -7.83303
-14.9481 104.158 12.4964
-15.3099 118.458 1.65717
-15.1383 122.463 -1.54404
-16.3892 126.937 -4.15836
-0.0835356 84.5107 17.7441
-14.0981 117.863 1.33883
19.6329 97.2095 -5.32987
-14.8361 113.907 4.96436
-12.4307 100.363 13.8525
-16.1637 124.273 -2.13753
-9.66987 126.09 -7.89969
-4.41523 121.448 -7.82617
-14.5895 121.617 -1.07319
-20.7709 128.976 -2.61284
-13.964 121.175 -1.14917
-22.0849 120.705 4.68595
-14.5669 127.105 -5.32859
-12.6313 128.864 -7.96688
-14.7275 127.457 -5.46293
-8.01632 94.2404 15.7756
18.9547 99.0138 -6.09046
4.10093 116.109 -9.33103
-15.4119 121.129 -0.0681946
2.40432 116.66 -8.56739
-11.5168 99.5786 14.052
-3.91414 121.337 -7.91214
3.69741 116.325 -9.14978
11.0453 112.685 -11.2635
-18.5012 128.919 -3.92432
23.2772 85.344 1.76756
-13.7122 129.231 -7.30032
-24.6683 123.382 4.66088
18.7683 99.7596 -6.27423
-15.9887 107.328 11.2734
-20.6947 119.401 5.0999
-2.73835 87.8811 17.468
-16.4932 126.585 -3.2316
-15.6597 119.751 1.52808
-15.1346 122.816 -1.20007
-14.7003 120.492 0.327459
8.80516 114.769 -11.0699
-14.5911 122.774 -1.51302
-15.2441 122.369 -0.743398
-15.5301 125.275 -2.74974
6.90278 79.1725 17.9134
-19.9581 118.934 5.21164
-8.09735 95.0235 15.771
7.30833 115.458 -10.433
-14.5599 122.641 -1.25238
-15.9749 107.518 11.4261
9.69889 114.198 -11.0393
9.94806 114.033 -11.0348
1.21272 84.4844 17.8855
-20.9614 120.037 5.26581
-23.0438 128.506 0.123228
-14.7614 120.978 0.41962
-6.89215 93.1655 16.6777
-15.302 125.026 -2.32834
-15.5741 116.199 4.71678
-15.1459 112.212 7.52297
-14.14 120.152 0.715982
22.6875 87.5597 1.23882
-17.1975 129.221 -4.17544
22.8909 86.435 1.99065
19.0268 99.8503 -5.8034
-21.3338 129.594 -1.65551
-22.5203 121.854 5.15159
-11.7904 101.317 13.8923
22.3017 90.4667 -0.617218
-4.3796 122.54 -7.49761
-14.3986 124.045 -1.86117
-16.4108 108.789 11.3708
-19.2719 130.115 -3.23061
-2.88188 88.97 17.7207
-13.488 130.573 -7.38153
-14.6783 122.326 -0.155892
-7.47889 94.9015 16.2852
3.513 83.3245 17.8899
19.8084 98.5358 -4.87228
-13.0785 130.787 -7.69179
-22.4174 122.094 5.39288
-15.8409 107.917 11.9593
13.6961 110.621 -10.0181
24.2498 82.2377 4.92368
-14.5076 123.559 -0.987172
10.4284 76.4662 18.7313
-13.438 130.795 -7.28579
-24.9297 129.612 1.37284
8.81484 78.754 18.0871
-22.7404 129.804 -0.225965
-12.2673 102.533 13.8703
-15.964 118.612 3.92689
16.5362 107.462 -9.32091
-26.1196 126.835 4.42492
25.5602 78.0493 7.43152
-13.5965 129.686 -6.1815
1.35152 120.245 -8.92039
-24.5584 129.575 1.31063
-14.3182 124.771 -1.856
-13.2133 103.603 13.8504
-16.6987 118.132 4.95751
-1.87826 88.6214 17.8757
16.8153 107.013 -8.85385
13.3461 112.426 -10.691
-14.6557 113.375 7.49627
-15 119.928 2.65292
-5.01152 92.3303 17.3268
-15.235 125.69 -1.54712
-15.3519 112.955 8.41134
-12.1976 103.168 13.8849
9.16812 79.2781 18.0433
-6.49661 126.161 -7.7296
6.1008 117.526 -9.51988
-6.93816 126.686 -7.83538
13.7456 112.18 -10.5182
5.10775 83.574 17.5242
-19.7007 130.836 -2.39659
21.0025 95.955 -2.76681
-17.9041 119.47 5.21562
6.81252 117.445 -9.86299
-5.19818 123.795 -6.6796
13.2471 112.97 -10.6975
-22.5374 122.953 5.70047
-15.6809 112.537 9.18156
-16.0746 127.573 -2.20435
24.2861 85.5902 3.17245
-19.4624 120.31 5.73151
-19.2821 120.266 5.65154
-20.3048 120.723 5.99158
-16.0616 128.778 -3.09196
20.6504 97.5093 -3.5473
21.2618 95.2991 -2.21932
25.3874 81.2897 5.90616
-15.6134 130.589 -4.67549
10.3372 78.6602 18.119
-5.09414 124.078 -6.68641
-7.90037 97.5456 15.7777
-3.42537 91.0605 17.8114
-14.2086 118.522 3.8078
-15.0463 119.361 3.73459
-9.99284 100.488 14.9787
3.67775 84.7473 18.0013
25.0882 82.1281 5.62133
2.48078 85.4053 18.3198
-0.782092 88.4395 18.1956
-13.4804 105.378 13.6329
26.0539 79.598 6.98552
10.0344 79.1668 18.1176
-21.3084 121.984 6.04706
-22.7633 130.868 0.186593
-23.6042 124.56 5.67179
-20.4008 131.18 -1.60786
6.3898 82.9026 17.7683
-16.0823 119.076 4.9354
25.1505 78.9393 8.27423
-15.6147 130.005 -3.82179
5.35487 118.151 -8.7368
24.0294 77.3031 10.3523
-2.72349 124.413 -8.12264
-14.7223 120.574 2.97731
-15.661 128.497 -2.4589
-10.9616 103.15 14.057
24.3257 86.1214 3.50418
-14.5499 118.645 4.51153
-14.9507 120.575 3.29025
-14.5144 107.593 13.0985
15.3469 110.988 -9.62802
7.80826 117.67 -9.6994
11.829 78.1812 18.2087
25.8025 81.1453 6.50178
-11.1674 132.8 -8.61751
-15.9532 128.183 -1.80903
-4.48981 124.765 -6.87545
22.5494 93.0121 -0.469135
23.2167 90.1827 1.29905
-23.3385 124.925 5.7491
-25.0113 127.177 5.17652
-6.33743 96.2231 16.5994
-5.70145 125.471 -6.4712
22.5976 92.8667 -0.258086
-6.00447 95.6433 16.9041
-14.246 127.382 -2.11639
-23.1183 130.831 1.19231
-14.5293 120.123 3.73968
25.4396 82.4319 6.05691
-3.1049 125.156 -7.81617
-2.00707 90.6879 18.1924
-25.8231 129.638 4.09947
23.9363 84.542 5.59524
-9.32136 130.121 -7.32916
-5.51739 125.279 -6.12828
-10.8947 103.762 14.1811
-7.43047 128.19 -7.08336
13.975 113.525 -10.1195
1.47888 121.622 -7.96759
-18.9135 121.163 6.13754
-24.8227 127.569 5.18742
-14.722 118.106 5.76315
-18.5258 131.872 -2.33978
25.5844 82.477 6.26801
-23.9406 130.757 2.21596
-15.4525 130.677 -3.43024
-5.68221 126.533 -6.79553
-15.243 130.057 -3.08262
22.8861 91.6266 1.06192
22.4944 78.9216 11.1902
-19.5387 132.546 -2.05657
4.26593 119.238 -7.7534
-14.9014 128.17 -1.76032
-20.228 132.792 -1.75142
11.8941 114.967 -9.56873
-15.3165 115.981 7.97713
-14.2415 108.214 13.3374
-23.1719 125.913 5.64588
23.8443 89.5607 2.16171
-0.365642 89.5185 18.5235
25.3532 81.2334 7.626
8.08317 118.22 -9.35572
-20.6876 122.724 6.53742
-7.40498 98.7327 16.2066
-10.9612 133.586 -8.39285
-15.0884 128.359 -1.52482
-14.4345 127.843 -1.56517
-7.79726 99.3612 16.0492
-1.00594 90.34 18.4682
-12.6101 106.38 13.8721
-19.943 133.284 -2.02876
19.7792 77.1983 14.7009
-14.7301 120.714 4.3307
-7.85658 99.6804 16.0311
-14.7135 113.864 9.68919
-15.6527 120.677 5.05067
25.4997 80.2408 8.70832
-21.5682 134.076 -1.30785
22.9766 92.3019 1.07284
3.05831 87.0521 18.5649
25.0192 80.5777 8.79278
-9.10248 131.859 -7.95175
24.1224 89.2593 2.69463
22.0582 95.7429 -0.928955
24.825 83.5045 6.73426
-14.6489 120.649 4.55408
-14.875 117.682 7.01424
-15.3633 130.843 -2.85683
2.1449 121.489 -7.3929
4.61709 86.3979 18.1497
17.6857 76.3194 17.1592
11.4862 80.4078 18.172
-18.8212 133.287 -2.39162
-22.2071 125.141 6.23909
-6.6791 129.071 -7.26474
24.9071 81.9372 8.00405
-13.982 119.863 4.82248
23.972 86.6142 5.03708
-5.6473 128.329 -7.33166
3.09927 120.488 -7.14224
-22.0694 132.849 0.261812
-15.7439 131.287 -2.78095
-16.0303 117.154 8.3867
21.9038 96.7086 -1.30484
-1.68153 92.0029 18.2664
11.7057 80.523 18.1482
-15.746 111.598 12.5915
-25.3224 130.104 4.69857
-1.42517 91.7474 18.3484
-25.1121 129.697 4.89607
24.5001 82.1463 8.33993
-15.1827 120.915 5.0303
11.0356 115.923 -8.75838
0.222236 90.0156 18.6329
11.5325 80.8497 18.14
21.9409 78.9741 12.5935
-1.94733 125.559 -7.36043
-18.8906 122.042 6.78701
24.9124 82.224 8.15146
-14.9143 121.242 4.73911
-7.71412 131.414 -7.99521
20.2917 100.427 -2.81217
-12.2541 133.602 -6.59539
-2.41085 93.4884 17.8682
-17.409 132.894 -2.55555
21.9875 80.1572 11.8097
19.3611 77.462 15.6685
-21.3578 124.536 6.61263
2.25423 121.76 -7.11954
24.0214 90.477 2.52498
25.4413 82.562 7.70449
22.9682 81.4243 10.2882
15.6835 77.9204 17.9168
21.4211 78.8694 13.3697
-9.54261 133.814 -8.35784
11.3571 81.6951 18.0344
-11.989 133.832 -6.64864
-19.2416 134.881 -2.57427
-8.33067 132.69 -8.19705
-14.2884 114.869 9.63595
-22.9916 127.76 5.50746
-14.6778 110.405 13.3897
4.19234 120.193 -6.89808
16.3901 112.612 -9.22274
-23.2781 133.51 1.32933
5.94594 119.538 -7.51456
-11.8182 134.117 -6.84486
13.4377 80.084 18.0306
-17.0578 133.653 -2.94378
21.8423 80.8238 11.8062
16.7444 111.178 -8.27925
5.06749 119.766 -7.06724
-5.14907 97.2976 17.2539
24.3457 88.3778 4.3191
10.0595 117.556 -8.64993
1.17979 90.0771 18.6397
23.4188 82.7075 9.37468
21.8334 81.2167 11.6001
11.9519 117.055 -9.4933
-5.26154 97.6129 17.1731
24.4064 89.3323 3.61606
-14.5543 121.393 5.03734
-2.08708 126.307 -7.14044
2.39067 89.1278 18.6716
-15.3118 130.469 -1.42321
-23.7383 129.366 5.12935
-20.6041 124.365 6.89586
1.21243 90.2383 18.6522
22.6682 82.192 10.4522
-15.4079 131.842 -2.37988
-0.4997 124.932 -7.06059
20.0044 101.37 -2.60568
-14.5596 131.738 -2.85637
-4.01068 127.328 -6.46322
-14.8884 121.816 5.15963
11.3817 82.513 17.9327
-6.56274 100.179 16.3544
14.9009 79.5555 17.8886
-6.43023 99.9103 16.5003
-16.3909 133.865 -3.10485
-7.98442 104.083 14.3236
-13.7729 134.166 -5.09204
-14.9579 130.32 -1.28013
8.65196 84.6701 18.226
25.5011 83.3635 7.89716
-8.35756 104.47 14.3463
21.2423 99.5256 -1.73571
25.6327 83.1455 8.04184
6.65372 119.801 -7.57443
-13.2709 109.287 14.065
2.06687 90.0661 18.6407
16.5322 113.033 -8.892
24.3808 90.4065 3.36008
-4.84126 97.7949 17.3178
21.3322 80.0409 13.4495
-14.0982 120.014 6.33619
17.157 78.44 17.5082
1.00325 92.2817 17.6698
17.3311 78.4907 17.3951
-14.9878 119.187 7.63557
-20.7037 125.216 6.81863
-13.8884 135.034 -5.34835
3.5043 121.631 -6.67456
-12.2746 135.874 -7.08135
-14.7126 116.017 9.97761
-4.72745 127.88 -5.94066
-12.6042 108.764 14.2295
14.5319 80.634 17.7614
2.28156 90.3959 18.4738
22.7494 96.3123 0.1018
-23.222 134.257 1.65709
-22.5181 128.337 5.78936
-7.17118 103.743 14.5168
-24.2136 132.445 3.79169
-14.3926 122.367 4.99222
-15.105 122.346 5.51919
18.0652 107.404 -5.23536
9.31294 119.409 -8.64413
-7.13178 103.821 14.519
-10.8239 106.808 14.6914
-14.2784 121.325 5.76732
21.4019 81.4675 12.6336
14.1769 81.3205 17.6158
-5.74172 129.893 -6.596
-14.3951 121.373 5.84954
-8.29034 105 14.4377
9.81221 119.065 -8.5865
-15.7418 133.533 -2.5764
-9.62471 106.097 14.5691
11.9291 118.298 -9.39255
-14.9074 131.091 -1.21705
-15.0706 132.253 -1.98549
-15.2921 123.394 5.04333
11.667 118.146 -8.99848
-15.2642 116.146 10.7027
-14.5138 111.773 13.5994
16.9014 79.5083 17.4478
4.58287 88.7473 18.6144
9.52764 84.9819 18.2059
24.9961 85.7477 7.21017
14.9566 81.2639 17.511
1.49011 124.419 -6.86808
22.6904 97.1927 -0.0363308
19.9655 80.2181 14.9646
-4.34833 98.2187 17.4111
-10.9314 136.148 -7.53544
-15.2 119.764 8.04791
17.25 110.434 -6.5762
3.91951 91.0529 17.4452
-15.129 121.825 6.46479
20.3452 80.8131 14.3617
-9.57302 106.454 14.6574
-15.0889 114.472 12.1842
-14.7106 121.432 6.54065
14.6429 81.9765 17.3513
12.8893 83.1931 17.622
-6.19069 102.492 15.5207
-22.1 128.496 6.0924
3.30779 92.9379 16.5606
12.7086 83.3376 17.6843
22.3732 98.3829 -0.461939
-4.56306 129.123 -6.1365
22.9195 96.8394 0.380395
-14.5408 121.225 6.72217
16.7917 113.215 -8.1725
-15.2133 132.283 -1.39175
4.23879 91.9398 16.8073
-14.0506 111.794 13.7675
-0.467123 126.062 -6.42454
-10.4381 136.339 -7.62715
-6.26599 103.589 14.9596
4.6989 90.5373 17.6992
-3.72829 128.37 -5.9405
-17.6826 123.69 7.09886
-15.8705 124.555 5.21173
-14.527 131.743 -1.24982
-15.4972 124.169 5.27806
-4.21873 128.361 -5.56467
-15.4129 117.976 10.0554
-3.52684 128.476 -6.05753
16.8051 113.583 -8.20759
14.6707 82.7869 17.1176
17.9487 109.061 -5.44479
-14.8721 133.651 -2.38746
-24.7007 132.911 4.81836
5.23286 89.2657 18.5059
12.003 121.018 -10.6476
-15.4643 123.643 5.81991
22.1088 83.1031 11.9407
23.5541 95.0832 1.69049
-15.0554 117.548 10.2865
9.22975 86.3863 18.1527
-23.3816 131.519 5.13826
11.6092 119.21 -8.88024
-6.51704 104.559 14.7225
11.8999 120.6 -10.0869
-14.2935 123.096 5.64821
15.3618 116.584 -9.27233
-13.7201 112.193 13.7383
-15.2235 117.266 10.8206
5.26414 89.8959 18.2599
-15.7309 118.366 10.3549
23.9008 94.3888 2.30952
3.82285 94.2574 15.9539
19.2935 81.2241 15.6525
-23.4441 134.029 3.55978
-14.9216 133.983 -2.12705
-14.2893 123.221 5.80282
19.7273 104.406 -2.47967
-15.8549 122.866 7.22499
-14.6626 135.773 -3.51928
3.57686 123.291 -6.04752
-16.6339 134.746 -1.30521
-15.8996 122.983 7.3205
24.7521 87.6702 7.33201
25.0298 87.0839 7.60259
-14.9283 121.237 8.04974
19.9724 82.2047 14.8146
-15.6723 123.52 6.83736
-11.4827 109.512 14.881
6.8234 121.051 -6.38718
-15.9495 120.085 9.71774
10.0438 121.694 -9.02971
16.5542 82.7346 16.8282
-21.6648 137.186 0.374011
24.9792 84.9448 9.46675
21.4077 83.4101 13.1098
-15.7663 134.895 -1.71006
-16.6756 135.068 -1.22102
14.6535 84.3039 17.051
-9.73971 108.163 14.9979
17.303 112.472 -6.55756
19.2742 81.9367 15.7842
13.1727 84.7251 17.7388
14.6852 116.857 -8.17476
9.8673 121.91 -8.8444
6.06325 91.8001 17.1171
23.343 97.0857 1.38291
23.4344 96.6781 1.63792
-22.8807 131.886 5.56009
15.5075 116.061 -8.00802
24.0688 91.9937 4.93416
-2.90977 129.584 -6.02228
-15.6013 121.24 9.01282
-18.5774 125.585 7.66436
-0.401454 127.415 -5.96773
24.2888 94.088 3.24782
0.561201 96.6803 17.2305
6.17781 93.8725 15.6356
0.666482 96.6544 17.2072
22.1704 100.129 0.0501118
25.2173 86.9349 8.2319
24.5102 88.9439 7.163
15.3176 84.4904 16.824
19.7149 82.5885 15.3519
17.1383 83.3219 16.5719
-7.55797 135.71 -7.39633
6.82868 90.3951 18.0766
3.86702 96.298 15.5072
2.83161 95.8853 16.5274
10.8268 123.57 -10.2923
-20.5147 128.702 6.92053
-1.4655 129.453 -6.43873
6.77472 93.5375 15.8507
7.52875 90.093 18.0162
-15.3261 117.804 11.9357
-23.0546 136.578 2.61281
-0.741788 98.5597 17.0589
-19.6942 127.798 7.20174
-3.43826 100.738 17.241
-14.9874 135.782 -2.13469
16.0855 84.5479 16.6485
-10.9434 109.984 15.1449
-21.6281 138.527 0.255215
-5.25656 131.509 -5.31076
13.8113 117.84 -7.54432
19.903 83.0722 15.3601
22.5982 84.9039 12.1449
25.1321 86.8833 8.9368
8.87182 122.168 -7.42109
20.9109 83.752 14.2501
3.01565 96.7255 16.2511
10.5829 87.6681 18.1982
14.8149 116.69 -7.12875
7.36082 92.513 16.6353
8.70359 89.4693 18.1119
7.39435 93.4023 15.98
-1.29381 129.675 -6.27828
-0.386446 98.9173 16.9541
6.75431 95.5632 14.7504
21.5357 102.281 -0.376712
5.2127 96.9208 14.7954
12.5669 86.5552 17.8803
-20.1997 137.905 0.197688
11.7257 123.279 -9.93473
-3.46709 102.314 16.5519
-6.26449 106.829 14.9836
21.6327 84.4056 13.5928
-11.8862 112.415 14.4802
6.12931 96.7323 14.5058
-18.3665 137.613 -0.673735
-23.8281 134.275 5.61689
7.26942 122.886 -6.48211
-16.9957 137.123 -1.16025
16.0264 85.6093 16.5709
18.331 84.0468 16.2483
-10.6235 110.43 15.3093
7.22187 122.953 -6.33807
25.0121 86.6228 9.85633
-10.214 110.174 15.3468
19.6802 83.6054 15.8043
-20.1158 138.35 0.19722
-12.319 113.817 13.9932
-12.3521 139.669 -6.01754
-22.6066 137.384 2.68913
23.4904 98.146 2.0908
8.00782 91.5258 17.6958
-13.3845 115.704 13.3708
8.1063 94.3862 15.446
16.919 114.956 -6.42792
-8.33812 109.005 15.2188
-17.7929 138.001 -0.87667
4.39034 98.0758 15.1463
4.88437 124.141 -5.38935
19.3581 83.9278 16.0331
24.7007 90.4227 7.41206
20.8501 104.519 -0.905233
15.5592 116.058 -6.25687
5.0978 98.2119 14.6782
5.80956 98.2454 14.2006
4.46394 98.2675 15.1089
-16.9971 126.502 7.68352
21.6052 103.109 -0.186021
8.31532 94.7825 15.2221
11.5164 125.669 -10.8482
18.5731 112.531 -5.34587
2.28148 126.646 -5.2935
21.6854 85.3246 13.6667
15.6202 116.101 -6.09764
-23.5408 134.724 5.84694
5.78747 123.817 -5.44256
-0.480004 100.41 16.929
8.94694 125.429 -8.78759
8.68523 94.2191 15.5803
-23.7717 135.426 5.51269
21.3791 85.1945 14.0391
-14.4675 118.023 12.7589
12.9907 123.771 -10.1572
19.1921 110.206 -3.78906
18.0224 85.5064 16.1733
9.07963 92.8474 16.5431
23.0629 99.8492 1.7064
-2.54244 102.64 16.793
-7.39551 137.053 -6.58092
24.9585 87.619 9.94933
19.1766 111.357 -4.51584
5.95947 124.018 -5.40452
11.841 126.011 -10.9111
-2.2539 102.06 17.1838
18.136 85.7069 16.1353
2.06159 127.156 -5.14258
-2.39006 131.663 -5.63293
-14.6329 119.882 11.7531
9.26131 92.3307 17.068
13.561 123.003 -9.53966
19.8137 85.3949 15.4175
21.2946 85.7471 14.1748
22.778 86.4169 12.6585
9.4184 93.9649 15.8101
8.32676 125.116 -7.59075
-20.2139 139.802 0.270177
13.0386 124.587 -10.2814
-23.2738 135.144 6.00887
1.86159 127.568 -5.0313
23.5297 87.2471 11.7162
7.98016 98.9725 13.1566
24.1336 93.8612 6.2471
6.67036 124.175 -5.46051
7.38873 124.438 -6.14734
22.7491 86.7404 12.7468
20.9294 85.9479 14.5952
-10.3281 111.852 15.5775
-13.7439 140.79 -4.53676
-13.1566 125.867 6.6578
16.5772 114.951 -4.89845
-5.53191 134.342 -5.02712
4.86178 99.6712 14.8461
-7.72527 110.035 15.3232
16.1638 88.201 16.1711
24.0731 97.2538 3.8385
10.7312 90.761 17.9231
4.12006 99.9371 15.2726
24.6245 95.5418 4.92295
8.0664 99.7414 12.8322
-12.1043 140.784 -5.36841
-14.0606 128.095 5.7928
8.36723 99.6218 12.7825
8.91667 98.7708 13.0954
9.30326 126.72 -8.79048
23.3386 99.9208 2.54347
-14.2545 120.461 11.965
10.5568 127.55 -10.2049
9.10673 98.6448 13.2117
14.2956 122.523 -8.79118
17.6881 114.176 -4.57538
-15.0349 139.228 -1.94893
-20.5769 132.09 7.32782
-13.2344 117.93 13.383
5.07101 125.74 -4.98185
24.0387 97.917 3.8288
13.6108 124.179 -9.49388
14.3749 119.592 -6.44468
-17.5412 128.555 8.1186
-22.1177 139.192 2.97379
3.08017 100.937 15.6599
17.4354 121.127 -9.60754
5.39077 100.777 14.2941
-9.93764 141.11 -6.61236
15.3866 117.143 -5.07937
9.72471 97.5408 13.9446
-17.0981 140.104 -0.96641
16.6181 88.9979 15.9699
-14.4252 142.125 -4.26093
13.5558 90.2682 17.0897
14.0516 123.361 -8.87154
0.348073 130.514 -5.13395
17.4205 121.625 -9.72359
-22.6257 138.393 4.29123
19.1795 87.4613 15.6158
2.59689 101.345 16.0246
17.1793 88.9756 15.7966
18.2139 88.2624 15.6836
-14.4311 121.868 11.6304
-21.2634 140.798 1.63123
2.23713 128.506 -4.65656
-0.666127 131.771 -5.21534
-22.8403 136.998 5.70886
6.13423 102.177 13.2299
8.14967 101.734 12.2578
22.1034 104.113 1.05647
17.9695 89.0731 15.5162
-21.2938 140.434 2.1953
24.2338 89.4872 11.0369
-16.2708 140.542 -1.24389
-14.8678 142.601 -3.76596
11.3429 128.858 -10.7502
20.1165 108.569 -0.916875
6.79192 102.542 12.7327
13.4736 122.151 -6.93962
-4.83706 108.394 16.0791
7.88926 126.551 -6.53197
10.8019 96.5631 14.774
17.1351 121.926 -9.13408
1.07298 130.315 -4.80571
16.34 90.2386 16.0007
5.54264 103.836 12.7475
9.95723 99.9533 12.7874
8.25031 102.68 11.8361
-9.38873 141.814 -6.59837
-1.63189 105.057 16.6711
20.8348 88.2463 14.5783
7.2027 126.487 -5.80072
24.773 91.2757 9.69644
9.49977 101.698 11.9064
-19.5902 132.205 7.87702
-13.7544 120.441 13.0688
-12.4231 125.396 8.3324
19.3874 120.619 -9.37835
-12.9737 119.511 13.2828
-13.3433 124.049 10.0293
24.6224 96.154 6.10218
-16.8878 129.843 7.97643
-19.3161 131.933 8.02377
24.2409 98.145 4.89109
17.2362 121.136 -8.14736
-9.97077 114.402 15.4124
6.96617 104.32 11.8428
1.07922 103.595 16.3773
13.6915 127.203 -10.3984
13.0803 125.225 -8.43568
-12.1188 118.825 13.503
0.115033 104.113 16.6835
11.95 93.3623 17.0953
-2.62326 107.52 15.9491
0.362018 104.073 16.6234
15.5495 117.168 -3.75328
-1.65633 106.794 15.8785
13.1705 123.728 -7.21354
11.5995 95.5439 15.7064
6.19163 104.992 12.0272
-14.9278 143.355 -3.40096
-10.8133 116.421 14.7093
13.703 127.141 -10.0993
-10.8937 116.791 14.524
-12.6626 125.249 9.19154
18.9022 123.026 -10.3124
5.14055 105.498 12.5665
-9.78902 114.934 15.335
-7.27637 140.595 -6.22111
-18.4233 131.765 8.14715
10.4647 129.229 -9.31585
22.7666 102.779 2.93332
1.7326 130.608 -4.45596
20.2233 122.441 -10.5277
14.5203 120.042 -4.79847
24.7202 92.1045 9.99062
24.4559 91.6578 10.5177
18.5058 91.0588 15.0389
8.14344 105.532 10.8162
-15.7298 130.61 7.47821
-7.00508 112.175 15.913
6.57786 106.173 11.4547
-4.83408 137.37 -5.02382
18.6157 123.721 -10.1987
-12.5219 127.86 7.59291
17.3979 91.5401 15.6094
-6.6062 111.919 15.9922
23.6996 91.0004 11.8063
2.45133 130.313 -4.33761
15.173 119.475 -4.50511
-17.0831 130.876 8.40325
-8.63579 114.707 15.2474
8.34515 105.981 10.58
-6.45184 111.841 16.0056
6.49155 106.571 11.3873
0.441443 132.22 -4.41564
4.62974 128.822 -4.55901
-0.036229 106.665 15.775
17.5447 91.7402 15.5129
6.54019 106.71 11.3231
15.223 120.016 -4.82005
9.59431 104.696 10.8701
17.6223 91.8218 15.4626
-8.90295 143.023 -6.32763
-4.60667 137.633 -4.96641
16.7025 122.594 -7.66193
13.4568 94.0343 16.6848
17.0859 121.449 -6.99017
16.503 117.524 -3.55364
-4.47998 137.46 -4.8611
-19.1176 133.464 8.09987
-21.1452 141.441 3.32818
15.7725 119.653 -4.63913
18.5202 92.0831 14.9329
-4.02618 109.801 16.3913
16.914 115.816 -2.36855
-21.6612 139.622 5.17596
21.3791 121.865 -10.0505
-7.00484 113.722 15.4012
10.566 131.037 -9.83061
22.4531 104.913 2.47698
-13 124.601 11.0985
-11.5861 126.745 8.50369
7.86838 128.964 -6.30905
22.9585 102.587 4.05115
-10.8061 119.06 14.037
-7.42837 114.875 15.0901
18.1965 121.435 -7.25415
17.4042 121.684 -6.89647
21.056 109.052 0.463257
-20.6593 142.37 2.73822
17.1074 121.933 -6.83541
-12.3335 144.713 -4.62687
23.9827 99.8146 5.72418
-7.89167 115.51 15.0293
21.5089 122.803 -10.4224
12.9869 130.349 -10.5139
-1.6415 134.576 -3.93151
-0.0851531 107.628 15.9183
15.5877 122.038 -5.79301
4.70447 108.657 11.9366
2.94167 131.383 -4.40605
7.70868 108.366 10.2261
-13.0399 129.942 7.52739
-15.0226 144.315 -2.24647
22.1098 106.547 2.02562
-9.94103 118.071 14.6889
-16.1206 131.773 8.23195
16.5646 119.695 -4.36457
20.9306 111.217 -0.722307
-17.5381 144.294 -0.418268
21.206 124.028 -10.7768
4.16767 109.091 12.2811
23.9479 100.103 5.93305
8.36808 129.905 -6.65035
-19.3453 143.904 1.1823
3.69054 108.901 12.8052
16.0172 94.1891 15.9069
9.24976 130.392 -7.56549
9.33307 130.638 -7.79504
24.0934 93.5944 11.0105
24.5563 96.3167 8.58927
18.3728 122.248 -7.32491
23.25 102.696 4.59976
-12.5095 123.286 12.7371
21.4662 107.832 1.83755
-11.8337 126.98 9.44473
1.64412 132.502 -3.91032
20.0134 124.96 -10.4315
20.2417 93.0641 14.1463
14.0486 129.536 -9.92712
17.2573 121.642 -5.96725
19.423 120.451 -6.4621
7.5944 109.56 9.95702
10.3239 106.807 10.2645
19.6499 125.229 -10.2747
7.21862 109.726 10.1166
15.181 94.8901 16.2697
22.3988 106.596 2.38832
22.8901 104.527 3.70719
14.9996 95.2696 16.2043
4.23669 110.23 11.87
18.7624 119.78 -5.26245
-3.84703 112.258 15.8141
23.8215 94.0092 11.3298
7.30947 130.561 -5.85587
2.37778 108.714 14.4486
-3.18628 137.254 -3.91932
11.4155 105.709 10.704
14.5883 128.993 -9.47741
-9.74724 119.05 14.6471
2.41409 109.284 14.0445
-12.7372 125.523 11.6868
-4.31223 113.519 15.3461
3.65788 132.178 -4.48224
-4.17937 138.993 -4.48136
17.6272 118.203 -3.05434
-11.4989 145.726 -4.7656
-20.8871 139.681 6.24713
6.37965 110.807 10.2739
-13.401 131.601 7.4889
16.2285 125.43 -7.67938
-16.4585 132.851 8.59713
5.30727 111.086 10.821
13.4288 101.312 13.0342
4.33698 111.17 11.5354
13.1628 102.831 12.1068
13.0439 103.195 11.9156
13.3669 102.343 12.3747
17.9061 95.0377 15.0002
15.4021 95.9936 15.9676
-7.7349 117.629 14.7892
9.44282 109.931 9.19056
0.818033 133.754 -3.39744
-11.0285 146.068 -4.95667
-12.3364 127.151 10.597
-10.0796 145.716 -5.29266
-19.9683 137.692 7.60705
-17.0299 133.827 8.6266
21.5003 94.39 13.2447
17.3088 120.385 -4.05252
-2.40445 136.854 -3.53713
20.0718 125.935 -10.2113
21.1397 125.409 -10.5128
21.7184 109.007 1.84226
13.7118 101.389 13.1456
15.7687 123.412 -5.30089
-9.10245 118.968 14.9013
15.1948 96.6406 15.8733
13.5106 131.391 -9.92506
1.03927 109.496 15.4634
-9.06374 145.544 -5.67079
-14.8215 144.778 -1.1907
23.7787 95.2195 11.2286
4.21042 111.881 11.5104
13.0901 132.078 -10.1169
20.9307 94.9288 13.4235
3.55612 111.714 12.1252
-3.51286 138.762 -4.06845
23.9603 122.175 -9.71213
-20.5851 141.149 5.58767
19.4995 95.9786 13.6428
-13.7666 145.08 -1.96587
9.89823 110.196 9.13497
-18.4818 135.706 8.49108
3.64431 112.007 11.9899
20.365 119.41 -4.99529
22.9845 106.337 3.38634
10.3634 109.587 9.37427
24.186 100.027 7.49071
4.50617 132.547 -4.45075
2.71795 133.814 -4.22481
-20.0336 143.124 3.89226
21.8436 95.283 12.7688
11.9548 133.439 -10.1164
6.21245 112.733 9.80645
19.5478 96.6723 13.2745
16.2518 97.4566 14.8888
12.7048 133.005 -10.2232
-3.31352 138.822 -3.92531
-19.0971 137.005 8.16243
14.9804 97.9461 15.4953
14.4345 98.6719 15.3089
17.1991 127.618 -8.9785
20.1248 126.555 -10.111
4.34894 132.976 -4.44468
-15.9092 145.224 -0.244055
15.4948 126.293 -6.69867
17.1589 127.703 -8.86431
18.3066 97.1698 14.0843
7.76321 113.06 8.87682
20.5351 113.671 -0.185675
-12.0979 146.686 -3.78572
18.4214 127.851 -9.73655
2.7572 134.318 -4.18875
23.2087 106.012 3.98199
14.1909 103.376 12.1037
13.8758 104.529 11.4294
2.25676 112.167 13.3418
-20.2755 141.607 5.70155
-16.6838 134.413 8.86853
-11.1287 129.089 9.25397
-8.50754 119.714 14.7574
17.3385 121.475 -3.99436
12.5889 107.381 10.1468
-5.12598 141.604 -4.44018
-19.7534 139.572 6.99021
21.6853 110.468 1.70498
14.4668 100.475 14.3473
12.3213 134.223 -10.357
18.5338 120.412 -3.83455
-19.9724 142.579 4.92975
-20.0565 142.156 5.34648
15.6473 129.09 -8.53157
21.4974 112.195 0.63045
21.638 111.965 0.725419
17.1777 121.951 -4.0071
-10.4211 123.306 13.5681
17.8491 120.643 -3.3892
18.1485 119.959 -3.02012
15.3562 126.815 -6.43901
23.274 106.503 3.98419
23.7987 98.1775 10.0854
24.9049 123.476 -10.257
5.5243 114.829 9.50198
-8.80895 120.975 14.3968
24.048 101.524 7.36844
23.7265 125.043 -10.635
-11.6185 126.02 12.4276
0.738731 135.661 -3.35689
-2.02106 113.431 15.7366
5.80033 133.304 -4.90619
0.291369 136.054 -3.31967
23.6294 104.324 5.55933
19.7535 127.823 -10.0138
8.0925 132.812 -5.93932
14.1778 126.724 -5.30868
-6.98994 118.949 14.9798
3.88616 114.174 11.3868
-9.31341 147.294 -5.37414
25.0928 123.823 -10.34
23.5993 98.0177 10.6699
16.4825 126.421 -6.54882
2.0741 113.118 13.5175
4.96669 115.047 10.083
10.5188 112.434 8.39823
15.7369 128.549 -7.60158
23.2428 99.4935 9.87183
-16.4717 146.088 0.534021
-10.4993 126.862 11.495
-17.5633 136.595 8.71754
4.87809 134.071 -4.42741
15.5127 129.846 -8.284
2.60184 135.43 -3.88659
0.00524917 112.976 15.2841
1.05562 136.153 -3.37205
23.137 98.9512 10.608
16.7114 128.954 -8.30969
17.303 98.7846 14.6823
17.6002 122.616 -3.96572
13.5089 108.224 9.94843
12.9592 109.219 9.56408
-1.72897 138.618 -3.32123
18.2691 121.826 -3.69926
9.15683 114.885 7.91793
-14.8127 135.093 8.50736
-16.6297 136.687 8.52221
10.3672 114.107 7.88895
15.5219 130.529 -8.29644
14.4344 132.138 -8.80092
17.2652 130.008 -9.05401
-8.35751 122.997 13.6534
6.60036 134.477 -5.30776
23.3269 103.254 7.62762
-9.87547 124.459 13.5634
22.7878 108.582 3.87005
-0.634645 138.176 -3.2708
16.6947 99.6113 14.9516
17.0829 123.369 -3.71403
5.05427 116.367 9.82218
-17.3429 146.067 1.8931
1.76712 114.064 13.8416
14.6478 129.43 -6.72459
-10.0592 148.261 -4.65191
13.8345 108.764 9.90914
7.31734 116.832 8.04585
-10.44 126.689 12.3731
-16.7186 137.148 8.52748
13.8274 108.873 9.87833
21.3164 98.6923 12.7617
9.22263 115.746 7.69823
3.65976 115.42 11.7195
10.1443 135.407 -8.13093
13.2036 110.337 9.3118
9.1032 134.685 -6.79135
14.3967 126.532 -4.01543
-9.89573 148.431 -4.59689
12.4282 111.855 8.74388
-4.11129 118.453 14.7763
19.7575 129.153 -9.58825
14.5384 108.167 10.2265
-1.41529 115.681 15.1534
17.7655 100.531 13.9793
10.4925 115.096 7.58959
9.93038 135.529 -7.86807
-5.64818 144.624 -4.42068
8.73628 116.598 7.62033
-9.73397 128.406 10.9167
-17.8106 145.944 2.78469
22.2517 111.847 2.27178
-17.4665 146.105 2.53783
1.65236 115.214 13.6152
20.798 114.051 1.62605
-11.6462 134.713 7.47722
14.6394 133.237 -9.07624
16.5458 123.817 -3.03754
-18.1097 140.034 7.74329
15.8188 105.294 11.8373
17.3772 100.97 14.1686
-12.6315 147.744 -1.86468
9.10267 116.814 7.46929
19.1784 119.819 -1.64252
1.88795 115.47 13.3786
-4.0046 119.015 14.6154
-14.6517 136.186 8.5139
9.9051 116.25 7.43115
18.6272 121.664 -2.63247
23.5167 102.803 8.71204
-17.784 139.713 7.92593
19.0814 100.476 13.5269
-7.18322 122.708 14.0152
16.1305 130.807 -7.96638
16.2868 124.1 -2.86339
-14.9009 136.622 8.46026
-4.52649 143.744 -4.03242
-11.7654 135 7.62905
-18.6816 143.83 5.45404
22.272 127.875 -9.75344
-9.4115 129.198 10.588
18.1365 122.454 -2.73085
14.1949 129.938 -5.87071
-2.28473 141.256 -3.51186
18.9808 101.023 13.3558
0.177509 116.466 14.0524
-15.0081 136.905 8.44003
14.4054 130.237 -6.18394
21.7307 99.6457 12.608
-0.439693 139.376 -3.24471
15.9019 129.281 -6.4131
13.6548 110.985 9.28878
19.9616 119.906 -1.82805
12.4008 113.461 8.2816
20.3898 129.266 -9.33793
9.11338 117.751 7.18991
19.6047 118.762 -0.646702
19.6072 118.762 -0.64226
16.0606 128.769 -6.009
-8.43644 124.605 13.7288
19.6109 118.75 -0.589933
27.1381 123.577 -9.3801
18.0473 121.178 -1.39231
18.0351 125.657 -4.84918
15.3016 130.249 -6.55885
7.28827 136.17 -5.73973
1.43793 138.337 -3.47011
-4.09018 120.387 14.1668
6.57706 136.09 -5.18347
26.4475 123.977 -9.17547
14.6908 130.808 -6.54784
14.4516 126.995 -3.41761
5.5956 119.199 8.59114
1.28736 138.501 -3.44668
14.6185 129.149 -5.10973
22.2562 128.169 -9.48748
-5.02111 144.954 -4.1073
23.0182 102.051 10.2854
19.7946 115.855 1.79953
14.9804 130.4 -6.22301
18.2018 131.589 -9.27172
6.0932 119.872 7.97919
22.9611 109.884 4.35983
-9.31291 132.09 8.89939
18.6253 122.208 -2.26014
1.83365 117.417 12.7743
-15.2614 147.372 1.07392
19.5844 118.969 -0.377182
-8.27041 148.804 -4.73094
18.3982 102.255 13.3909
7.73661 136.907 -6.27935
15.1256 130.597 -6.35882
22.2364 113.184 2.35189
-11.6119 136.658 6.98535
14.7378 126.402 -2.75632
11.9123 137.853 -9.71277
1.62486 138.825 -3.52271
4.08409 118.607 10.5413
16.9328 123.676 -2.04125
17.1888 102.935 13.876
-6.05535 122.652 14.2737
22.9533 108.707 5.54772
17.9658 126.253 -4.66907
16.6167 131.424 -7.7588
4.11512 118.877 10.3918
9.4524 137.482 -7.61076
8.91821 137.084 -6.91942
25.4396 125.219 -8.83669
7.07721 137.731 -6.15316
5.42247 136.966 -4.4375
5.29122 120.219 8.65827
22.5537 101.275 11.7437
-9.03879 133.981 7.68119
27.2924 124.033 -9.06694
2.21558 118.052 12.4659
4.07957 119.221 10.3114
-9.04152 128.492 11.9759
0.985847 118.068 13.345
15.9583 133.169 -8.43969
-11.3066 149.712 -2.85025
-2.45264 119.796 14.3891
7.87732 137.891 -6.57613
19.2507 102.669 13.0784
-1.86646 119.253 14.4714
17.6808 103.687 13.3703
17.8441 126.786 -4.56524
7.40498 138.247 -6.38683
-17.2769 146.035 4.23541
-17.5324 141.862 7.65766
-9.89276 136.467 6.69488
16.4954 130.429 -6.39344
-12.273 137.38 7.60181
20.1236 119.983 -0.712849
18.6074 125.197 -3.72328
18.3909 121.71 -0.874609
-8.21326 127.239 12.786
-12.3437 136.508 8.38734
-8.59286 132.748 8.78346
-12.2736 136.442 8.39972
18.5858 132.324 -9.18905
22.777 111.435 4.18208
-9.52114 136.181 6.78091
17.6669 125.697 -3.39375
25.1953 125.73 -8.4724
16.1116 133.685 -8.48175
6.9086 121.603 7.10908
19.6027 102.899 13.0725
1.52113 118.717 12.9973
9.41641 120.207 6.56991
-15.473 139.418 8.44823
-9.47111 136.12 6.97056
11.9743 117.103 7.27584
18.7395 123.003 -1.84411
-11.2078 150.158 -2.68115
14.6538 111.988 9.51023
-16.8994 146.431 4.08403
17.3223 131.77 -7.58638
22.7838 103.092 10.9684
-7.66675 126.53 13.3277
4.2423 121.117 9.51788
22.6199 106.36 8.59981
14.4927 128.487 -3.04756
9.3452 120.679 6.49134
-8.32747 132.895 8.94568
2.922 119.427 11.8143
19.8918 121.044 -0.867781
7.38625 122.203 6.68006
17.816 125.201 -2.65139
19.4835 132.37 -9.25744
10.9617 139.683 -9.13267
7.22667 139.526 -6.48404
16.3623 134.229 -8.48463
-15.1258 148.145 1.94913
-0.235314 119.702 14.0202
16.1966 109.072 11.2574
-8.92865 137.712 5.98813
16.9005 107.999 11.6455
-1.69684 121.629 13.6203
20.8076 130.792 -8.61562
-16.9163 142.985 7.40215
15.9213 110.157 10.7491
15.5224 126.278 -1.43668
22.5316 113.084 4.07969
20.1534 117.882 1.98637
0.183443 141.97 -3.21033
3.02818 121.446 10.7991
15.4323 133.454 -6.86447
-8.64604 135.972 7.40415
-0.38663 120.642 13.7252
15.718 133.799 -7.31095
19.0383 122.295 -0.628088
15.4531 129.295 -3.63823
19.2228 119.182 1.66167
24.1617 127.322 -7.96898
20.0004 121.452 -0.605706
18.9349 121.932 -0.24419
17.9645 107.176 11.8517
7.16183 123.407 6.57453
22.6329 105.272 10.2251
-15.3131 147.916 2.7532
20.0603 103.933 13.0674
12.1966 118.606 6.99887
-13.2606 139.654 7.83966
-16.904 144.515 6.52694
16.8053 128.45 -3.69737
22.7369 112.071 5.03149
21.972 114.941 3.35661
1.28327 120.626 12.9201
28.3339 125.102 -8.76796
0.11283 120.744 13.6263
12.4319 118.414 7.14775
17.345 133.547 -7.88291
22.052 109.387 7.69686
7.6295 123.901 6.17315
3.90808 140.392 -4.09474
-9.5965 138.299 6.65566
-7.24567 128.193 12.9148
-6.56284 132.086 9.46628
-5.97615 126.112 13.7082
1.69265 121.238 12.3458
17.4338 131.832 -6.41054
17.4177 133.624 -7.77746
-0.0512393 142.864 -3.16531
18.8316 122.989 -0.471652
7.79781 140.501 -6.60258
15.8005 127.547 -1.9412
-7.26182 134.689 8.068
15.7525 129.539 -3.42391
16.3387 110.587 11.0351
-4.17867 147.152 -3.46756
-15.1554 147.88 3.36359
29.6069 125.315 -9.27252
1.49929 121.669 12.4918
21.5279 104.559 12.2725
19.4729 119.176 2.32644
-14.9292 141.396 8.27899
-6.19245 126.906 13.6342
-5.5745 126.409 13.6231
-15.0941 147.916 3.37651
18.9653 106.845 12.3034
16.159 132.555 -5.72818
-6.7047 133.593 8.87336
15.1507 113.171 9.98586
13.1995 138.629 -8.41922
14.9746 113.816 9.62261
12.8026 118.909 7.16004
1.08136 142.479 -3.20276
-5.89773 149.715 -4.10462
2.72982 123.117 10.7082
12.1724 139.697 -8.48988
0.950533 142.617 -3.18186
-3.79371 141.532 0.982863
-6.7449 128.672 12.9462
19.4776 106.218 12.6925
1.2491 122.107 12.7015
-2.01837 124.559 13.0139
21.9712 108.317 9.48555
19.461 121.951 0.647287
26.2552 127.284 -8.00142
0.844799 122.066 13.1706
-9.77579 151.054 -2.14421
-5.81076 129.957 11.5422
-3.59646 126.208 12.9888
5.05557 140.767 -4.11934
17.7777 108.729 12.1579
-15.6919 143.572 7.74192
4.57268 124.639 8.80707
20.1151 133.419 -8.46593
17.39 133.653 -6.79891
15.0071 114.68 9.57687
17.4491 131.749 -5.28821
8.38448 125.881 5.39963
18.8835 123.799 -0.0483164
1.58642 123.217 12.0556
17.3203 134.035 -6.92545
30.4282 126.142 -9.61762
16.3969 126.221 -0.203258
21.9446 107.174 10.8371
-12.2484 150.533 0.264835
2.73708 124.391 10.4336
4.62663 124.916 8.75894
19.3711 120.234 2.49525
-2.0022 145.98 -3.0412
-11.5317 150.915 -0.446213
15.7913 126.614 -0.000787278
19.1254 123.474 0.214051
21.7326 131.484 -7.74443
17.261 134.937 -7.39561
8.5723 141.829 -6.87889
15.1604 137.931 -8.28004
-7.83707 139.577 5.94764
-1.25729 125.014 12.904
-13.5185 142.273 7.79416
-13.1311 149.879 1.64772
17.1444 130.316 -3.576
17.5668 134.278 -6.91077
20.0896 118.936 3.29442
21.5862 109.412 9.66974
15.375 127.485 -0.141185
-11.3597 151.076 -0.410116
-4.57008 132.364 9.5331
17.5534 132.915 -5.77854
1.53585 124.038 11.8938
0.519003 123.45 13.0792
-6.42205 151.074 -3.65316
17.4037 134.749 -7.03362
13.8553 118.857 7.68567
8.21699 141.973 -6.40083
21.0031 120.961 1.27459
-9.64819 140.624 6.70765
-5.29656 150.16 -3.58706
-2.84644 147.386 -3.0669
3.2222 125.28 9.9854
13.533 119.931 7.2025
8.08568 126.935 5.44774
-0.97838 125.256 12.8563
10.2903 142.533 -8.11683
5.99473 126.591 7.15688
8.26306 142.15 -6.41091
10.4176 125.418 5.11767
21.817 116.208 4.60688
-1.71749 126.21 12.7222
21.4565 109.637 9.96729
15.7064 127.343 0.120678
22.0989 115.264 5.20961
10.3332 125.713 5.0472
-4.2336 136.653 6.38959
19.2818 124.925 -0.344931
30.3416 126.553 -9.05373
16.9309 130.94 -3.35038
30.4644 126.709 -9.17516
-3.92213 132.546 9.46662
23.8271 120.275 0.3155
-1.62102 136.862 4.61107
4.12754 126.076 9.17443
19.1408 108.507 12.6874
15.6362 129.957 -1.57677
16.3431 126.859 0.349903
19.382 123.706 0.748017
-4.18616 136.477 6.73414
11.0261 125.279 5.16828
21.2237 111.9 8.67086
-0.959737 146.158 -2.91566
14.9934 116.405 9.42241
16.0259 113.596 10.9056
16.7586 136.651 -7.43539
16.2139 127.034 0.408707
21.9448 113.944 6.69552
0.70735 124.6 12.7598
21.9924 115.682 5.35348
18.688 124.809 0.507406
-13.8482 147.741 4.65185
20.3516 123.064 0.762615
23.8404 122.146 -0.853211
-4.88464 136.454 7.42393
15.6525 128.814 -0.468252
-3.88623 129.881 11.8697
-1.99816 141.194 1.86573
-3.80319 136.466 6.75814
-5.70199 134.859 9.29983
18.2408 110.09 12.3829
-6.9101 140.319 5.89761
15.9553 114.145 10.806
20.3077 119.038 4.08611
-5.54534 136.9 7.659
8.89746 128.03 4.80785
-11.2106 142.349 7.26329
21.5366 108.502 11.452
-13.1109 143.685 7.55874
18.131 110.428 12.3015
-2.58493 136.357 6.17617
16.0495 114.101 10.8764
-1.71841 138.485 3.97232
17.3156 111.831 11.819
-5.69967 137.636 7.32567
-1.42264 137.414 4.6206
9.19407 128.187 4.62949
-5.75755 136.942 7.91707
7.08042 128.869 5.55774
19.1904 109.356 12.5301
-3.64552 130.126 11.8137
1.91345 126.202 11.1273
-11.843 150.373 1.66338
28.6776 127.878 -8.17471
20.8964 111.108 10.0764
21.035 110.544 10.446
-2.75042 148.481 -2.90535
10.0948 143.504 -7.68
-4.26302 139.924 4.77489
-0.124286 126.217 12.6749
19.2528 135.451 -7.51919
-11.5183 150.524 1.5336
17.1261 136.066 -6.55244
1.98444 145.199 -3.41692
-6.75533 152.081 -2.81853
24.1498 129.851 -6.39381
20.2568 109.16 12.3008
-11.59 143.719 6.96869
18.1472 135.513 -6.69615
-10.832 151.358 0.54989
-0.979655 147.239 -2.87556
21.0673 134.254 -7.66133
-7.74132 152.058 -2.04516
-5.85393 138.393 7.28612
-1.18152 137.441 4.89098
-1.80734 128.168 12.5027
-6.20863 152.126 -3.05418
16.9619 136.66 -6.67253
11.0363 126.899 4.89764
-3.55755 135.943 7.76912
12.5633 142.111 -7.84667
-1.78561 139.46 3.91267
8.13918 129.669 4.86203
-11.3911 150.479 1.95063
-4.25893 141.205 4.34616
17.3963 126.872 0.886771
-11.8684 145.182 6.41875
28.9493 128.229 -7.9279
-11.1855 144.21 6.72886
5.5802 128.293 7.77326
-7.88927 152.244 -1.70274
-4.71519 138.954 6.48895
-9.40751 142.589 6.83967
19.5359 135.989 -7.53813
5.08169 143.831 -3.84351
18.6912 126.014 0.833794
22.2088 132.795 -6.77447
6.85018 129.741 5.94805
-2.70451 149.291 -2.7468
-0.574479 136.61 5.70145
7.70853 143.918 -5.5272
20.3416 136.244 -8.08068
-2.23599 141.406 3.14563
-11.5305 150.03 2.75921
3.20003 128.275 9.7489
-5.67151 142.342 4.82372
-3.3652 135.085 8.89917
0.603821 127.099 12.429
23.3669 122.847 0.41498
-9.43735 143.247 6.71547
8.28158 130.679 4.52836
-7.37342 152.472 -1.81766
-4.56283 141.121 5.0985
5.36239 128.865 7.92022
-1.74315 129.23 12.4358
20.9343 114.808 8.34198
5.44108 144.12 -3.92495
-11.2447 146.383 5.56305
29.2403 128.44 -7.7949
22.2368 133.014 -6.61306
-2.08823 141.316 3.35872
6.24202 129.348 7.05547
-6.74615 142.622 5.51942
-0.617782 141.232 2.50396
21.4795 117.548 6.01093
20.4848 123.579 2.03747
-1.07017 128.963 12.4193
28.3497 128.882 -7.33408
27.8552 129.07 -7.12422
-2.15576 131.359 11.3239
22.5827 132.751 -6.41721
21.7416 116.396 6.8374
20.7243 111.923 11.0046
8.51905 131.235 4.26525
-1.09638 129.097 12.408
-0.293961 136.847 5.89453
24.7199 130.258 -5.76685
27.4272 123.963 -2.70301
20.83 113.065 10.2004
21.4251 116.098 7.45396
-1.90421 131.477 11.2553
3.15226 128.879 9.89133
-0.47194 128.946 12.2999
-2.42689 149.886 -2.57381
-1.27237 130.26 11.8798
5.16076 145.004 -3.86812
22.1748 133.469 -6.36705
14.8352 119.804 9.17662
5.30816 129.612 8.00119
-7.03446 145.173 4.29341
23.8899 131.152 -5.6552
-7.65274 152.837 -1.19972
24.7528 130.431 -5.62765
14.7666 120.13 9.12265
-7.52848 144.511 5.28818
-10.4644 149.971 3.0339
20.698 113.809 10.0757
12.7003 126.892 5.37293
17.2825 114.804 11.6661
21.4833 116.959 7.20063
22.5112 133.259 -6.1071
14.459 121.394 8.51966
9.83989 131.609 3.72448
13.2507 143.167 -7.52015
19.4946 125.44 2.04826
16.2342 116.851 10.9247
-0.5916 130.36 11.852
19.6274 120.782 5.67687
11.0877 144.613 -7.03864
21.033 136.745 -7.62108
-8.07267 147.031 4.02733
27.5652 124.418 -2.43622
19.3141 127.047 1.09431
-9.72353 149.818 3.07115
0.145277 129.981 11.8281
19.9881 121.823 4.78958
18.2181 114.009 12.0829
19.5994 121.055 5.69889
-7.67655 147.672 3.46126
19.1757 126.37 1.92147
3.92102 130.726 8.83547
0.388765 134.345 8.42697
7.15372 132.457 5.3382
16.7625 116.428 11.3058
20.4513 124.045 2.94582
-7.98318 148.098 3.47018
30.1892 127.501 -6.27746
-8.29231 148.258 3.56602
25.9429 123.882 -0.585094
15.3959 119.588 9.91167
15.2313 119.965 9.73345
-6.52478 153.229 -1.39411
-0.58819 134.203 9.3695
28.2373 129.79 -6.62179
30.2437 128.879 -7.23419
4.93866 131.037 8.13959
14.2792 123.213 7.92256
14.1806 142.883 -7.19673
8.24297 146.626 -6.07775
20.6169 116.674 8.85722
8.03882 146.502 -5.78715
28.2975 125.312 -2.97375
8.49676 146.759 -6.23336
10.2967 146.133 -6.89854
20.3486 126.028 1.93189
3.4438 147.595 -3.39528
0.626901 134.226 8.89837
16.1564 118.372 10.7341
0.356148 137.888 6.26688
27.4683 124.955 -1.96312
-7.46753 153.553 -0.556392
20.3206 123.656 3.90919
-4.63046 153.311 -2.26008
19.9695 114.406 11.3315
18.9784 114.715 11.7732
20.942 118.694 7.38579
5.40989 131.504 7.92346
6.28361 131.582 7.28361
-0.164453 139.391 5.60792
25.0651 123.614 0.890148
29.9 129.589 -6.99843
1.19733 133.943 9.02672
26.2461 125.992 -1.66086
26.5183 130.566 -5.38778
20.5492 117.242 9.01205
5.79019 131.732 7.74802
1.38164 149.432 -2.98125
3.0971 131.354 9.90295
19.8427 116.324 10.2981
20.0686 122.639 5.26387
18.4116 138.984 -6.27744
20.5848 125.737 2.55656
12.5309 145.196 -7.09454
6.39055 134.539 5.3047
-7.97871 150.754 2.41519
1.46863 137.575 6.28938
2.45896 148.908 -3.15679
19.4847 115.157 11.5472
-4.01258 153.276 -2.16132
17.7903 139.145 -5.85141
-6.25843 153.759 -0.978023
26.5319 130.743 -5.22036
12.5241 130.18 4.70948
9.89745 134.121 3.428
24.907 131.775 -4.84362
25.8437 126.23 -1.16688
25.5908 126.172 -0.909935
17.7027 117.229 11.4195
9.84414 147.221 -6.52952
28.6618 125.899 -2.66865
13.9764 126.834 6.54025
7.6572 135.792 3.87303
30.1822 127.742 -5.055
6.38472 147.117 -4.04231
18.4934 116.518 11.5225
26.996 126.794 -2.15999
28.3418 130.638 -6.02842
20.4011 126.127 2.82142
9.44694 134.552 3.70173
8.73539 147.761 -6.05187
13.9619 144.246 -6.82897
-5.83876 153.962 -1.02141
6.05532 147.385 -3.90531
28.8721 126.001 -2.6345
25.3084 125.169 0.412261
18.7412 116.606 11.4772
22.1704 136.763 -6.42722
9.87196 135.463 2.90304
8.76711 134.255 4.60815
11.6974 146.669 -6.94408
2.66446 138.193 5.71994
24.2888 132.596 -4.50339
3.70198 135.792 6.91524
25.2844 126.38 -0.222069
19.5539 117.088 10.8588
19.8878 128.508 1.81959
2.97411 132.727 9.94743
-0.615084 151.963 -2.46781
20.4634 126.686 2.96191
6.09852 135.385 5.9104
22.0065 125.648 2.82223
30.4213 127.195 -3.99457
26.1534 127.713 -1.48202
29.5604 129.179 -4.90367
15.7725 142.189 -5.69993
1.41131 142.029 4.10447
19.5921 129.195 1.83578
3.45077 138.153 5.76837
10.6564 135.378 3.09458
27.3688 131.36 -4.95444
2.10687 141.418 4.30376
24.9518 125.719 1.10704
26.0143 131.816 -4.32863
7.7572 137.882 3.347
29.4495 129.355 -4.65218
18.9009 129.836 2.10273
29.6254 126.331 -2.39491
6.58133 138.149 3.98698
19.88 128.607 2.44825
18.7565 127.377 4.23649
20.3674 127.404 3.15863
2.77856 150.762 -3.04694
19.9077 119.465 9.67762
0.733816 152.162 -2.74926
4.71261 135.459 7.52245
18.1502 119.04 11.2496
7.02291 138.638 3.57666
18.2709 119.221 11.1152
15.3226 143.759 -5.89313
20.1695 121.789 7.87805
10.372 148.503 -6.22716
14.5518 144.711 -5.90058
17.661 120.071 11.11
20.0343 140.24 -6.08608
7.20819 148.946 -4.19355
13.3743 131.055 5.60188
26.3624 129.02 -1.55833
19.0554 119.824 10.4995
20.1025 121.009 8.89096
28.1376 127.831 -1.73582
27.3776 132.023 -4.4716
6.00137 136.779 6.25647
24.0252 134.738 -4.28223
19.5578 124.436 6.82914
19.4753 124.442 6.91983
26.5301 132.366 -3.93399
17.4953 126.917 6.41271
6.02817 140.431 3.73255
20.0415 122.767 7.99482
16.1358 143.191 -5.15711
17.6158 127.529 6.00528
23.1021 137.495 -5.29117
23.2974 127.071 2.65897
24.8007 133.761 -3.53569
1.4165 153.044 -2.70794
13.9183 146.146 -5.76468
5.83779 140.744 3.88538
19.746 122.762 8.45577
5.68075 139.151 5.22756
17.3129 126.917 6.88214
5.81485 140.947 3.80147
18.9012 124.179 8.01481
19.6114 122.63 8.7396
19.0621 128.901 4.24939
13.4528 132.348 5.38519
24.5861 134.283 -3.57045
4.31315 151.383 -3.14427
24.9473 129.399 0.0134224
27.1796 129.836 -1.81827
28.6645 132.29 -4.71459
15.2544 125.983 9.25813
6.61951 150.418 -3.85833
4.61947 141.465 4.43863
19.2631 122.404 9.36237
19.2611 128.607 4.62484
19.095 122.648 9.42902
24.2468 135.42 -3.88296
11.8138 137.123 3.18145
6.02243 141.666 3.57084
7.34099 141.407 2.90374
28.6435 132.408 -4.42996
17.1893 127.777 6.88716
14.6369 145.57 -5.15265
16.9319 127.208 7.54495
28.1021 132.75 -4.24054
25.7922 133.273 -3.06576
9.88679 149.929 -5.24548
29.7165 129.591 -2.80725
5.59812 141.89 3.90884
16.9458 125.922 8.7875
23.2309 138.154 -4.91842
5.69994 151.437 -3.35409
5.34946 151.601 -3.24208
13.3053 133.486 5.45257
29.7437 129.609 -2.61202
18.4631 123.691 9.58205
11.4937 148.661 -5.07424
17.0967 125.517 9.14194
15.054 145.545 -4.8871
3.76654 144.927 3.23142
20.6355 141.537 -5.42112
12.839 148.146 -5.26993
24.1512 136.765 -4.05605
17.7216 124.091 10.1094
17.8503 143.01 -4.5893
5.27424 143.638 3.43232
11.8093 138.47 3.0561
5.09249 143.759 3.48085
16.6091 126.134 9.38686
17.7156 128.822 6.56455
23.7701 137.78 -4.43045
20.9572 129.922 3.62573
21.8228 129.23 3.72839
22.4356 139.588 -4.69609
5.73924 144.462 2.90571
26.4905 131.329 -0.788056
