ply
format ascii 1.0
comment Created by Open3D
element vertex 1920
property double x
property double y
property double z
end_header
0.0230382 116.947 7.3609
9.39443 106.558 7.41954
-7.61583 130.337 8.69526
-28.5581 98.3594 -7.25509
18.3987 97.8928 7.85909
-25.6768 124.234 1.06215
-28.0029 138.083 4.26337
-0.709147 119.436 7.76993
19.419 95.8184 7.53815
18.216 98.9794 8.03037
-8.6158 131.145 8.51501
18.0198 100.91 8.51413
-4.95688 128.077 8.81125
-22.2546 81.3809 -10.1782
-28.7942 138.604 4.06357
-3.29802 125.513 8.59276
-26.9914 124.635 0.645653
-28.3883 98.7759 -7.20842
11.1286 108.863 8.49151
-2.4469 124.225 8.47112
-24.2531 119.173 -0.0690893
15.7482 108.586 9.88034
-27.703 95.4924 -7.97768
-18.8542 75.9681 -10.6967
19.7079 94.7578 7.18963
-0.550291 119.412 7.65314
3.32563 109.027 5.91858
-19.8608 141.137 7.57269
-18.8133 137.785 6.91753
-28.5832 123.592 -0.324005
-33.2774 132.743 0.728086
-5.0881 128.715 8.72753
20.4949 84.1745 4.29039
-19.6409 140.549 7.36682
-31.1502 137.433 2.73315
-30.1187 129.08 0.564403
-24.6081 120.806 -0.0284258
20.3958 85.5963 4.45621
-28.6742 126.951 0.339127
-23.8871 118.953 -0.421061
-25.3367 116.213 -1.68377
13.7335 112.721 10.0009
-33.0806 132.072 0.300423
-29.3858 135.36 2.38028
-26.4634 94.5122 -8.38369
-32.7747 133.205 0.623783
13.9259 112.961 9.97935
0.82514 116.506 6.72293
-19.091 139.776 6.90593
-17.5444 138.031 6.8915
-26.5133 111.122 -3.739
19.6883 95.5856 6.77619
-20.7901 142.712 7.08933
-26.1129 113.996 -2.87552
-28.3058 136.548 2.8312
-24.4782 117.468 -1.39411
15.7843 109.963 9.49357
-32.4165 131.354 -0.0642365
-1.78727 125.142 8.08307
3.64741 110.844 5.69228
-30.8227 136.673 1.87795
-26.1131 114.166 -3.03333
23.2598 77.2939 2.42701
-23.9353 88.2682 -9.76592
-17.8562 139.521 6.86713
4.65146 110.036 5.72111
-25.082 125.118 0.373401
-18.5926 141.101 7.04796
20.0615 86.9545 4.08493
-26.3814 112.155 -3.8165
-0.159459 121.934 7.48652
8.37712 109.273 6.63222
-26.2298 113.064 -3.53476
2.74975 113.072 5.874
-24.3055 143.653 5.81565
-27.2634 126.206 -0.138852
-1.77159 125.714 7.99541
-18.533 142.248 7.27107
-13.9785 133 6.0969
20.2352 82.6583 2.75567
-26.0794 124.413 -0.378336
-11.5522 133.506 6.92798
-27.3692 98.2711 -8.29321
-22.1101 143.833 6.42211
-11.5287 133.552 6.90932
-21.9873 86.0626 -10.0794
-20.825 83.394 -10.4775
-26.5877 124.999 -0.446972
-24.4477 117.912 -1.82631
-23.2854 88.538 -9.85278
-19.9658 81.7713 -10.724
-7.35052 132.36 7.82905
5.45693 110.385 5.70053
-4.60046 131.015 8.31733
-16.7364 136.374 5.90279
2.90793 113.912 5.78999
-20.2656 144.426 6.94955
-26.9435 101.426 -7.52794
-27.1678 138.289 2.94164
-22.9156 144.535 6.09699
-27.1459 99.3693 -8.23278
2.0558 115.834 5.88966
-29.1419 123.658 -2.00733
11.8435 114.387 8.64965
-27.0283 107.968 -5.81276
5.34569 111.114 5.59471
-31.6085 131.381 -0.609509
-27.3963 104.555 -6.91648
-15.6738 76.7471 -11.0749
-23.8344 118.516 -1.77898
-26.124 114.673 -3.62605
-29.149 134.313 0.971721
4.94806 111.488 5.51275
-28.7296 128.766 -0.514562
-5.89659 132.173 7.85902
-30.912 131.03 -0.591759
-22.9507 90.749 -9.54238
-28.0286 135.754 1.66718
-31.1792 132.051 -0.418053
-25.6067 124.258 -0.881256
-19.304 82.4758 -10.8479
9.17314 110.954 6.5472
-29.7471 130.393 -0.55168
12.3586 116.781 9.19751
-29.6542 130.351 -0.5648
-28.9597 134.284 0.780046
-26.8167 102.565 -7.6014
-6.36737 132.597 7.63102
13.8386 116.935 9.69333
22.926 77.1658 1.24716
-16.8042 139.053 6.04413
-19.7903 83.8758 -10.73
-26.2943 113.271 -4.44039
-26.7846 124.716 -1.36431
-21.4483 145.18 6.21001
-26.5168 99.5866 -8.48808
-16.566 138.261 5.79988
-16.406 79.7414 -10.8997
20.2388 83.1662 1.95384
-24.8645 124.327 -0.928856
20.2545 82.1719 1.65485
-26.1899 123.363 -1.66806
-26.3929 99.1859 -8.66664
18.9156 102.156 6.88649
-25.2762 124.945 -0.946011
-26.5988 108.539 -6.08391
3.39267 115.214 5.53016
-25.2257 117.319 -3.17716
-22.5731 91.6725 -9.65363
17.1192 108.535 8.05502
7.31272 111.825 5.79919
-21.1189 87.4158 -10.4338
18.448 104.276 7.20839
-19.2192 84.0273 -10.8765
-13.5555 133.638 5.13718
18.3029 104.994 7.27785
7.50278 112.103 5.8006
-13.8434 78.0377 -10.8823
2.95722 116.811 5.65821
1.59885 120.293 6.20488
-13.4674 76.2863 -11.2831
-26.245 142.486 3.50509
20.319 91.7407 4.09031
-21.0422 87.7884 -10.5057
11.9555 118.215 8.89839
15.3162 115.715 9.27307
16.1747 113.051 8.78184
1.49469 121.264 6.36168
0.493865 124.93 7.08526
-26.4461 107.419 -6.69998
-30.584 131.425 -1.18969
-1.15612 128.014 7.38609
-3.04769 131.58 7.77643
20.8131 81.252 1.12586
-26.6214 141.231 2.87213
-20.7199 145.954 6.05089
9.87224 112.81 6.50246
11.0497 115.704 7.70831
3.99374 115.455 5.33768
-24.6058 124.646 -1.32719
16.881 110.986 8.23155
-12.9605 75.8587 -11.5255
-23.4823 124.652 -0.987101
-21.2234 89.3614 -10.3788
-26.245 104.546 -7.66755
-22.4366 92.2623 -9.95232
-26.8656 138.433 1.8126
-8.56688 134.263 6.55672
18.1346 106.186 7.17474
-20.5466 146.105 6.02954
9.41997 112.92 6.26167
-21.7266 91.2593 -10.0627
-15.4763 136.937 4.99806
-26.2094 109.339 -6.38642
-18.6956 145.885 6.46343
-13.5328 134.295 4.807
-26.0404 124.45 -2.07982
-15.7359 81.3882 -11.0829
17.0581 110.932 8.00664
19.92 99.4256 5.64198
-29.1133 122.347 -3.75618
-27.9648 134.362 0.0418332
-26.6563 140.712 2.27499
-14.0514 135.095 4.74342
3.34339 118.088 5.52663
20.3068 97.3365 5.09195
-26.4353 123.61 -2.57308
22.6069 78.7281 0.494401
-23.8734 118.843 -3.12453
8.54484 113.535 5.86144
10.8831 116.44 7.44423
22.171 79.9219 0.656391
-14.301 136.332 4.95015
20.5525 81.934 0.7044
3.59746 117.665 5.41547
-16.6268 141.038 5.52106
21.7022 80.4997 0.642807
-11.3608 77.096 -11.0697
-16.6234 140.936 5.4751
-23.7042 95.1112 -9.97401
-27.5008 129.351 -1.44413
-26.5775 123.547 -2.80856
0.445067 126.894 6.92066
21.0842 88.5101 2.6286
-26.2152 110.468 -6.46332
-13.9617 135.134 4.57159
0.043585 127.597 6.95385
22.5452 78.1117 0.0807518
4.67925 116.118 5.14796
-21.054 91.051 -10.397
20.9085 89.3913 2.74245
-13.1585 136.527 5.15966
-12.4563 136.362 5.33738
-23.4067 120.685 -2.72155
-7.19233 134.143 6.38198
-10.3668 75.3893 -11.46
-25.4887 126.362 -1.796
2.54523 120.545 5.64001
-26.1192 115.883 -5.00774
14.0567 120.257 9.27913
-18.3995 85.6925 -11.1542
-16.5003 139.74 4.91951
21.2645 88.1961 2.4217
1.37383 125.35 6.58857
-12.9851 134.405 4.50224
-26.1597 110.542 -6.61633
-26.4343 136.493 0.718628
16.2219 115.148 8.45944
18.1038 107.888 6.98523
-23.9273 124.443 -1.9352
11.5184 120.412 8.41299
-8.9225 77.2256 -10.6051
-9.13597 76.3544 -10.938
-17.3586 146.226 6.36793
21.381 83.8154 1.08961
-23.3988 121.462 -2.70987
-9.75454 78.1517 -10.6856
-27.7228 134 -0.54906
-9.56051 78.0594 -10.6568
0.639086 127.446 6.78001
-26.0507 110.601 -6.73301
-27.4224 122.701 -3.73792
-7.96095 77.2743 -10.4336
16.8755 113.297 7.89814
-18.8356 88.2345 -10.8739
-27.4086 134.287 -0.484645
7.42823 115.036 5.27688
-24.1633 98.2384 -9.78852
-14.0287 136.794 4.51786
3.01393 120.675 5.4239
21.2416 94.7046 3.83328
-17.9647 146.928 6.03087
-25.8848 114.171 -5.94276
18.9996 104.444 5.82558
-11.6584 135.683 4.79643
-23.2106 125.455 -1.88224
-14.4337 137.477 4.37991
21.4491 88.7285 2.0854
-22.463 94.9264 -10.4084
-23.6955 97.0029 -10.243
4.46812 118.416 5.02423
-24.5913 143.21 2.67957
10.6893 118.714 7.12411
-25.8776 115.337 -5.71902
-13.3609 80.8846 -11.5168
-8.90398 135.69 5.6098
14.6816 120.828 9.0123
-0.453588 130.354 6.78588
-22.1196 94.3503 -10.5506
-6.87795 76.1226 -10.8191
-7.3584 135.001 5.86834
-23.3613 126.325 -1.83076
-23.8648 100.242 -9.46134
-24.8593 103.865 -8.76642
-25.2421 141.634 1.91291
-10.0941 79.3584 -10.9924
10.4424 117.967 6.70987
-22.9897 124.327 -2.32755
13.0166 123.187 9.02686
-1.79863 133.194 7.07018
-14.1441 137.54 4.30342
16.1001 117.943 8.5169
-24.063 124.398 -2.6884
7.96135 115.955 5.28843
-23.5186 99.1662 -9.74278
-23.5188 124.915 -2.3877
0.781712 128.692 6.57925
-26.0557 140.583 1.26447
-24.3106 105.053 -8.3398
-13.3376 81.4004 -11.5466
-24.293 105.084 -8.33032
22.0807 80.4182 -0.333547
-0.958606 131.759 6.85698
3.4848 120.946 5.19827
-26.6344 134.793 -0.632271
7.5512 116.185 5.13435
-26.1481 140.42 1.08405
-16.9167 146.937 5.93885
-24.0153 144.073 2.79807
9.19208 116.248 5.60788
-25.6425 140.945 1.35068
-5.8557 76.278 -10.7369
15.6067 119.757 8.67116
10.0625 117.035 6.08964
-25.1448 141.692 1.69673
-24.1077 123.706 -3.11717
-26.1624 135.482 -0.440737
18.5314 107.625 6.10095
-5.78563 134.797 5.97439
-22.9179 125.729 -2.2053
-24.0102 125.97 -2.54541
-17.1851 86.342 -11.6771
18.2656 110.497 6.72867
-12.8796 81.979 -11.579
18.2676 110.616 6.70752
-23.5374 125.246 -2.69579
19.0252 106.19 5.65136
-13.409 83.2044 -11.5123
-22.7174 98.8905 -10.0693
-5.91338 135.098 5.72351
-23.8017 125.786 -2.75171
16.7614 117.509 8.05285
11.6872 124.3 8.3336
-3.6859 75.2204 -10.7114
14.4283 122.432 8.64525
-26.5032 134.376 -1.23814
-23.8036 125.734 -2.83565
20.9584 96.7644 3.41251
18.6672 108.013 5.88031
1.82071 128.928 6.35726
-23.3251 145.15 2.82237
-25.3014 118.088 -5.56825
-2.8619 74.9424 -10.6257
3.23339 124.055 5.40125
11.4518 123.775 7.97998
-10.2447 136.023 4.4357
-3.35781 76.2587 -10.4391
-2.47555 74.6906 -10.6052
20.2793 86.7274 0.198136
-23.5003 123.373 -3.55466
-20.6424 93.6325 -11.1362
-9.2745 140.145 5.82609
11.44 123.865 7.89017
-20.3988 93.2457 -11.2223
-24.3557 142.846 1.67821
21.5003 75.9902 -2.57699
-2.35175 75.7729 -10.3881
3.26921 124.573 5.38377
-25.145 123.901 -4.0472
-15.5183 141.834 4.20225
8.85776 117.723 5.21526
-20.787 147.235 4.02486
-23.1824 126.574 -2.66545
-12.8741 83.7895 -11.5617
-24.3981 119.767 -5.03008
-3.84475 134.864 5.95981
-26.4901 129.935 -2.8524
-12.3277 138.383 4.15396
16.228 119.991 8.1522
-9.76635 140.535 5.56346
21.5335 90.8417 1.50984
-3.04376 77.7155 -10.2312
-25.0726 112.049 -7.5844
5.54179 120.094 4.64967
12.8251 124.957 8.38685
2.78649 127.326 5.77201
-3.5825 78.5341 -10.2557
-25.9621 129.68 -2.95563
-24.0332 128.156 -2.77399
20.1209 87.0641 -0.19904
12.8178 125.078 8.28181
-8.98461 139.001 5.15732
12.3729 126.506 8.5119
-22.8176 126.685 -2.91067
-21.8411 99.6259 -10.3584
-8.9029 141.201 5.73636
-3.63064 79.1078 -10.3181
-22.8297 126.302 -3.05323
-3.06043 134.937 5.83367
-16.0631 87.4956 -11.9628
21.2865 77.3716 -2.77197
19.3899 107.004 5.08931
-23.0913 122.96 -4.1557
-14.8794 140.726 3.57299
-8.67666 139.298 5.16618
-8.44067 141.663 5.91124
14.3334 123.069 7.98652
-23.7656 110.552 -7.97483
18.6617 111.29 6.00929
-8.32579 141.899 5.99989
17.8437 115.124 6.83266
19.9065 87.0352 -0.562907
-8.48669 81.2096 -11.4598
-1.79038 134.709 5.99945
18.7899 83.3074 -2.04259
-1.7882 78.0667 -10.2272
-24.7122 124.555 -4.37351
19.1053 109.512 5.54206
-22.715 126.862 -3.07917
21.2546 92.1021 1.23627
1.5459 132.154 6.27876
-15.0039 87.5959 -11.8452
17.1817 117.719 7.2067
-6.68909 136.318 4.76187
-13.3249 141.084 3.94418
-2.6672 79.305 -10.2788
0.277112 134.395 6.43258
-25.7813 138.975 -0.73539
-9.30939 137.916 4.30108
19.8246 102.159 3.52521
-8.56457 137.27 4.34492
-24.534 142.158 0.555719
-1.3932 78.2988 -10.2066
20.8496 97.4522 2.49109
18.7804 85.2938 -1.67833
20.8707 83.4364 -1.54133
9.9541 121.997 5.93239
-26.4813 130.752 -3.40024
18.0983 114.928 6.54774
-22.5675 102.761 -10.1559
8.39262 119.597 4.71105
3.37179 127.417 5.29386
-7.69834 142.424 5.98673
14.2491 123.414 7.65921
17.3363 117.323 6.88842
3.54273 127.075 5.19891
21.2923 93.1248 1.24744
20.892 76.8825 -3.53159
8.0547 120.092 4.64084
0.225912 134.699 6.26891
-6.99613 136.755 4.50808
-11.7065 142.141 4.51422
-6.23487 136.671 4.72373
-24.407 130.123 -3.06793
20.1483 87.8808 -0.68647
-9.33597 137.375 3.88678
-23.3609 144.335 1.31114
-25.7489 138.43 -1.16353
19.0764 82.5718 -2.59025
12.3897 127.413 8.06671
-6.0422 81.6326 -11.0224
-2.01334 79.5952 -10.3039
1.86299 77.4054 -9.67997
7.19368 120.838 4.42931
19.7546 101.112 2.85231
-16.4464 91.1125 -11.7745
8.5083 76.0395 -8.03306
19.7545 107.196 4.51129
11.6486 127.618 7.71864
-9.61897 84.065 -11.6585
-7.55755 142.818 5.81649
-25.3129 139.685 -0.849973
6.34082 75.2981 -8.99571
-24.5621 120.007 -6.24179
-19.892 96.5712 -11.447
-11.4545 142.404 4.3962
9.60592 122.073 5.41027
2.90748 77.6118 -9.48512
-24.6805 113.968 -8.04564
19.6534 102.046 2.9308
-5.27821 136.802 4.7625
-23.2913 106.296 -9.8165
-21.1358 100.731 -10.7265
15.1658 122.932 7.38848
-19.1919 96.4585 -11.3458
-18.8213 96.1422 -11.3214
19.9983 79.4416 -3.50424
-24.4347 120.759 -6.11446
20.0068 80.2361 -3.27619
9.14241 76.6475 -7.84718
0.274617 79.4252 -9.94749
-12.4204 142.203 3.83099
-22.174 145.839 1.69584
-18.8833 96.9531 -11.2401
-25.4872 138.405 -1.52565
17.0737 82.047 -3.83121
-23.1049 128.218 -3.67026
9.52064 76.7554 -7.80339
18.8611 86.3368 -2.04156
-14.8424 147.999 4.65008
-22.8176 130.939 -2.82978
-24.7899 117.899 -7.21721
19.4337 80.1273 -3.66832
-25.4155 137.564 -1.80619
9.85915 76.6917 -7.77613
9.49159 78.4279 -7.40802
-7.70984 83.5951 -11.5228
18.6526 77.2177 -4.79057
-12.05 86.824 -12.0188
12.5368 128.116 7.76609
16.293 76.3284 -5.88616
-24.2731 135.404 -2.16364
15.1698 75.5666 -6.4791
-24.4105 115.027 -8.0595
-24.4191 120.412 -6.53263
-24.3467 121.359 -6.25763
15.776 76.0603 -6.20438
3.10419 79.5295 -9.34284
11.049 126.685 6.7199
11.0522 129.031 7.38734
17.6118 77.5892 -5.22447
19.7878 89.5837 -1.09645
-24.641 118.294 -7.31291
16.1204 76.6968 -5.995
-7.43313 140.432 4.58312
18.2978 78.7106 -4.72147
16.2006 83.2507 -4.12163
-1.41997 81.1362 -10.462
-16.7653 149.006 3.96015
-10.1198 86.143 -11.8795
-7.75403 144.58 5.60651
19.3073 87.9655 -1.82114
-22.8001 142.614 0.131566
2.87152 79.8634 -9.48611
-21.3328 102.651 -10.8276
-2.01422 136.783 5.20468
-23.1893 111.618 -8.87219
4.49847 79.0473 -9.20534
-23.0945 125.416 -4.90137
-12.675 142.628 3.40298
-25.9185 133.082 -3.63809
4.26319 79.6398 -9.14488
17.2524 84.9439 -3.40993
-23.0242 124.8 -5.09476
20.346 99.5575 1.76133
-22.2965 131.088 -3.06854
-23.3275 127.283 -4.49871
-22.6915 142.353 0.00946591
-20.4975 99.5814 -11.5151
16.5439 84.4537 -3.81675
17.6374 81.0144 -4.45491
-4.54487 82.6876 -11.1856
16.8518 80.7657 -4.79781
-14.1611 91.4625 -11.8103
11.0135 125.172 6.0023
5.85749 124.402 4.10196
-2.4515 81.78 -10.8174
-21.8058 104.123 -10.74
14.6234 77.5418 -6.53757
13.4975 77.3857 -6.94806
10.964 129.066 7.01038
15.8497 83.3084 -4.49397
-14.9541 94.3809 -11.3337
-14.1851 147.175 4.01126
17.4619 118.338 6.01191
-2.91531 137.755 4.94383
19.9871 105.754 3.21043
-12.4675 89.4691 -11.9897
2.39377 80.4611 -9.75037
-12.3353 89.3901 -11.998
-14.4329 93.5936 -11.4776
-0.520299 136.423 5.28424
-11.104 87.9362 -12.029
5.79879 79.2117 -9.03748
6.93439 78.0895 -9.00088
-6.90916 84.4614 -11.6797
14.8561 78.7034 -6.30034
15.3797 78.8986 -6.09257
-13.5997 91.7501 -11.8411
6.38261 78.8558 -9.04499
20.5851 97.9851 1.02583
-24.2133 117.733 -7.88421
13.8594 79.0586 -6.58583
-22.1825 130.356 -3.61845
-6.45855 142.834 5.05004
-16.3708 97.2598 -11.2255
-15.0569 149.47 4.1138
17.4335 86.1514 -3.46906
-4.02588 83.5902 -11.1879
-22.7713 109.909 -9.77015
1.76661 136.347 5.76002
-5.21796 84.14 -11.4635
-21.5332 104.983 -10.8234
-21.5193 133.722 -2.60978
-22.9213 124.384 -5.767
7.32447 79.0447 -8.94476
19.3969 90.545 -1.76889
15.3323 80.9713 -5.82956
2.52504 134.087 5.19452
16.7452 86.012 -3.95029
-22.3988 124.732 -5.59244
-15.7222 149.733 3.72268
8.81868 79.6255 -8.36536
-21.7554 143.4 -0.0495411
11.6909 130.902 7.23118
-21.7752 106.244 -10.6953
-2.15958 82.8295 -11.0308
-25.1581 133.47 -4.0259
-9.52806 143.859 4.0214
19.1383 89.5364 -2.21961
-8.96395 143.725 4.152
-21.1792 107.883 -10.075
19.0708 113.23 4.52442
-6.17449 85.0901 -11.7385
-22.7963 127.852 -4.90498
-21.148 109.044 -9.75428
-23.6937 134.347 -3.38247
-24.1651 138.475 -2.39247
-6.21676 85.3629 -11.763
-20.2903 102.768 -11.3725
-12.9306 143.585 2.67836
-13.1619 143.987 2.67845
-12.4999 92.2469 -11.9094
-5.9167 143.496 4.88968
-21.3138 105.952 -10.8545
-21.0937 109.387 -9.81061
8.93998 123.78 4.05981
15.3458 85.248 -4.89982
-18.4764 99.5661 -11.7876
-19.4829 101.18 -11.6667
19.6608 105.827 2.36928
19.0934 90.0791 -2.33527
-22.3752 125.266 -5.73609
5.17154 128.409 4.10844
-20.8764 134.419 -2.63362
-21.9557 129.418 -4.41528
-20.8843 134.059 -2.74244
9.49452 80.4157 -8.23123
-8.04531 144.356 4.35158
0.343268 82.4351 -10.6659
-22.7274 131.014 -4.2663
-20.498 109.001 -9.84617
14.2163 82.5088 -6.15974
15.0726 82.7973 -5.80134
-23.9968 137.892 -2.73033
10.0448 81.3897 -7.84377
-17.2128 149.369 2.74815
4.20873 131.604 4.61304
-22.1407 125.248 -5.77445
-3.98948 84.9798 -11.4086
17.9504 88.6987 -3.22138
5.03782 81.5336 -9.46458
-1.97713 83.8996 -11.0662
6.20853 81.6938 -9.04679
-21.6357 126.012 -5.41274
20.6775 95.7556 -0.345659
-17.2141 149.348 2.66651
-5.54312 85.5118 -11.816
6.44305 81.8834 -8.98478
8.03367 81.4692 -8.59131
-7.0159 140.407 3.38064
17.8475 88.8243 -3.30306
-21.0281 144.144 -0.117756
-15.2827 98.1002 -11.4334
-19.1487 101.547 -11.7161
-22.2066 111.125 -9.97422
-13.2426 147.474 3.33317
-21.9125 140.064 -1.60728
9.26293 80.5959 -8.50141
-22.801 131.225 -4.45126
-2.10756 84.4857 -11.1213
12.152 85.901 -6.09615
19.3246 106.434 2.10558
0.360838 83.6062 -10.5846
19.6592 110.269 3.30764
-21.758 138.367 -2.11457
9.97293 83.0636 -7.6356
-20.8794 144.301 -0.140309
-20.2138 127.883 -4.64266
-4.2249 144.202 5.21789
10.4055 126.443 4.88583
-21.9854 111.3 -9.98009
7.04724 126.26 3.71679
-22.4705 137.396 -2.72152
-0.3867 138.352 4.72114
-10.9021 91.2087 -12.187
-0.211384 83.8092 -10.841
19.5959 105.477 1.78779
-20.3836 110.222 -9.87712
-16.1427 149.954 2.86012
10.4801 84.228 -7.30585
-20.4612 145.655 0.208595
-0.825446 138.798 4.62049
-24.3862 133.287 -4.63035
-12.0393 94.2649 -11.7854
-17.1528 149.311 2.27868
-20.3676 127.262 -5.07592
18.6842 92.4387 -2.35755
19.4589 103.629 1.09474
-11.0503 144.237 2.80242
-1.85422 84.999 -11.1681
-6.02162 142.26 3.85924
-23.5858 120.523 -8.07421
-22.7544 122.642 -7.20675
3.02951 135.896 4.95371
-19.3891 104.618 -11.2846
-15.2121 150.222 3.11239
15.2017 86.5479 -5.2422
2.58071 84.2466 -10.008
-17.693 100.696 -11.8876
-12.9036 147.519 3.04041
18.53 115.601 4.11595
19.5799 102.123 0.598813
16.4175 119.068 4.40835
10.9151 132.829 6.55679
11.004 130.499 5.90359
-24.2506 133.138 -4.80726
17.142 89.8295 -3.78696
2.99755 84.425 -9.92825
-21.892 126.246 -6.06474
-22.8205 122.256 -7.50849
-18.8118 148.24 1.2
-22.7307 135.227 -3.80504
-20.1853 127.626 -5.1673
17.4796 90.9189 -3.43993
6.91176 127.679 3.63913
-20.1489 145.53 -0.0426164
11.9527 133.274 6.83184
12.903 131.362 6.58939
14.8324 88.1043 -5.18336
-23.2515 120.142 -8.39341
-3.26495 86.0146 -11.6857
19.6724 110.357 2.72521
3.40158 135.863 4.73463
-17.9025 102.853 -11.643
-16.6188 100.397 -11.9331
10.201 127.397 4.49743
17.6019 93.7274 -2.73536
9.21265 82.9879 -8.55385
13.6846 88.7496 -5.4559
19.166 113.747 3.46158
7.46386 84.1235 -8.83586
9.16156 82.9131 -8.63101
-3.64161 86.3552 -11.8193
-11.2239 94.4154 -11.9913
-23.409 133.014 -4.91315
-21.6942 126.361 -6.2815
15.3685 92.1389 -4.04467
2.84484 137.825 4.95838
-19.3851 128.579 -4.91358
4.68134 133.688 4.35806
-21.4607 126.719 -6.15962
18.014 117.175 3.92486
6.63178 128.65 3.50865
-20.8569 127.225 -5.84102
-12.3601 146.007 2.27391
9.98746 84.5872 -8.04636
6.29201 85.2244 -9.07369
-6.91798 89.1156 -12.2596
8.60393 127.23 3.68239
7.72726 127.781 3.54794
19.9259 99.9104 -0.469276
16.9488 120.826 4.54196
-5.3785 87.8596 -12.1426
-12.712 149.247 3.00573
-19.0271 128.532 -5.01151
-21.1586 126.76 -6.21273
7.82847 84.6861 -8.84765
6.50882 85.5315 -9.03707
16.7812 119.912 4.10478
-21.5078 124.841 -6.95147
-21.4562 125.536 -6.73899
-22.3109 135.127 -4.27959
-2.94925 141.071 3.69571
12.7467 88.2294 -6.35867
13.6892 90.1667 -5.49874
-19.1403 128.58 -5.17623
-21.9014 133.088 -4.8014
-21.1698 125.986 -6.59832
-18.9534 146.769 0.0574337
-20.0816 136.88 -3.15306
-17.1306 149.096 1.2985
8.33812 84.7522 -8.84373
-22.5889 120.523 -8.66303
10.8635 132.266 5.55941
10.7717 133.429 5.8591
-22.3781 135.883 -4.20527
-11.7417 96.503 -12.0497
18.8879 96.0783 -2.22505
-5.33794 141.753 2.96836
18.6588 95.9654 -2.38951
-14.2149 100.277 -11.8443
19.1354 104.53 0.193777
-18.1878 147.99 0.506287
-18.6955 111.124 -10.2064
-19.9784 140.304 -2.28919
16.0395 124.7 4.9418
-9.06118 92.9328 -12.3077
-20.2044 136.306 -3.52047
6.27208 86.4147 -9.19775
-21.4515 120.272 -8.52335
-5.47355 88.8156 -12.3362
-21.1695 133.165 -4.75004
5.26945 86.2031 -9.60782
-20.1974 134.258 -4.13579
-19.1555 145.873 -0.496187
-19.1854 127.324 -5.82168
5.59614 86.3477 -9.50382
-20.7079 121.797 -7.90639
-15.3595 103.688 -11.3568
-20.8744 125.127 -7.02063
7.36493 129.363 3.34849
18.6922 113.442 2.45982
-20.1699 120.223 -8.22672
18.1998 114.52 2.5896
1.63123 86.1062 -10.9292
14.4225 91.6193 -5.23153
5.73227 132.526 3.63675
-19.3732 119.814 -8.16643
-20.2274 133.445 -4.57194
3.57755 86.2789 -10.3475
-19.3396 112.551 -10.2836
-19.6014 140.969 -2.24353
19.2956 102.257 -0.693965
-19.5319 120.472 -8.0937
7.28816 87.0751 -8.96832
17.9791 115.804 2.67721
4.6977 86.5343 -10.0101
19.4735 111.733 1.99698
8.72156 85.9119 -8.9118
8.46737 86.2522 -8.91323
-20.5091 114.59 -10.2335
-16.4812 128.554 -4.93614
19.131 102.198 -0.912092
-20.1644 114.249 -10.2693
8.87577 86.1342 -8.88344
-19.4167 124.827 -7.00248
-20.0163 125.901 -6.89457
15.2193 125.856 4.52958
10.8251 86.7175 -8.10368
-13.7248 102.414 -11.5947
10.7594 86.7951 -8.13392
-18.188 145.735 -0.682822
-17.265 128.316 -5.36813
17.9292 113.094 1.70503
7.44266 130.499 3.27361
-18.5843 129.921 -5.3475
14.8962 93.5499 -4.887
-11.1602 146.911 1.90884
-17.5497 129.096 -5.26983
8.78262 86.7195 -8.85442
-0.136867 87.6717 -11.4853
-5.97086 90.8114 -12.5034
-18.8288 130.961 -5.20229
-3.97898 142.761 2.98863
-1.31348 87.9855 -11.8169
-8.40732 93.2915 -12.6164
2.89482 139.877 4.37536
-19.5247 126.343 -6.77863
18.3335 99.6238 -2.13238
-18.8581 117.034 -9.23693
-8.66358 93.8948 -12.5506
-16.0225 106.214 -11.4253
-13.3728 150.942 2.23089
-18.5776 142.435 -1.8984
-17.4877 129.355 -5.28869
8.37228 130.252 3.35547
-18.0574 120.299 -8.08341
-17.661 129.907 -5.20612
-17.5587 109.734 -10.9468
-14.2163 125.322 -5.41248
-19.4361 113.977 -10.3533
3.70457 87.0377 -10.5743
-17.6791 119.991 -8.09901
-8.4947 93.8013 -12.6165
-14.297 122.397 -6.32204
-13.0367 124.069 -5.46021
9.30597 87.6914 -8.61632
2.6542 87.1896 -10.9409
-14.0957 121.969 -6.43524
-7.30226 92.2373 -12.7435
0.668984 87.9751 -11.3815
9.81791 87.93 -8.44731
-17.8795 143.866 -1.44717
13.8896 134.32 6.13047
-16.8185 130.87 -4.83024
-18.3439 133.968 -4.44457
-17.4693 133.853 -4.20699
4.22381 137.862 3.97984
18.0115 96.815 -3.30483
-18.4342 140.264 -2.71061
18.6812 103.424 -1.20446
-13.0342 102.497 -11.7791
5.12042 136.248 3.75733
-17.1189 112.112 -10.3818
-15.3141 121.504 -7.11717
-13.332 122.582 -6.17262
-18.2782 131.487 -5.23879
0.308756 141.601 3.67623
-17.8642 113.118 -10.3765
16.8742 114.121 1.19071
-18.8642 115.635 -9.98362
-18.6932 133.539 -4.80661
15.9351 127.393 4.66589
17.9427 105.279 -1.00923
-16.7514 111.48 -10.5057
-9.71027 97.1553 -12.3181
18.4972 102.382 -1.66257
12.7351 89.1536 -7.32013
-17.8792 135.376 -4.04007
14.3127 130.754 5.0745
-16.5567 111.098 -10.576
-12.7756 127.033 -4.79719
10.5504 134.39 4.87884
-18.2774 139.274 -3.09298
-2.81507 142.394 2.81666
-17.0519 133.238 -4.43803
-17.7104 133.004 -4.73438
-6.60041 92.6541 -12.6718
-10.1289 147.579 1.89316
1.43628 88.434 -11.2862
11.9101 136.933 5.97127
-12.7069 122.481 -6.16787
-0.262843 88.9088 -11.7554
17.6257 107.317 -0.694868
-15.2911 120.87 -7.51412
3.97692 138.887 3.89517
-8.33662 94.9822 -12.6806
-13.2711 103.624 -11.8444
17.6009 100.587 -2.70804
-4.16404 90.9061 -12.5532
6.48124 134.916 3.48551
-17.6882 135.638 -4.20308
17.6188 99.6633 -3.04039
13.2522 136.042 5.91928
-8.05623 95.0973 -12.7161
3.8835 139.412 3.83864
-16.8688 117.738 -9.11029
16.5262 113.851 0.614738
-11.6723 126.765 -4.85439
3.93239 88.1452 -10.8421
-15.7601 109.65 -11.0858
7.1913 132.878 3.01266
7.4684 132.329 2.9439
-13.3875 104.28 -11.887
-2.72826 90.3051 -12.4394
12.6178 138.667 6.36987
13.7841 135.164 5.73947
-10.0707 125.079 -4.90142
3.15644 141.141 3.98533
-10.0064 125.087 -4.90494
-15.9117 117.997 -8.85126
18.8547 111.234 0.495747
9.35626 88.9914 -8.98822
-9.67324 148.041 1.70809
-3.40154 91.0567 -12.5628
-10.3868 123.873 -5.44315
-14.7213 150.029 0.61915
-16.1367 112.932 -10.4568
5.7141 88.5313 -10.3624
13.6357 91.6917 -6.89387
-15.7321 112.208 -10.5952
-12.2053 119.478 -7.38764
14.8731 130.662 4.60157
-17.0331 143.32 -2.1616
15.0197 130.268 4.50852
-11.4926 101.866 -12.2282
-15.4027 117.644 -8.99103
7.14318 88.9577 -9.89558
16.004 114.207 0.192404
17.0215 96.9255 -4.42373
-10.4127 122.336 -6.07708
-10.1068 125.701 -5.02328
-14.3718 118.596 -8.47498
6.08013 136.204 3.18482
16.8813 101.318 -3.28872
17.4697 102.44 -2.7811
18.4248 111.992 0.213072
-16.2931 114.521 -10.3387
6.85617 89.0927 -10.0996
-14.3834 150.026 0.41385
-14.1223 118.269 -8.60611
-11.8772 128.288 -5.02658
15.0373 132.974 5.05074
-14.233 108.194 -11.5538
14.4046 134.51 5.26359
-15.0144 112.089 -10.7207
15.0816 132.653 4.93004
-8.55919 124.741 -5.02884
-14.8577 149.317 -0.0435374
-8.8727 124.146 -5.31248
16.3023 128.427 4.08665
11.8659 90.2939 -8.27369
15.1782 132.001 4.7207
-15.9025 115.859 -10.0019
-11.2889 118.831 -7.701
-14.6799 111.994 -10.7842
16.8408 127.541 3.8974
13.6108 93.7127 -6.8402
-8.4404 124.233 -5.27851
-10.0892 121.112 -6.71023
-3.21449 92.8593 -12.5664
15.263 133.014 4.92137
-16.7994 144.481 -2.21374
-15.3455 113.953 -10.5052
-10.7314 127.944 -5.01522
10.7879 90.2911 -8.80487
-6.66796 96.1031 -12.8155
16.3186 100.992 -3.98014
9.89591 89.9117 -9.23949
16.2637 101.385 -3.89918
-11.9195 118.269 -8.23039
10.2258 134.656 3.64557
-0.137642 91.2859 -12.2004
-13.1207 109.858 -11.1038
-10.8959 118.364 -7.96248
16.7758 99.3572 -4.42148
-10.2162 118.488 -7.71506
-14.5168 115.758 -9.89433
16.7472 113.361 -0.45552
-13.1743 151.798 0.821814
13.358 93.2464 -7.32121
-11.848 117.903 -8.48014
-9.52595 118.603 -7.53111
12.9366 140.028 5.89233
-7.80505 126.048 -4.84681
8.75348 90.322 -9.69156
15.6994 96.4221 -5.70145
2.28236 143.739 3.45717
9.72301 134.182 3.1355
-13.1207 116.677 -9.29648
-11.9504 116.969 -8.85821
-13.9649 112.513 -10.7875
10.7384 136.775 4.1756
-13.3242 113.813 -10.209
-9.38651 120.787 -6.94489
-11.9815 115.083 -9.42694
13.902 138.483 5.67291
-9.32782 119.836 -7.20564
-12.2029 114.837 -9.57105
-12.2262 114.82 -9.58406
2.6361 143.719 3.50745
-13.6657 112.129 -10.8289
9.97291 90.7831 -9.2604
-13.2651 107.868 -11.9232
-12.7022 116.292 -9.33425
-7.96395 126.473 -4.88818
-12.1776 113.108 -10.1008
13.9148 137.928 5.47042
-12.6436 115.521 -9.56876
-12.2833 113.03 -10.1697
-16.9693 137.406 -4.73136
-7.52523 124.916 -5.26625
-12.238 111.287 -10.6963
-11.4358 115.074 -9.36291
-11.8678 111.303 -10.5899
9.66043 90.8866 -9.44629
15.8726 101.905 -4.28255
-8.6399 126.914 -5.10039
6.29256 138.731 3.11822
5.92786 90.6591 -10.7775
-9.26365 117.834 -7.96702
16.2799 105.257 -3.2744
1.17383 144.467 2.99343
-15.1858 147.329 -1.51174
8.79815 91.2806 -9.75879
-5.57541 98.206 -12.5151
8.41304 91.4901 -9.90124
4.53214 91.2974 -11.2235
-12.9094 130.186 -5.80212
7.4891 91.655 -10.2145
9.96175 91.7559 -9.39109
-17.5211 141.25 -4.1567
0.285472 144.722 2.58519
-0.5821 145.628 2.53591
16.353 113.333 -1.20375
-11.0456 109.12 -11.3163
16.0968 99.7363 -5.20407
16.6572 108.114 -2.66382
-12.2472 107.65 -12.1844
15.127 134.536 4.37908
-3.86034 95.6747 -12.9285
-1.97304 93.9338 -12.8335
-8.72317 101.457 -12.8976
-8.01911 117.433 -8.10474
15.3719 103.127 -4.61602
18.0241 125.941 2.77211
-9.0775 116.031 -8.88062
-8.60048 127.968 -5.32002
-10.1283 113.808 -9.8765
-8.96691 101.76 -12.9581
15.7364 136.195 4.90634
-10.1406 109.779 -11.0643
7.32641 138.73 2.8842
15.861 113.722 -1.52582
5.13039 91.9954 -11.2364
-9.78391 113.504 -9.92758
-9.73204 111.246 -10.5718
-9.16098 151.11 1.01011
5.14229 142.587 3.17541
19.3039 128.809 3.81975
19.8731 127.947 3.73188
19.617 128.56 3.79369
-9.3745 113.591 -9.91455
17.5723 125.39 2.21171
16.8618 127.799 2.66509
-8.9677 112.523 -10.0944
17.9249 125.821 2.42027
-11.7512 152.149 0.31512
6.16355 141.624 3.11862
16.0822 136.763 4.94831
11.5076 139.164 4.14954
-8.61018 114.463 -9.47356
15.7792 130.006 2.89039
-14.7497 135.087 -5.59865
-9.27479 110.885 -10.7713
17.1631 127.688 2.60566
10.7627 93.6124 -9.24407
19.1273 125.51 2.58359
2.59326 93.2654 -12.0367
-7.17474 101.087 -12.9836
-7.19513 117.677 -8.25
15.8807 129.24 2.54623
17.6598 131.65 3.81155
10.0639 136.669 2.77631
0.681266 93.7439 -12.5595
19.4569 125.65 2.66072
-6.69635 121.18 -7.11157
-4.47068 99.5211 -12.6188
16.4534 112.929 -1.99084
12.8236 95.4847 -8.17415
10.3811 137.292 2.95728
17.129 131.634 3.50316
13.6407 96.4092 -7.70776
-10.5711 107.805 -12.3119
-15.7082 137.336 -5.53383
9.72396 93.9358 -9.692
18.0247 130.454 3.44724
-7.37698 101.634 -13.0571
3.29486 93.6253 -11.8996
15.4215 115.809 -1.62519
16.9928 116.963 -0.795907
16.1488 132.008 3.23063
-8.5927 111.185 -10.764
16.9542 124.361 1.29198
-14.6353 131.182 -7.01897
4.15279 146.893 3.57489
15.142 98.2393 -6.78928
15.7012 140.298 5.41718
16.8856 136.356 4.65603
-6.27504 121.495 -7.14882
-4.05519 99.9379 -12.6103
6.97353 141.735 2.91811
17.5471 123.756 1.19632
19.1354 124.229 1.84328
-4.58681 100.217 -12.7345
-14.837 132.478 -6.83519
9.21628 94.2483 -9.97453
-7.43717 115.296 -9.3623
15.0699 98.3768 -6.91073
17.9169 122.082 0.788279
18.3928 127.696 2.53265
13.5655 96.6576 -7.919
19.1526 123.986 1.70232
17.6173 122.078 0.64885
-5.89159 101.125 -12.9929
-9.74453 130.408 -5.88856
-5.63198 129.676 -4.7763
-7.28045 115.678 -9.32625
-6.15702 120.442 -7.61146
21.4374 127.698 3.42499
18.0078 123.266 1.02919
-6.10998 125.063 -6.29966
20.1317 120.883 1.01625
11.427 140.595 3.82809
16.9159 138.378 4.97396
16.6386 130.642 2.66016
16.8004 139.086 5.11315
-8.75157 132.002 -5.21713
7.36886 94.4467 -10.7267
17.0043 125.052 1.15603
-7.99326 132.959 -4.70741
17.2038 135.483 4.16989
16.9993 133.746 3.59143
21.4374 118.885 0.746983
7.3012 142.043 2.75563
13.273 96.7759 -8.2671
-13.1641 150.266 -1.56279
14.8421 99.9247 -6.88352
4.60348 148.032 3.54294
-8.71679 104.879 -13.1493
16.7317 109.399 -3.60963
-15.018 137.092 -6.00024
21.6527 128.682 3.49996
-15.753 139.874 -5.45285
17.0402 140.102 5.23292
9.74763 138.968 2.51895
19.7891 131.604 3.66961
21.5962 119.3 0.734891
15.9732 141.425 5.23321
5.03749 145.427 2.82646
-9.40117 108.265 -12.4948
-5.86694 134.628 -3.80585
16.2526 125.144 0.663201
-8.13176 111.075 -11.2819
15.2626 126.007 0.582292
-14.5766 146.378 -3.28058
17.2341 139.651 5.09719
15.1104 105.26 -5.43588
21.326 124.927 2.2076
-6.0743 132.296 -4.58518
22.0263 126.542 2.89177
14.8304 126.746 0.608856
-14.7577 137.499 -5.9338
-9.54762 106.558 -13.1131
17.8895 135.007 3.90884
6.30906 95.4747 -11.1719
20.7294 122.516 1.24624
17.2926 119.197 -0.823855
20.776 123.957 1.66021
4.92112 146.344 2.90772
20.9515 122.186 1.17417
-3.91344 101.555 -12.813
7.88667 95.7615 -10.6462
16.6334 122.383 -0.19935
15.5808 124.502 0.0597053
16.0985 123.876 0.0237735
-15.5195 140.208 -5.57694
15.4134 126.649 0.586843
15.4054 113.461 -3.20078
-8.23705 105.357 -13.2033
-9.21938 107.959 -12.7838
8.33989 96.2539 -10.4445
-13.6603 134.593 -6.63779
17.8014 138.117 4.56675
-9.35402 133.136 -5.70267
-0.12409 97.1875 -13.001
15.3201 107.904 -4.92114
-7.60638 134.262 -4.84571
-6.28463 103.36 -13.2604
14.96 106.663 -5.42641
-14.27 146.682 -3.52694
22.328 124.669 2.02338
17.3787 127.945 1.34884
16.3397 116.709 -2.2041
14.1289 143.31 4.67135
14.1799 102.759 -6.94425
10.3324 140.962 2.73215
6.84651 144.371 2.56909
-12.4768 151.765 -1.59551
-7.47873 111.983 -11.3706
-5.39942 123.699 -7.35516
-13.6707 138.567 -5.806
13.8885 125.266 -0.661607
2.75875 96.0084 -12.6715
16.4403 126.158 0.395659
0.794648 97.3494 -12.9347
-13.3914 134.644 -6.88503
-13.636 138.841 -5.78564
7.27684 96.803 -11.0217
16.8343 126.294 0.515448
-5.06704 124.083 -7.22948
-10.0398 133.045 -6.29038
16.2853 119.856 -1.52478
13.7856 126.87 -0.344264
13.8941 115.926 -3.44156
16.7463 112.291 -3.5556
16.476 117.238 -2.23993
-9.45449 153.081 -0.426912
15.4462 113.255 -3.73516
13.3964 125.624 -0.867234
17.4804 119.105 -1.40612
-7.20547 105.869 -13.2097
4.22559 96.2421 -12.2571
-4.46979 127.76 -6.07168
-5.62158 135.988 -4.09455
21.8002 129.987 3.08033
-3.45879 135.201 -3.64092
17.5451 127.132 0.869685
22.6726 123.901 1.60873
-4.44618 131.918 -4.90659
9.43803 141.263 2.26249
-6.32921 116.55 -9.92923
5.38272 148.762 3.08457
5.96966 97.0785 -11.5548
-2.10995 133.51 -3.76904
-6.38288 116.076 -10.1486
-6.97034 113.486 -11.0814
6.45031 145.946 2.54001
18.3163 118.226 -1.54715
8.72585 142.705 2.33675
6.21473 97.2147 -11.5033
16.805 110.56 -4.27349
-2.82877 128.559 -5.50212
0.881567 98.1974 -12.9869
8.98123 142.565 2.33103
-5.09461 121.783 -8.1913
-3.60133 132.108 -4.76267
-2.04783 127.322 -5.6397
-14.3855 144.637 -4.69386
14.0793 103.063 -7.35004
21.3758 133.605 3.75315
12.9574 144.694 4.18281
-0.997248 133.808 -3.47943
-4.26079 128.915 -5.95084
-6.77336 108.481 -12.6216
-2.78683 135.666 -3.55637
-3.29629 129.261 -5.5652
15.8538 124.724 -0.650236
-6.54027 135.689 -4.79099
-6.6395 114.322 -10.9409
16.9288 125.125 -0.197094
-2.26774 135.344 -3.51162
14.1809 124.218 -1.37077
11.0081 143.197 3.02566
-0.798151 134.187 -3.39214
-11.7855 152.109 -1.85069
16.7618 110.677 -4.44125
-7.34146 135.361 -5.24552
17.113 119.066 -1.96747
14.9544 123.9 -1.31455
2.62858 97.6489 -12.8386
-4.9247 119.172 -9.14994
15.855 121.532 -1.72849
3.74601 97.0963 -12.664
13.2187 115.287 -4.40532
-11.9264 139.128 -5.78016
-1.85213 132.433 -4.43311
18.8435 117.83 -1.93783
0.279663 129.3 -4.69614
20.7365 135.158 3.61307
-1.17533 135.566 -3.39101
-12.2066 137.706 -6.36382
-5.04767 108.672 -12.3482
0.858949 128.399 -4.81175
14.6793 105.626 -6.84261
0.171725 129.796 -4.63921
-13.8024 145.525 -4.6861
10.5103 142.991 2.47607
19.0153 140.343 4.47185
11.7836 99.9396 -9.43891
19.3873 117.84 -1.85537
-0.239045 134.053 -3.59469
17.7842 121.712 -1.274
-0.3425 131.438 -4.38377
13.4388 127.001 -1.19693
-4.83392 112.185 -11.3828
21.5534 135.215 3.77415
-13.0314 149.133 -3.47764
-5.51605 110.229 -12.1771
9.34428 99.7876 -10.3527
15.3172 109.077 -5.78367
-0.593466 116.261 -8.90986
3.8842 97.8946 -12.7143
-4.56991 109.624 -12.1088
-5.97307 114.404 -11.2048
-12.0976 151.394 -2.62844
17.9631 118.68 -2.25185
15.3113 145.446 4.53055
-7.57561 136.415 -5.49024
-5.54342 116.514 -10.5271
-7.55279 136.766 -5.39605
0.273496 131.65 -4.32197
-1.33492 136.943 -3.35565
13.892 145.942 4.16167
21.9145 135.658 3.80957
7.9232 99.0349 -11.2265
-0.790271 114.405 -9.66747
-1.6039 117.719 -8.98542
-13.2891 146.536 -4.5425
-4.53732 106.346 -13.2084
0.29875 125.7 -6.10378
16.0637 119.435 -2.77709
-9.74978 135.101 -6.68635
6.75365 98.6943 -11.7483
-1.90839 138.016 -3.31184
-13.3122 146.898 -4.47661
-3.93828 138.726 -3.78134
0.00722878 123.374 -6.89645
11.9483 145.418 3.2778
14.2316 116.919 -4.15925
6.95009 147.452 2.20467
-3.77814 108.54 -12.4201
6.6425 98.7955 -11.8325
19.9396 138.844 3.93826
14.3819 105.23 -7.48509
-1.94999 124.151 -7.39223
16.4774 144.751 4.47974
13.8225 117.227 -4.27695
20.0577 139.128 4.01169
0.398321 115.996 -8.99431
0.135591 113.887 -9.69104
-0.593553 103.61 -12.8713
-0.459603 136.776 -3.34225
-0.817611 137.244 -3.32748
-0.170864 112.502 -10.1987
-7.42041 137.616 -5.37822
10.2467 100.82 -10.1809
13.3163 102.277 -8.77415
-2.92911 139.285 -3.46314
-1.8545 124.093 -7.46112
17.0342 122.278 -1.85444
4.00097 98.9321 -12.7675
-12.5961 149.046 -3.82367
19.237 142.558 4.63699
-10.5941 140.109 -5.75692
17.4354 121.09 -2.10011
-3.39052 122.307 -8.51787
13.981 117.461 -4.2937
-3.57104 121.973 -8.73525
-7.61415 138.816 -5.23798
14.7239 113.477 -5.23302
-1.31158 105.082 -12.8588
-3.81749 113.068 -11.3932
2.69393 119.939 -7.31743
-1.44967 138.915 -3.24185
-0.0767143 137.086 -3.32137
6.77251 150.501 2.73133
15.8148 123.536 -2.04985
-1.58889 123.104 -7.83141
16.4706 119.487 -3.00521
-2.57017 117.947 -9.62999
0.772879 111.783 -10.309
16.4138 145.448 4.38539
-3.19948 121.319 -8.88869
8.84595 100.724 -10.887
-3.02524 109.711 -12.1863
15.0258 109.802 -6.33293
12.5504 101.081 -9.6323
-5.79608 137.796 -5.09401
-6.79109 139.263 -5.02416
-4.41582 118.35 -10.2405
22.7905 132.739 2.7098
-6.72914 139.219 -5.02376
-1.75809 139.456 -3.34322
-1.27268 113.434 -10.6303
-4.03284 117.228 -10.4422
1.38873 113.378 -9.7896
14.4309 124.65 -2.33092
8.31401 147.025 2.07467
-9.69654 137.042 -6.6481
3.04302 128.332 -5.00775
1.02569 115.519 -9.32916
16.2946 120.036 -3.08206
14.3163 107.074 -7.44174
-3.79511 113.8 -11.4037
3.78708 121.118 -6.85057
0.877479 116.237 -9.23125
-10.8768 141.531 -5.82242
-3.0866 107.011 -13.1837
1.59978 112.691 -10.0418
24.1344 123.69 0.421217
-11.9928 149.89 -3.81918
-3.02598 107.052 -13.1781
13.7656 127.127 -2.02743
8.59478 101.13 -11.1488
16.36 120.941 -2.9714
16.27 121.338 -2.88739
19.6537 142.802 4.33737
-0.991462 111.838 -11.2625
1.57697 109.435 -11.1271
-3.38982 116.219 -10.7998
0.764655 118.294 -8.85831
8.91741 147.189 2.04763
0.983532 116.777 -9.24636
24.5998 122.811 0.143548
14.2514 105.981 -8.04013
14.5224 147.2 3.81742
7.42726 151.616 2.75685
7.01425 100.546 -11.994
7.3399 150.351 2.35739
1.94074 114.389 -9.69105
-2.20443 109.588 -12.4208
22.6172 134.134 2.62032
11.1548 146.281 2.37138
8.81101 101.598 -11.1793
-3.30238 140.636 -3.95165
7.56757 149.33 2.06163
2.70904 101.887 -13.0941
9.57965 147.008 2.03822
-2.04073 111.792 -11.8427
1.39569 134.472 -4.24069
12.9666 147.528 3.23424
15.5825 121.77 -3.29352
-1.82212 140.737 -3.52125
5.65487 102.172 -12.1683
6.45799 100.97 -12.2598
-9.48565 141.404 -5.88224
-5.76859 141.145 -4.75023
15.8438 121.117 -3.46338
6.6474 103.923 -11.3904
-10.5257 143.194 -5.74032
22.9708 127.182 0.554447
5.28042 101.639 -12.5071
7.58554 102.549 -11.5025
15.7234 122.115 -3.30158
-1.68093 108.274 -12.9375
-8.44821 142.74 -5.27562
14.4813 118.703 -4.7083
4.03887 119.911 -7.75434
13.9755 129.037 -1.92213
5.98042 104.962 -11.4263
17.8192 117.687 -3.94519
10.9404 147.159 2.23212
-1.37244 109.83 -12.4554
-1.58521 141.45 -3.48404
0.964047 107.065 -12.5084
6.97772 105.017 -11.143
15.5705 121.933 -3.53935
15.0634 122.32 -3.59528
-9.71745 143.088 -5.72225
2.1567 132.635 -4.88778
13.8248 123.655 -3.6971
0.397478 106.33 -13.0182
19.1322 144.404 3.95357
0.301221 140.438 -3.30379
10.8331 102.897 -10.6346
12.33 148.083 2.76685
24.0849 121.191 -1.10972
17.6899 118.609 -3.92714
5.00089 120.653 -7.46951
-0.491589 141.291 -3.34943
7.29617 105.929 -10.945
15.9116 122.601 -3.39948
15.8533 122.567 -3.42962
14.2356 123.208 -3.78704
-4.97992 154.643 -1.03499
12.8001 104.067 -9.73039
14.1614 108.354 -8.07707
12.8284 116.806 -6.11837
-5.95881 143.171 -4.67802
2.28977 133.083 -4.89853
-2.15379 142.328 -3.70174
3.03415 107.746 -11.9239
2.67369 112.128 -10.795
10.4864 147.923 1.96253
19.0583 144.671 3.81101
17.5394 118.586 -4.14667
-7.04462 143.931 -4.88111
7.83692 105.603 -11.0159
22.4727 139.018 3.29226
12.9966 124.99 -3.7988
10.7774 103.44 -10.6982
-6.71307 144.098 -4.75502
-6.13231 143.745 -4.68083
13.3705 128.058 -2.84137
2.80583 115.169 -9.9693
2.87543 109.754 -11.4961
8.15354 107.086 -10.5493
6.31409 108.102 -10.8563
6.14168 108.196 -10.8862
17.288 146.073 3.55259
6.87958 107.916 -10.7459
16.3558 120.454 -4.10538
23.3525 126.997 0.0278531
8.4344 150.484 1.88523
17.1542 118.321 -4.4921
5.55224 107.293 -11.4213
2.87436 110.551 -11.3611
13.1248 119.457 -5.49543
14.0957 110.71 -7.70143
23.1582 130.305 0.834207
13.7278 148.365 2.93782
14.3059 119.626 -5.10186
14.1038 129.009 -2.48307
4.63449 128.5 -5.70976
8.78161 106.683 -10.6173
15.9167 119.939 -4.51136
4.66641 105.155 -12.4122
9.73242 149.215 1.80415
16.7827 146.931 3.41614
-4.63909 143.661 -4.48221
4.99678 125.577 -6.527
3.36676 104.479 -13.101
-6.1129 144.863 -4.63966
5.51723 120.797 -7.75957
15.0603 122.3 -4.24424
-0.913699 143.12 -3.48033
7.62111 108.229 -10.7187
9.48572 107.484 -10.3357
23.186 130.291 0.637093
11.6693 105.387 -10.2434
12.0616 105.406 -10.1185
5.12043 107.829 -11.681
14.0182 129.183 -2.68579
10.634 105.218 -10.6467
-1.88034 143.641 -3.77155
22.8054 138.609 2.79225
4.74876 119.841 -8.44115
14.5724 112.803 -7.26786
15.0833 122.27 -4.39751
-9.90016 149.829 -4.63715
-6.78289 145.475 -4.89036
14.0316 129.204 -2.80102
4.7449 107.608 -12.019
13.8511 110.308 -8.29351
13.5137 149.054 2.6781
16.7059 116.912 -5.49386
13.918 110.869 -8.15433
2.13722 138.808 -3.99705
-5.09977 153.744 -2.07625
11.1833 106.157 -10.4128
26.2316 124.989 -0.144907
23.0941 137.24 2.33355
4.18955 106.272 -12.6671
16.5732 117.328 -5.48542
-2.42479 144.416 -3.91547
26.6669 122.995 -0.612447
15.9986 121.273 -4.59329
17.6899 146.439 3.13653
23.5336 129.441 0.140185
23.4354 128.835 -0.076195
0.878997 143.547 -3.20785
14.3603 122.399 -4.89238
11.9375 117.286 -7.14395
23.4011 130.844 0.457037
-9.85111 148.277 -5.36095
-9.88724 148.139 -5.4131
2.88713 135.204 -5.02037
11.0805 150.179 1.91742
-8.39742 151.064 -4.1694
13.0206 114.919 -7.57355
17.3059 146.975 2.97202
7.18261 109.548 -11.0338
23.8158 129.063 -0.0824957
26.6524 125.257 -0.260392
16.0527 123.553 -4.19013
-7.54736 146.517 -5.29662
-2.5334 145.533 -3.95503
3.67462 116.688 -10.196
9.9657 109.233 -10.2948
25.5937 124.634 -0.815505
-8.83112 147.48 -5.46307
10.0834 109.269 -10.2604
27.0804 123.556 -0.687365
-6.65482 152.501 -3.38677
-2.21862 145.838 -3.87841
-5.59026 152.902 -2.9695
13.0541 108.106 -9.73547
-0.661283 145.373 -3.5858
2.75614 140.425 -3.91531
8.91035 152.7 1.58972
-4.92837 152.374 -3.01829
8.21432 116.554 -9.07187
16.0194 123.846 -4.51713
13.6598 121.178 -6.04869
16.1449 119.828 -5.64684
23.5939 139.364 2.35503
-4.53113 151.78 -3.23636
3.05724 136.989 -5.00636
-5.86059 148.946 -4.49992
-6.53329 150.722 -4.23785
-6.11386 149.227 -4.53739
5.37806 130.124 -6.28161
15.0377 128.829 -3.52789
6.22796 120.595 -8.75708
8.9862 115.373 -9.35668
13.2569 127.61 -4.4708
8.53007 117.223 -9.00394
5.03581 117.844 -9.9907
6.51755 116.564 -9.87821
5.55248 123.263 -8.28723
-0.106426 146.543 -3.5124
13.4056 110.147 -9.5396
4.47625 132.719 -5.98377
4.75047 115.706 -10.7882
-1.03766 147.218 -3.65528
18.573 146.66 2.55226
3.97303 134.337 -5.71613
24.8702 129.082 -0.439932
3.28784 141.089 -4.02397
27.2929 126.437 -0.430547
14.267 123.072 -5.66108
7.55811 120.252 -8.66079
-3.01524 149.597 -3.72271
8.68929 118.256 -8.94661
11.4805 116.859 -8.44888
13.2927 110.699 -9.63133
12.3176 115.687 -8.52129
0.659762 146.921 -3.39133
-2.72806 150.059 -3.59759
8.06174 110.946 -11.2844
9.73505 110.619 -10.8369
-1.62628 154.346 -2.02311
19.9313 145.615 2.47944
13.966 113.513 -8.64518
-2.88809 152.142 -3.0853
13.0166 122.474 -6.4323
7.25217 114.651 -10.5424
-0.386056 148 -3.56767
3.80741 139.262 -4.744
3.6067 142.534 -3.89369
15.9128 118.546 -6.81627
15.5324 149.511 1.88329
13.3205 112.431 -9.46177
6.41604 127.25 -7.51497
15.3507 121.958 -6.1466
4.08226 138.046 -5.21796
-0.752802 153.827 -2.29521
2.50914 146.842 -3.23615
6.85308 155.101 0.475537
12.3257 111.071 -10.3634
17.578 118.241 -6.64608
8.87253 113.262 -10.9017
7.38027 112.401 -11.6615
26.0567 130.593 -0.409557
8.30415 112.948 -11.2358
1.54696 148.175 -3.35939
11.4653 112.437 -10.3648
8.30648 154.741 0.709241
28.2947 126.067 -1.00498
10.1497 114.933 -10.089
25.5039 131.716 -0.305055
15.7869 126.113 -5.08393
6.02996 132.476 -6.44962
11.1924 113.15 -10.3612
16.1909 125.65 -5.1659
11.4728 116.837 -9.23075
10.8298 112.319 -10.7588
4.97807 134.833 -6.25261
9.57882 113.711 -10.8166
13.7717 127.89 -5.42568
4.55012 138.39 -5.43204
5.09095 134.728 -6.3086
27.8729 124.233 -1.91327
19.9023 146.359 1.82193
0.230401 152.754 -2.75262
14.0498 128.237 -5.2963
4.63926 140.345 -4.88926
25.1634 135.324 0.321529
14.4538 128.23 -5.18639
11.5437 152.753 0.879373
17.574 147.834 1.42099
3.67153 147.005 -3.33325
4.60796 142.304 -4.41627
25.1256 135.72 0.350039
1.75147 149.875 -3.19666
10.3452 114.167 -10.6242
12.6209 115.646 -9.49483
6.5454 126.007 -8.50654
16.1199 121.062 -6.8244
6.86668 130.579 -7.11529
14.8834 124.412 -6.28709
13.5487 128.144 -5.69387
5.29629 135.557 -6.28526
10.965 153.186 0.536184
6.55409 123.327 -9.44452
2.18852 153.625 -2.21402
4.83079 142.746 -4.47913
6.91722 131.792 -6.9572
4.82999 137.811 -5.95421
4.70955 144.396 -4.12829
27.5085 130.548 -0.707094
3.97684 148.59 -3.22184
11.0182 152.774 0.226613
15.7669 128.017 -5.32068
17.6355 119.055 -7.3068
16.1108 128.214 -5.20775
23.3371 140.952 0.775573
15.5888 122.149 -7.13935
27.7099 129.278 -1.17075
15.458 127.975 -5.52615
3.30115 150.471 -3.04976
5.60421 155.467 -0.900985
23.5019 136.768 -0.473969
3.1842 151.201 -2.96609
26.4847 133.429 -0.492024
25.1238 133.967 -0.780424
8.03049 153.992 -0.63358
12.5689 114.98 -10.3591
12.3406 115.361 -10.3315
14.3654 149.355 0.0363654
14.822 130.333 -5.27823
11.9623 116.261 -10.2484
13.7634 127.283 -6.52365
11.5554 151.996 -0.193462
5.37068 141.831 -5.11649
13.1886 127.8 -6.6028
11.1648 124.108 -8.32791
13.2775 149.739 -0.309641
22.955 141.681 0.522206
10.367 152.29 -0.556579
5.11952 138.889 -6.09516
10.8252 151.995 -0.494599
11.4347 123.425 -8.48243
6.6475 134.857 -6.77144
15.8782 121.604 -7.59006
14.4825 130.359 -5.54029
4.88044 148.308 -3.53257
14.1833 126.791 -6.66958
5.36227 143.235 -4.83809
4.92324 148.118 -3.58827
16.2512 120.31 -7.86747
24.4495 133.506 -1.4396
15.602 122.364 -7.51378
14.9626 130.086 -5.56426
21.2421 144.835 0.628632
11.2865 150.885 -0.938784
7.15828 123.414 -10.1404
7.71477 128.192 -8.64228
7.1161 123.791 -10.1008
29.0049 125.865 -2.40029
15.8343 128.46 -5.94947
10.0533 117.169 -11.0642
28.2239 129.31 -1.70125
5.36639 138.306 -6.57877
15.5648 148.361 -0.418614
5.56198 145.579 -4.47123
15.9234 122.458 -7.7289
19.9044 146.096 0.318359
6.70328 153.739 -1.78513
4.46497 152.593 -2.88955
5.88523 153.396 -2.26271
10.262 151.434 -1.40338
16.1397 146.855 -0.811833
23.6875 134.052 -2.0279
7.49793 132.461 -7.74815
13.772 129.709 -6.49858
17.421 147.752 -0.153226
19.1442 146.682 0.0931356
15.2476 128.982 -6.28302
18.038 146.412 -0.465335
11.2429 119.794 -10.2882
7.54335 126.354 -9.64973
14.5019 129.798 -6.45701
18.7974 146.218 -0.366166
13.6295 130.486 -6.5761
17.9084 145.971 -0.786397
14.1594 128.531 -7.02745
14.561 147.023 -1.61926
10.3192 150.866 -1.93019
12.9389 125.906 -8.2662
7.83683 124.028 -10.5118
7.77402 131.704 -8.34178
20.4523 145.068 -0.442769
14.3869 146.752 -1.93242
19.6469 145.154 -0.747225
16.4786 124.366 -7.72742
8.11434 127.833 -9.45952
11.9224 123.046 -9.61244
9.33594 121.024 -11.0563
16.4071 123.357 -8.10819
15.2129 129.177 -6.85462
15.6094 125.616 -7.76228
6.65644 152.742 -2.93061
10.3121 121.783 -10.604
22.9829 139.442 -1.46625
6.43913 138.171 -7.20313
11.3682 121.728 -10.3229
10.1117 121.609 -10.7674
9.5992 120.909 -11.1436
10.3554 121.43 -10.8019
6.6114 141.851 -6.20194
21.6287 142.538 -1.14935
6.57809 146.545 -4.89122
23.5752 135.268 -2.60141
6.83185 149.619 -3.93343
24.4546 130.712 -3.64394
13.9939 131.705 -6.75839
8.16479 131.928 -8.59447
6.6958 147.008 -4.78469
11.0679 149.529 -2.67222
19.8062 144.501 -1.28091
28.6969 126.683 -3.4956
14.6871 133.329 -6.14438
15.0859 132.015 -6.39707
15.6911 138.314 -4.43563
17.7745 145.155 -1.80214
7.06101 149.614 -4.02189
8.53762 133.955 -8.03908
10.1925 150.117 -2.89485
22.1388 141.227 -1.56857
13.8321 147.079 -2.64965
20.4922 144.158 -1.34575
23.448 133.963 -3.32407
16.2338 131.581 -6.43923
16.5511 122.855 -8.83278
15.5429 142.94 -3.41652
8.68425 132.915 -8.51759
11.3739 123.023 -10.484
15.5158 137.957 -4.86915
16.6527 142.635 -3.17262
13.0938 148.921 -2.53157
23.0113 138.245 -2.38278
17.1976 121.264 -9.182
29.6794 124.763 -4.14901
13.6595 146.763 -3.06214
20.4483 143.667 -1.75295
18.6554 120.91 -8.85344
7.51779 150.002 -4.1545
27.1638 130.231 -3.43199
17.038 143.693 -2.96016
7.54699 150.982 -3.97873
8.5817 131.129 -9.35301
23.9788 129.053 -4.94955
15.6958 135.341 -5.87016
9.29354 124.324 -11.1241
17.3533 144.955 -2.60713
20.4827 141.401 -2.61481
15.3111 135.727 -5.9583
9.62238 150.157 -3.69765
13.3601 147.958 -3.2141
7.85982 138.432 -7.73131
23.3532 133.474 -4.12316
20.2515 141.259 -2.94812
15.0649 142.355 -4.35733
8.89278 150.815 -3.95113
8.99301 134.801 -8.52889
9.25177 125.796 -11.0307
13.15 130.083 -8.5403
14.7548 132.687 -7.30959
14.7619 142.643 -4.45945
16.2008 135.309 -6.09386
13.8176 144.109 -4.35095
7.63821 141.856 -7.03542
7.35689 140.051 -7.68649
17.0211 122.939 -9.45948
10.2381 124.538 -11.2272
16.6146 125.866 -8.80857
28.8501 126.808 -4.56948
