ply
format ascii 1.0
comment Created by Open3D
element vertex 1926
property double x
property double y
property double z
end_header
-26.7945 125.793 -0.0969342
-6.61211 102.036 3.83495
-3.3161 110.117 -11.5243
5.48397 87.9938 5.98547
-23.0202 118.909 4.06743
-21.6237 124.088 -4.79794
-13.324 107.274 6.27953
-23.9049 123.742 -1.1
-21.0657 116.415 4.81707
-6.76356 112.24 -9.38933
-18.1285 111.507 7.40375
-13.4038 118.751 -8.80768
-26.1594 125.837 -0.605315
15.6742 76.5847 7.57448
-23.9629 121.027 2.86057
-6.0187 111.991 -9.85366
-26.4104 125.608 0.257963
-11.293 106.337 5.18412
-0.339743 107.715 -11.828
6.65977 97.1097 -7.28666
-23.4535 119.977 3.7927
-29.0245 129.314 -0.99193
14.5571 78.2241 7.21024
-28.0364 128.435 -1.15351
-26.5314 124.998 1.40462
0.446401 106.93 -11.7143
-2.00888 101.163 -0.524874
-22.9759 119.098 4.50954
-4.06538 101.156 2.41542
0.240095 96.8201 2.28097
6.4652 98.0357 -7.97736
3.69282 103.423 -11.3527
-28.6791 129.273 -1.13757
-25.9712 125.515 0.226724
2.2683 92.8685 4.96732
-1.03324 100.709 -0.961318
-24.7775 126.714 -2.95761
-7.24706 103.591 3.79815
5.45106 88.7774 6.09296
9.26833 92.5643 -4.2693
0.999832 106.395 -11.3733
-24.757 125.491 -1.17465
17.7488 76.1293 6.18722
-30.4159 126.553 5.29399
1.18037 96.855 1.39757
-23.2231 124.374 -1.71212
-2.64541 101.35 0.715512
-25.9441 125.452 0.66044
-12.8886 107.951 6.08528
14.9184 81.3771 3.22603
-20.1667 123.954 -5.28213
5.57081 101.427 -10.5963
-20.935 124.808 -5.1492
9.67804 83.375 8.05458
-25.6695 127.142 -1.65205
13.8139 84.1942 1.37959
-25.1479 125.306 0.278301
0.203252 95.3086 5.42784
3.22689 92.1168 5.53808
-1.71845 101.772 -0.514834
-23.1695 120.578 3.98528
-20.0681 116.391 5.31956
7.38905 97.2672 -7.06081
6.97342 86.375 8.15193
-25.6801 124.974 1.62439
-28.7039 130.497 -1.5409
-30.3021 131.229 -0.279345
-7.47135 104.593 3.85089
-25.7968 128.093 -2.27293
-17.1905 112.09 7.28687
-8.71042 114.819 -8.08673
0.429809 97.3884 2.8017
-24.8782 125.432 0.266709
4.52947 103.353 -10.8298
-22.896 120.136 4.6807
-18.8572 124.072 -6.16969
-23.0698 126.315 -3.33571
9.77493 92.8453 -3.92214
-2.43724 101.92 0.83355
-24.6825 125.369 0.233034
6.55239 87.7497 7.4908
-4.70605 102.344 3.54816
-4.28065 101.909 3.54974
-24.268 126.48 -1.71485
-20.1959 125.009 -5.38028
12.7745 87.7586 -1.06749
6.7553 87.408 7.76936
-29.422 126.518 5.42661
7.06441 99.6762 -9.09914
17.8802 76.8784 6.61766
4.48053 103.671 -10.7557
-3.69459 102.004 2.81487
-26.2295 125.058 3.12156
-6.80986 113.657 -8.42132
9.97685 92.9123 -3.80419
-22.6458 125.759 -2.6337
1.55785 97.8402 1.33374
6.78533 100.75 -9.74894
-27.5254 130.406 -1.93436
5.04593 103.06 -10.3594
12.3323 81.787 8.18843
-9.31323 106.854 4.54032
7.87674 98.1232 -7.52233
-3.98616 102.213 3.44112
-33.6279 131.099 5.75648
-30.8282 127.927 6.13718
-13.7842 120.538 -7.55607
-29.4252 126.834 5.70445
-10.1703 117.43 -8.32812
-0.688587 102.273 -1.07106
-11.4186 108.607 5.34859
-31.9661 132.312 2.0293
-24.5902 123.513 3.63205
2.02071 94.369 5.87479
14.2433 85.0076 1.54947
11.8952 90.5827 -2.67777
-17.3518 113.181 7.54743
6.18568 101.81 -9.78342
-24.2812 126.483 -0.669853
-33.5528 132.126 4.60591
8.20629 97.703 -7.03486
-24.839 128.921 -3.09021
13.4501 86.8697 0.297111
13.1662 87.497 -0.149374
-8.71533 106.72 4.39034
-13.7024 120.686 -7.42211
-19.6183 124.71 -4.56139
-22.3365 126.074 -2.57617
-23.5634 127.473 -2.72888
-4.77917 103.704 3.15296
-24.461 124.648 2.337
10.2498 93.2797 -3.63847
-23.1795 126.773 -2.21993
14.6834 84.5299 2.01251
2.40066 98.2577 0.631068
-0.396594 102.454 -1.12358
-6.26184 113.954 -8.43089
-26.2961 129.919 -2.07238
-23.2273 127.424 -2.84935
-25.3957 125.356 2.93944
9.84461 84.6969 8.6792
-22.2898 126.384 -2.64163
8.27824 98.6745 -7.8088
-4.45166 113.529 -10.101
15.4522 83.0082 3.29524
-22.0829 126.006 -2.39916
-17.2706 113.603 7.62745
-19.5502 124.885 -4.25541
-6.66498 114.438 -8.04349
16.0324 81.7236 4.41627
-32.4391 132.977 2.81108
-22.359 126.882 -2.95044
-7.90958 106.674 4.21197
-12.4152 109.831 6.21837
10.3194 84.5522 8.6914
-19.559 125.739 -5.11638
12.7692 89.2752 -0.962506
1.67999 98.4881 2.07752
-18.0077 125.146 -6.40988
9.23178 96.2032 -5.30253
-16.2892 123.882 -7.05451
-9.01654 107.73 4.56644
3.26126 93.6479 6.50427
0.709037 96.9942 5.61714
7.48455 100.983 -9.00255
-23.605 128.027 -2.19677
10.7056 84.4742 8.71889
1.55751 95.5413 6.55304
7.52524 87.8625 8.61205
1.43923 95.6875 6.58072
-22.4649 126.778 -2.01541
1.57443 98.6015 2.55684
-32.4735 131.347 5.79631
-25.8133 125.278 4.72165
-19.808 117.552 6.80096
-14.8784 123.028 -7.26667
-12.6706 120.624 -7.08434
15.5572 84.107 2.92643
-8.98981 108.205 4.61288
-16.4258 124.543 -7.00659
0.714687 102.882 -1.64846
-23.2941 127.868 -1.89705
-12.1694 120.314 -7.16323
1.14244 109.443 -10.9875
7.55312 88.2803 8.59418
0.777308 98.1162 4.79928
-19.8289 126.504 -4.70573
8.62057 100.089 -8.6723
1.62061 96.0374 6.52184
-11.7568 120.1 -7.21465
2.55767 100.651 -0.941079
-32.2783 132.249 5.00143
-26.4905 131.729 -2.30879
-20.2324 118.273 7.09383
-24.4369 124.869 4.1137
10.0605 85.6787 8.91534
-29.2034 128.137 6.39011
-21.729 120.83 5.93408
-4.23397 105.143 2.86422
4.00549 93.4926 7.2203
-2.18815 103.609 2.25051
2.73996 108.077 -10.5636
-20.4689 119.165 6.71938
-22.0513 127.874 -2.76928
15.0763 86.2519 1.69923
-23.2985 124.275 3.85582
-22.2508 128.226 -2.86717
8.87137 87.3112 8.95271
1.39558 98.8559 3.83385
-19.2776 117.404 7.59442
1.0066 103.334 -1.60754
-6.22503 115.342 -7.66904
2.887 100.9 -0.790108
-15.6338 124.502 -6.76221
-13.8709 112.344 7.17353
-8.92789 117.83 -7.01029
-7.28391 107.715 4.29895
1.18165 97.8686 5.80216
-1.05643 112.159 -10.2299
-18.8455 117.17 7.73731
-18.6433 126.102 -4.52939
6.76363 102.998 -8.68771
14.6677 87.676 0.953767
-23.0861 124.207 4.30156
-9.07755 118.227 -7.04237
-20.6525 127.429 -3.31543
-7.20776 116.348 -7.02596
2.42458 99.6397 2.06838
17.7699 80.9968 5.85129
4.13779 93.8358 7.57666
3.12523 95.0496 7.35292
-4.57717 106.05 3.30488
17.3453 80.5824 7.12777
-18.4067 116.987 7.81345
-17.0776 126.172 -6.30889
-20.1244 127.734 -4.15399
0.0835036 104.08 -0.368858
7.03231 103.029 -8.42324
-29.7387 129.862 6.53186
3.91152 100.519 -0.713688
-12.1033 111.742 6.45738
13.0714 91.5859 -1.36168
10.3352 97.2114 -4.97433
-0.921887 112.649 -10.0856
3.97752 107.165 -9.50839
0.680128 111.259 -10.4165
7.30093 102.836 -8.26213
15.4146 82.243 8.15231
1.21046 104.184 -1.58393
12.9576 84.4318 8.64974
-14.9585 124.346 -6.22228
-3.59209 105.757 3.00695
-23.2823 125.486 3.82377
-20.9409 121.465 5.98978
-31.54 132.677 5.6526
7.14791 90.4982 8.65843
3.31796 95.6158 7.17851
1.36151 98.6499 5.88982
17.3828 81.2094 7.09928
-12.1098 121.647 -6.24598
-9.2752 110.279 5.10913
18.1987 81.0059 6.35978
-31.8849 134.162 4.48289
-10.9533 120.842 -6.62203
-16.3942 115.803 7.71693
2.68002 99.9806 2.61409
-28.4764 133.183 1.32357
-23.7127 125.811 4.62399
-1.54103 104.831 2.11803
-29.7906 130.769 6.48072
-21.4018 122.88 5.46644
5.61459 105.537 -8.65435
5.94622 105.112 -8.47864
13.6492 84.4692 8.57605
-21.1134 129.145 -3.16573
-22.2985 130.161 -2.81878
-25.109 132.449 -1.95509
15.4549 88.3077 1.15111
-20.212 128.808 -3.70849
-16.9584 116.775 7.97187
-13.537 113.926 7.19516
-16.0046 116.373 7.55926
-22.1027 125.021 4.41301
-17.0565 127.457 -5.80821
-24.5625 126.803 5.51546
15.2457 89.458 0.539598
-29.5609 131.33 6.45952
4.11658 96.0212 7.19103
-31.3426 135.196 4.05539
7.07192 91.9261 8.91082
6.16855 105.632 -8.03356
2.88725 109.691 -8.91448
-16.8443 127.784 -5.83206
-13.583 124.207 -5.46656
-16.8619 127.51 -5.34584
-11.1992 122.107 -5.89316
5.65234 106.404 -8.14304
-9.31333 120.828 -6.73458
8.4279 90.3359 9.61388
-6.83547 118.007 -6.34948
-24.4446 127.248 5.71737
-17.2593 127.947 -5.17314
14.7523 91.6493 -0.678118
-9.08976 111.809 5.30821
2.32996 110.59 -8.86043
16.552 83.5116 7.83314
-20.3451 130.582 -4.20822
-0.12318 113.829 -9.72721
-8.80314 120.347 -6.36622
-11.2509 122.445 -5.78192
-0.494924 106.558 0.643932
16.4501 86.3748 4.34758
18.3593 82.9429 6.33492
-20.6701 123.971 5.37631
-4.89584 108.577 4.21083
-6.60064 110.059 4.58495
15.3976 90.4652 0.424743
2.86289 100.546 4.269
-25.2113 132.984 -0.335423
2.36115 110.763 -8.65624
7.09777 92.9617 8.74485
8.58621 103.371 -7.26151
-11.9056 114.224 6.57101
-26.5102 133.583 0.872939
0.774952 107.097 -1.37719
3.69087 97.5656 7.3918
-12.8279 124.179 -5.39145
11.4747 98.7936 -4.98608
3.76283 103.894 -1.07557
-26.4528 133.668 0.93712
-18.5552 120.991 7.03845
18.0577 83.5315 6.63489
9.78343 89.787 9.73945
1.43568 106.776 -1.45695
-8.64823 112.224 5.25555
0.641111 113.392 -9.14086
17.346 85.3938 5.2969
-27.7121 131.074 6.42616
-17.295 128.912 -5.08386
-19.9498 129.559 -2.26381
2.80878 105.424 -1.38956
6.05266 94.8572 8.29985
-14.9924 117.36 7.26271
17.6503 84.9572 5.57261
-16.081 128.119 -5.57881
13.2973 95.9658 -2.94193
-16.0007 128.342 -5.76694
-7.42726 111.528 4.92954
16.258 88.6335 2.83797
-1.39053 107.535 1.93465
4.29558 101.293 2.46313
-18.6621 129.638 -3.75368
10.5364 102.222 -7.3904
16.2993 88.4015 3.19801
-30.208 135.787 4.06315
-12.5367 124.992 -5.84476
-0.418229 107.728 0.542559
-29.6875 136.013 3.14397
2.81049 99.9105 6.58563
-12.9512 125.813 -6.33792
-24.574 133.304 -0.26636
-7.26438 111.573 4.93367
3.85724 109.61 -7.83015
3.45436 101.044 4.32279
16.1038 85.2727 7.96688
-27.3789 131.438 6.27119
-15.3769 127.99 -5.72799
0.335976 108.035 -0.672964
-15.8089 118.471 7.70024
-16.2369 128.764 -5.50499
-8.95354 113.014 5.56939
-25.2436 129.087 6.601
13.6262 87.2132 8.952
1.59751 107.355 -1.38208
2.74543 106.212 -1.43543
-4.0005 109.059 4.1229
16.3833 88.5661 3.38559
4.8043 102.678 0.502526
-2.65074 117.265 -8.73645
-21.6897 127.532 3.87212
13.1966 97.1349 -3.62904
4.66275 97.2815 8.06415
-20.8145 126.135 4.73563
-16.0583 118.925 7.84142
-28.7556 135.658 2.99126
-16.0788 118.999 7.85706
-1.64512 108.314 2.21639
17.0086 87.1417 4.81686
-3.84471 109.239 4.12187
-20.5532 126.079 4.68263
-19.4832 130.558 -2.80579
-29.6826 136.115 3.8871
13.1723 87.983 9.13156
-13.7545 127.563 -6.64969
-27.9548 133.047 5.67581
-12.1593 125.462 -5.99469
16.8843 87.5731 4.65955
-9.99209 122.875 -5.46265
11.7725 101.202 -6.50022
4.8976 103.041 0.563954
-9.35293 113.785 5.90064
7.89677 93.6261 9.05621
-18.3494 122.037 7.30395
3.37996 99.4836 7.48772
-28.8217 134.362 5.33801
-28.5264 134.173 5.26897
-9.1184 113.762 5.86727
3.11707 101.076 5.94175
-1.98018 117.321 -8.75367
-2.57553 117.855 -8.57814
14.4708 87.3749 8.74352
16.4157 90.1918 2.2689
6.51083 107.271 -6.9188
-3.12537 109.23 3.88571
-2.64661 109.18 3.32623
12.58 99.819 -5.09464
15.018 94.4883 -1.2177
-24.6444 134.116 0.644497
10.9475 90.6044 9.75689
14.0684 96.6476 -2.64979
-11.2792 125.001 -5.5366
-23.311 133.918 -0.823579
-3.33581 109.645 4.11401
-13.0744 127.928 -6.85896
8.00938 94.3581 9.19568
17.0411 88.4579 4.67442
9.97006 91.8251 10.0435
-18.0519 124.925 4.4551
1.52863 109.068 -1.27593
-24.964 134.582 1.20385
-0.703634 109.701 0.986626
12.23 102.388 -7.03129
14.1734 97.4048 -3.02564
-22.1435 133.801 -1.46339
8.98503 105.317 -6.26188
-14.1892 119.166 7.28927
-14.9774 130.43 -6.73329
4.96899 104.961 -0.181224
-10.0475 124.432 -5.48957
-2.67154 110.316 3.2616
15.842 94.0982 -0.564773
-26.8595 135.649 2.87154
-21.1941 128.47 4.65665
-21.76 133.758 -1.4636
16.6593 90.7448 3.08471
8.76597 105.813 -6.1323
-19.6291 132.415 -2.41623
-24.5151 130.868 6.43404
-28.4926 136.051 5.04263
5.62383 97.9037 8.99034
-21.7709 134.016 -1.4874
-19.851 133.659 -3.62353
-10.8871 126.032 -5.79694
-14.7135 130.891 -6.96388
-0.694546 117.24 -8.03186
-7.99386 122.967 -5.5691
1.12643 114.906 -7.36452
-8.46248 114.788 6.1408
4.29174 101.943 5.71926
17.9269 88.1045 5.42183
-19.8646 128.715 3.38654
16.5168 91.7599 2.62327
-19.1388 127.871 3.5738
-0.179424 116.759 -7.72518
4.89785 99.7376 8.09872
-29.1752 137.419 4.77302
-20.4336 134.616 -3.53857
-22.7395 135.388 -1.32702
-19.8293 133.577 -2.84106
7.15537 108.082 -5.93573
-23.1719 135.903 -1.23216
5.15621 105.801 0.000738042
14.441 89.5057 9.01518
5.12826 99.6932 8.24814
-24.4002 135.745 0.793999
-23.4793 136.277 -1.16977
-11.082 127.004 -5.88467
16.3027 94.0106 0.451723
-14.2821 120.467 7.42555
-19.0254 132.135 -1.61059
-1.54284 118.865 -8.00178
15.2547 96.9131 -1.77371
7.80324 107.657 -5.7415
-20.5257 129.138 4.70202
-24.3876 135.408 1.66989
-16.501 131.874 -4.45718
5.36147 105.811 0.288484
-7.20211 114.719 5.89817
0.384082 116.679 -7.06904
-10.0003 126.304 -5.53335
5.6777 103.362 3.54472
11.096 92.9541 10.007
-9.33214 116.537 6.67683
3.16172 113.242 -6.20837
5.55315 103.174 4.00311
-27.5822 136.727 4.90612
6.71909 109.317 -5.82195
-27.375 137.419 3.78951
8.50526 107.395 -5.6112
7.32151 108.622 -5.59424
18.0927 88.658 6.34924
-19.22 129.182 3.68213
17.1445 90.8827 4.71353
-19.1258 129.154 3.62363
-2.11041 112.372 2.65015
-17.9523 133.084 -3.10682
14.1942 101.205 -4.86376
-9.29395 116.833 6.72728
-22.3308 131.049 5.73653
-7.05698 115.132 5.94425
14.139 101.533 -5.14222
-21.3441 130.755 4.82627
-9.98195 117.52 6.95699
17.4621 90.7165 4.94477
13.1264 91.7404 9.6033
16.5622 93.2098 2.88858
-12.7812 120.312 7.23224
4.61854 102.708 6.76911
13.3949 103.315 -6.1997
-12.8343 131.365 -7.45932
8.80962 107.541 -5.46667
15.4291 98.5493 -2.53783
-8.50625 125.03 -4.85122
-14.9042 131.761 -5.01167
-18.522 133.845 -2.79285
9.05387 95.8567 10.0744
-15.8265 132.151 -4.13384
12.4603 104.279 -5.90255
-11.7431 129.25 -5.83677
1.60274 115.779 -6.21486
-7.82201 116.212 6.28259
-13.6906 121.576 7.2415
-11.6987 129.279 -5.81025
-11.6168 119.546 7.14123
-21.9008 131.378 5.52846
4.24579 109.17 -0.892066
-13.936 121.87 7.27616
6.20349 104.435 2.80819
15.3988 99.2448 -2.89593
6.98451 98.7783 9.52559
-2.26609 113.162 3.12584
-25.6641 137.195 3.36506
-24.6424 134.764 5.21962
-23.0233 132.584 5.95711
-17.8901 128.663 4.10677
-10.1426 118.672 6.94637
17.5916 91.5003 4.98697
17.3713 92.0598 4.64741
-16.3869 126.359 5.49679
-19.0526 134.259 -1.40312
2.88522 111.482 -1.22992
-16.6134 127.637 4.11707
-26.4838 137.869 4.08087
-2.92933 113.475 4.25098
5.43493 101.974 8.14181
15.671 99.7439 -2.88667
-2.47046 121.297 -6.67049
7.75449 98.2925 10.1089
-22.7197 133.022 5.73706
-23.1621 137.547 0.313378
10.1141 107.338 -5.23352
-24.2098 137.924 1.37908
-24.1121 135.005 5.22536
-7.15146 116.875 6.06157
10.8724 95.1822 10.2227
17.5418 92.4453 4.70954
-0.994559 120.351 -6.9946
-23.8933 137.969 1.26343
-15.5254 125.33 6.65449
-21.2293 137.351 -1.57117
18.376 91.1463 5.56865
18.5566 90.8425 5.73172
-0.475567 120.084 -7.07007
5.99031 107.422 0.980427
18.1096 91.0441 6.22866
-25.9063 138.116 4.16356
-10.918 130.098 -5.73522
-18.5807 134.969 -1.55309
-2.77593 114.34 4.26742
7.40087 99.9182 9.57848
-25.3188 137.964 3.94116
-26.254 137.444 5.94585
-21.341 132.874 5.27237
-0.0943715 114.377 0.711663
18.1527 92.0807 5.36005
11.8717 106.558 -5.36606
-7.31032 125.293 -3.89028
-14.5093 124.504 7.15519
-8.05418 118.758 5.93258
6.49741 104.503 4.93342
16.7763 95.8746 2.35344
-3.83343 115.175 5.04524
5.69794 102.901 8.3329
-16.4609 134.253 -3.02391
14.6316 104.204 -5.71942
12.2676 106.39 -5.36488
-17.5245 135.128 -2.63399
17.6464 93.3807 4.70454
-2.12935 122.01 -6.30662
-1.9686 121.953 -6.44411
6.12587 104.432 5.88327
-16.9691 134.973 -2.90819
5.41077 109.834 -0.116194
-2.763 115.027 4.30037
-11.4877 132.651 -7.21792
-22.0144 138.099 0.0911199
-4.13367 115.861 5.21608
-3.65222 122.718 -4.65003
-15.0483 127.127 5.30262
2.40082 113.855 -0.995433
-25.3871 137.192 6.19156
12.5044 106.661 -5.30334
-3.48116 115.648 4.83326
-24.8373 136.859 6.04183
-15.92 129.059 4.15568
16.0439 101.105 -2.60502
-23.3372 138.667 1.55795
-14.0939 126.563 5.02142
-26.7202 139.246 5.55816
8.66492 110.377 -4.64362
-6.05941 118.335 5.09171
-2.67282 115.46 4.26479
-15.2494 134.365 -3.61103
6.30488 104.83 6.17452
12.1378 107.298 -5.18722
-12.0639 133.622 -6.96047
3.11623 113.554 -1.05013
8.97842 110.247 -4.69786
4.54472 114.877 -4.73859
-11.1584 132.81 -7.03874
9.84411 98.4287 10.0267
16.8495 97.5567 1.49747
5.84778 109.726 0.430519
-21.3956 134.332 5.19083
-18.1047 131.551 4.4262
6.34744 102.645 9.35677
-13.5653 125.081 6.8599
-7.72284 127.019 -3.81502
16.4586 100.131 -1.23045
-4.58255 117.165 5.1136
8.65518 99.5303 10.5798
-9.58111 129.869 -4.86866
-25.1407 139.846 3.3085
-15.1169 134.756 -3.6504
17.4238 93.168 7.15296
16.7634 97.6464 2.12855
-13.3016 125.606 6.29825
-15.9587 130.176 3.88626
-26.355 139.093 6.35778
-13.1874 126.018 5.68188
-0.576986 115.885 1.83319
18.2966 93.8106 5.34405
6.93655 107.137 3.22886
-14.9636 128.427 5.00404
-6.44779 119.688 4.95048
6.82717 112.986 -4.4199
10.3003 110.133 -5.35416
-23.5699 139.398 2.33036
9.00927 111.127 -4.84901
6.51588 108.872 1.66576
-2.32847 116.199 4.08989
-6.58132 126.339 -3.54189
-12.9067 134.464 -5.63482
-12.9648 125.722 6.19392
17.2303 93.6195 7.45432
16.0251 102.641 -2.95869
0.522252 120.953 -6.03229
-6.72468 126.609 -3.54899
-14.3744 135.04 -4.24473
12.6114 96.8032 9.69131
-15.0912 129.039 4.81508
-5.79551 119.525 4.73267
6.57387 108.998 1.76362
-8.67636 129.305 -4.30354
-5.22625 119.061 4.69206
-21.7466 138.981 0.906944
-7.60969 121.047 5.40514
-25.1719 138.329 6.54756
13.8576 96.1737 9.09686
-8.91133 121.887 6.18701
7.23375 106.063 5.09594
-11.7999 124.548 6.68704
10.0457 110.906 -5.25202
-12.9184 135.042 -5.72919
12.7591 97.0801 9.68791
-9.70207 122.91 6.21295
-23.7453 139.905 2.87086
-6.78574 127.207 -3.5231
-6.63308 127.161 -3.48395
-1.26084 123.189 -5.55724
16.6962 99.0842 1.94804
-23.2939 137.524 5.84925
-16.1206 131.914 3.47824
12.7898 109.064 -5.83907
14.1593 107.479 -5.59725
3.27368 117.986 -4.58359
-12.3843 126.864 5.2173
-8.13814 122.095 5.75705
-21.9421 136.366 5.80418
16.69 100.262 0.732447
2.8741 118.602 -4.73236
6.42059 110.692 1.01365
12.7158 109.533 -6.07459
-23.8334 140.432 3.15497
5.3974 112.847 -0.317479
-11.1396 125.226 6.00567
-11.9211 126.521 5.35483
15.9529 104.198 -3.30551
5.53239 115.644 -4.22423
-12.2404 127.171 4.99453
7.59965 102.746 10.3885
-11.5085 126.274 5.36983
-2.89767 117.931 4.67226
-15.563 132.172 3.16781
-11.2617 126.122 5.42721
17.1616 97.9784 3.81763
0.500897 117.573 0.669375
-14.2408 130.352 4.11392
-23.8554 138.455 6.57871
14.516 108.011 -5.72416
7.55672 103.108 10.5337
6.81822 104.208 10.1415
16.6587 100.813 1.06397
-10.3526 124.797 6.31337
16.4434 102.978 -1.49009
-13.6336 129.776 4.2659
5.71089 113.123 -0.110446
14.7024 108.119 -5.81591
-5.4899 121.501 4.2385
10.1253 112.728 -5.61607
17.4629 97.8475 4.19011
8.72908 114.744 -6.32797
-8.54213 131.197 -4.46587
7.16158 107.308 5.84407
7.07787 115.487 -4.97148
15.0878 107.664 -5.55236
-18.2262 138.943 -1.29514
-9.17143 124.088 6.14421
7.27023 108.823 3.96826
-3.90762 120.044 4.40277
17.6596 95.9869 6.82251
6.02064 112.943 0.221297
15.623 106.348 -4.18254
1.21528 118.276 -0.202287
0.228524 118.218 1.26918
-19.8015 135.22 6.24077
0.598758 118.4 0.575859
10.3946 100.922 10.4841
12.9618 110.673 -6.15166
14.9883 97.3203 8.99134
18.0541 97.1752 4.95733
9.44998 114.914 -6.89781
8.87369 102.375 10.7736
3.42767 116.784 -1.01936
17.1376 99.1684 3.69599
-17.0144 134.088 4.15693
16.547 103.142 -0.781405
0.636314 118.639 0.531082
18.0157 97.5046 4.88986
18.2995 96.7629 5.49767
7.03517 107.642 6.58678
6.01196 117.193 -4.8069
-17.0017 134.331 4.24219
17.0228 99.8 3.48891
-13.0794 130.551 3.93861
7.33655 109.473 3.9652
-19.3546 135.465 6.07303
18.1018 97.0288 5.82074
16.6221 101.856 1.47117
-2.25668 119.23 4.31491
0.645515 119.045 0.560087
-11.5786 136.668 -6.09569
10.1578 114.977 -7.06899
15.6367 107.017 -3.96789
-16.5477 138.419 -1.48497
-12.6444 130.38 3.91606
10.0443 101.91 10.7265
-15.8992 139.38 -3.60233
5.42778 114.963 -0.269981
3.74226 119.359 -3.77316
-0.864255 119.162 3.0248
9.44143 115.785 -6.69623
-8.75554 125.325 5.78031
17.7717 97.5038 6.44019
11.1424 114.125 -6.67401
8.60436 104.024 10.4466
-11.4123 128.959 4.85407
-0.812516 119.424 3.02652
-13.0075 131.815 3.31068
-8.77693 125.687 5.69341
3.37938 118.208 -0.945419
-12.7386 132.066 2.82557
14.4437 99.2488 9.32486
-22.3315 138.793 7.22375
-5.97649 124.449 3.87631
-13.6573 133.853 1.9343
6.9802 108.393 7.53502
-13.851 134.107 1.89996
6.42776 114.319 0.580248
-4.58793 128.351 -2.98267
15.3585 98.9239 8.89364
4.45138 117.489 -0.873446
5.07053 116.654 -0.593727
9.32357 104.028 10.4908
-3.67151 127.483 -2.91451
15.5905 108.296 -3.82779
-2.28161 126.499 -3.49182
-10.3103 128.129 5.46059
-12.7415 133.658 1.43012
-11.1009 137.386 -5.84325
13.8656 100.072 9.64846
12.9878 100.73 10.0339
-2.35128 126.626 -3.38744
-16.0651 139.663 -1.8387
-19.5998 141.625 0.436043
16.0494 106.52 -1.80562
1.93586 119.958 -0.280055
13.3253 100.594 9.95019
16.5162 104.319 0.594223
-23.3339 142.585 4.55191
-13.2172 134.212 1.81107
-3.90603 122.917 4.14729
9.06423 104.94 10.3223
13.17 113.5 -6.8316
1.99814 123.09 -4.18033
4.92051 117.479 -0.647536
7.00959 108.995 7.86219
17.7435 98.8362 6.63321
4.50611 118.128 -0.840577
8.13118 105.92 10.5591
-0.597155 120.565 3.03549
14.9839 110.477 -5.00352
2.73619 119.927 -0.699091
16.6494 103.388 2.24479
1.16889 124.519 -4.59434
-14.0185 140.127 -4.32861
6.64508 115.054 0.727032
14.2427 112.116 -5.83266
-14.0546 140.19 -4.28687
-16.0247 135.782 4.37364
9.53059 104.976 10.3159
-2.51439 127.29 -2.88237
-21.8572 142.939 2.93363
15.8558 107.91 -2.299
-17.877 141.161 -0.135112
5.43056 119.918 -3.89972
16.5493 104.434 1.48408
13.6742 113.608 -6.80716
-9.60429 130.008 3.64517
-15.4945 141.039 -2.99316
15.7723 108.427 -2.468
-5.73237 131.072 -3.04528
-23.0521 142.572 5.53414
12.668 102.242 10.1952
-17.2593 140.988 -0.303708
-4.41823 129.7 -2.86154
4.81851 118.564 -0.677224
7.23087 114.135 1.93051
7.77395 112.019 4.02
-12.6329 139.973 -5.14587
3.73643 119.887 -0.840035
-22.0664 143.406 3.38084
-15.4532 141.512 -3.23779
7.97556 106.876 10.8054
12.9647 115.033 -7.01849
-15.2515 141.496 -3.29376
-3.62273 123.94 4.1796
-22.4596 141.439 6.82257
17.1234 103.836 2.52123
-5.04332 125.782 3.79378
-16.8537 136.814 5.37927
1.15001 121.828 0.562513
16.0435 106.941 -0.0957329
7.2995 110.74 6.92539
-9.16899 137.827 -6.56396
-15.4147 136.685 3.65736
15.9612 107.625 -0.810965
-20.9455 143.481 2.21614
-9.32786 137.943 -6.43335
15.1617 111.328 -4.61921
-17.4285 137.4 5.62343
13.1653 102.529 10.0777
15.5279 110.205 -3.48832
-22.3917 141.818 6.67593
14.8964 112.163 -5.19327
-2.19084 122.876 4.11919
13.9735 102.057 9.72268
-2.05864 122.83 4.07017
-16.2413 140.901 -0.484767
5.63557 118.147 -0.251111
-7.99807 136.192 -5.57374
11.7423 117.578 -7.8895
-10.8297 132.929 2.85322
4.15397 122.187 -3.47723
-6.40702 127.866 3.64243
-4.4614 130.7 -2.77919
-12.2719 140.531 -5.079
0.656316 122.293 1.519
-21.6501 143.934 3.43494
-21.4978 143.992 3.17361
-7.69302 136.045 -5.27093
-20.3584 143.812 1.90505
-15.0908 142.131 -3.06994
-2.52506 128.959 -2.77654
2.96646 123.872 -3.54378
16.9886 105.49 1.71569
6.05217 118.062 0.00769971
0.0372256 122.411 2.51905
-0.299602 122.394 3.04677
1.13858 126.343 -4.16535
-3.67946 125.141 4.12852
-20.8366 144.082 2.59305
-20.6813 144.068 2.429
-3.56049 125.106 4.15668
-14.6896 142.085 -3.18727
6.64436 120.887 -4.2901
-10.3847 133.992 1.7215
-13.1022 137.371 0.989831
13.6307 113.035 -3.34817
12.3229 116.244 -5.74382
17.2999 101.442 7.23281
-13.8365 141.86 -3.77185
-5.70574 132.886 -2.95171
15.9283 102.038 8.48792
10.8563 119.524 -7.92081
-13.5561 137.453 1.85594
-16.4813 141.83 0.0716244
15.2922 102.455 8.94791
7.75018 114.89 2.85924
0.875978 123.152 1.32754
3.88746 121.704 -0.789388
-7.48185 129.891 3.97834
-0.220612 123.143 3.0316
-16.5093 142.145 0.141979
7.99744 120.945 -5.34195
0.6716 123.308 1.67924
13.3731 113.408 -2.6317
-11.7403 136.026 1.81485
13.6018 113.707 -3.33909
7.43533 111.124 8.68174
-0.184403 123.259 2.99049
2.40369 122.89 -0.0844835
-0.208042 123.28 3.03103
-3.07649 130.594 -2.80235
6.77035 121.745 -4.44601
13.6485 113.06 -2.31705
15.8329 102.703 8.5677
-17.1904 138.81 5.88843
12.4654 116.334 -5.02669
-0.477239 128.124 -2.91426
-5.65873 128.465 3.84685
17.9923 102.871 5.43158
7.73465 121.347 -5.13095
-5.62284 133.503 -2.88756
15.4625 111.916 -3.10205
-17.9254 139.279 6.4707
-2.65375 130.467 -2.82241
-18.0126 139.369 6.55994
-12.6667 141.948 -4.2775
-13.4494 142.639 -4.07764
-11.9525 137.388 0.924004
-5.4767 128.537 3.87847
-0.305787 123.709 3.23538
12.8014 113.948 -1.79561
6.35412 122.369 -4.07627
9.56867 107.954 10.8406
4.50494 121.966 -0.903129
-6.58342 129.735 4.08914
-3.07531 126.043 4.22806
12.4697 118.29 -6.87833
-14.8381 139.14 3.16794
-20.7682 144.809 3.78774
-17.3914 139.515 6.24724
-3.24053 126.614 4.16449
8.39887 123.075 -7.15585
-5.677 134.666 -3.19108
6.21988 119.912 0.165228
-13.4011 138.837 2.0387
-20.4455 144.942 3.62916
5.51565 123.325 -3.29785
-8.53146 134.773 0.877231
-0.192693 128.791 -2.6243
-17.6899 144.249 0.91278
17.6848 106.211 2.97769
9.28075 109.093 10.8552
5.63606 121.138 -0.261968
17.4057 103.68 6.90953
9.40427 122.885 -7.76184
13.3312 119.223 -8.25835
-9.81242 141.394 -5.82442
-16.5964 143.713 0.485555
-17.9077 144.548 1.18504
-5.15824 129.297 4.02062
16.9928 103.853 7.47986
-7.84211 133.966 1.52283
-3.12332 127.139 4.16805
-14.9774 139.922 3.44446
0.298856 128.809 -2.79563
17.6237 107.506 1.81272
17.4383 105.279 5.08419
13.315 116.086 -3.70371
3.52545 125.721 -3.00002
11.1632 108.009 10.2309
2.69001 126.943 -3.35478
-12.6622 139.941 0.497689
6.23866 120.688 0.215788
-6.22819 136.869 -4.21555
13.5244 120.221 -9.20814
-11.1543 138.479 0.529447
7.91496 115.029 5.63304
5.30775 122.324 -0.525591
9.25995 123.657 -7.77221
-6.98942 132.646 2.76627
15.6426 104.956 8.70859
-15.5149 140.038 4.80867
16.0574 111.727 -0.924794
-16.6061 144.342 0.640988
-4.5441 129.451 4.04944
16.5459 111.439 -0.994786
-13.9372 143.968 -2.40189
6.2444 125.281 -5.27432
12.0717 107.903 10.003
-20.4101 144.421 6.0251
-20.3729 144.602 5.7732
11.2869 108.767 10.0631
8.24883 116.175 4.3334
7.87547 117.922 2.57614
-7.54785 140.121 -5.83916
13.4273 120.03 -7.90588
6.53427 125.635 -5.86377
0.915122 129.171 -2.82238
14.6057 117.91 -6.67637
5.88749 122.018 -0.079262
-12.9613 140.993 0.585981
-20.1247 143.972 6.53234
17.4602 105.816 5.70621
7.77836 115.284 6.42919
11.4271 108.859 10.0316
7.87386 125.245 -7.02544
12.7536 116.509 -2.05032
14.9293 120.01 -9.71923
7.23378 119.775 1.27158
0.525256 129.531 -2.48073
13.8542 113.611 0.470273
8.25313 116.162 4.88603
-5.26333 136.289 -3.36248
8.25024 125.417 -7.42876
12.7933 116.426 -1.63656
7.83176 125.634 -7.1015
-11.6266 140.091 0.471784
13.4237 121.567 -9.36335
13.2377 114.224 0.753428
7.14115 125.978 -6.55766
6.45895 121.56 0.385808
-3.82888 129.445 4.08688
7.56973 125.909 -6.94369
-3.10416 133.739 -2.65959
17.3334 109.334 1.84445
13.2718 118.501 -4.81272
15.072 112.741 0.431149
-5.34974 131.904 3.01778
-15.6435 140.688 5.50901
-18.7267 142.745 7.03522
7.33317 120.118 1.43094
11.7664 119.967 -4.49013
5.36029 125.639 -3.22334
-12.7411 141.495 0.604858
12.1624 118.435 -2.93371
17.5605 108.956 2.40825
15.8932 112.171 0.430369
5.94173 126.286 -4.71801
-10.9185 139.816 0.492642
13.1512 118.352 -4.02295
16.3787 111.805 0.357762
8.03633 118.59 2.81333
-5.98902 133.858 1.94929
-18.9161 146.173 3.3341
15.8595 106.524 8.37969
7.73214 114.659 8.72891
-6.29138 134.399 1.72216
13.5095 114.523 0.968001
-9.7401 143.452 -5.59074
-12.1843 145.007 -4.24118
-12.1906 145.063 -4.21584
7.95143 119.397 2.34387
15.2489 121.13 -10.0683
15.0223 118.18 -5.73463
-7.26835 136.932 -0.0122787
-4.92566 132.155 3.16512
-5.84832 138.562 -4.14817
-5.32913 133.051 2.58481
15.5119 107.106 8.55595
-1.29309 128.052 3.74279
8.37918 117.759 4.19198
10.8818 124.142 -7.80229
9.74411 125.23 -7.66445
14.103 115.059 -0.0463345
17.2766 106.631 6.89098
11.4641 123.645 -7.88199
16.3901 106.85 7.8538
15.3413 112.882 1.22462
16.3565 112.01 0.99798
5.39395 124.585 -0.686731
-9.48147 138.828 0.894271
16.1539 107.004 8.09522
4.11692 127.415 -2.60086
14.3551 108.155 9.08129
5.47399 124.619 -0.689634
-9.90111 139.461 0.733349
15.6557 107.325 8.47769
-0.0370099 127.461 3.22463
15.8057 121.241 -10.3376
13.9498 120.509 -6.70304
1.91809 129.649 -2.25745
-3.12634 130.185 4.12145
-10.9873 145.222 -5.0469
-18.9851 145.095 6.25644
-8.22222 138.826 -0.215043
-1.52645 129 3.70496
17.5955 108.199 5.15497
3.4196 126.74 -0.0837445
-12.9317 145.83 -2.97431
-18.999 146.113 5.13808
-6.50064 136.561 0.655846
-15.1415 145.203 1.08441
-16.5474 145.969 2.00768
17.5041 109.043 4.38795
-10.5289 145.194 -5.24856
-9.4555 139.571 0.937889
14.5978 114.862 0.82679
7.41976 121.908 1.32015
16.2785 120.956 -9.5423
-10.8011 145.685 -5.11558
4.83008 128.168 -3.22207
-3.68336 136.254 -2.27465
11.0581 111.635 10.5098
-10.2132 140.76 0.917456
15.2545 122.928 -10.421
8.28701 115.497 9.22452
-1.87508 134.566 -2.28713
6.86966 128.647 -6.38821
16.0892 112.382 2.77149
12.7735 124.191 -8.43493
-15.2914 145.705 1.59097
16.3134 121.438 -9.61581
-8.41082 140.122 -0.425344
-15.3203 142.905 5.5418
-16.7509 146.642 2.60352
13.9527 123.957 -9.43066
2.23411 130.796 -2.3692
-7.46612 139.458 -0.534323
17.2793 110.24 4.40282
8.51066 120.178 3.2873
1.36835 131.559 -2.08055
-7.97892 140.153 -0.520784
-8.65471 140.561 -0.0881628
-15.1442 143.082 5.54744
11.4567 123.609 -5.10243
-6.28082 138.232 -0.14102
13.9495 119.123 -2.52067
15.8032 112.254 4.13343
-8.83402 140.636 0.221769
2.90003 130.58 -2.4979
17.0876 110.792 4.41834
-3.39642 132.805 3.29208
-3.95823 133.395 3.28064
-5.85732 141.093 -4.39932
-4.38604 134.166 2.86612
12.1532 111.672 10.1424
16.1702 112.093 4.06286
14.1336 124.283 -9.44109
0.956186 129.057 2.44307
-17.9473 145.988 5.95527
-3.01864 136.668 -2.21302
16.3131 112.028 4.113
-1.89862 131.541 3.20305
15.3203 123.83 -10.2642
8.60164 128.5 -7.1631
-10.3369 141.82 1.23321
5.89549 130.286 -5.72044
-3.44658 137.289 -2.15967
15.6656 109.717 8.45918
-17.881 147.173 4.71123
17.479 109.538 6.25246
11.5806 123.876 -4.80918
8.13589 122.182 2.25127
11.2276 126.665 -8.0232
17.4545 117.184 -3.90474
13.6767 123.341 -6.92861
1.78777 128.811 2.23043
15.3982 124.093 -10.2262
15.4376 124.136 -10.2344
12.7715 111.876 9.92807
-7.91753 141.218 -0.780258
-8.82712 141.622 -0.0383976
-14.6401 146.438 1.65286
-0.0926114 130.968 2.3351
-14.627 146.492 1.65318
3.55798 128.782 0.336964
-3.83203 138.683 -2.711
12.6238 112.261 9.99838
8.46893 117.14 9.25677
8.15424 119.027 7.2875
-9.16295 142.127 0.300674
14.1095 123.071 -6.34311
-13.0254 144.37 2.68361
1.62159 129.794 1.95621
13.836 120.695 -2.73955
-5.6876 139.058 -0.254308
15.9733 114.948 2.2005
5.0378 128.225 -0.423578
12.7749 112.525 9.94703
7.83403 124.074 1.39533
-13.258 147.204 -0.417733
15.6087 120.161 -4.09075
10.462 114.721 10.4533
-1.5892 136.602 -2.1611
13.8037 125.651 -8.77869
-4.86761 141.124 -3.64724
-10.1744 143.123 1.03133
1.70465 133.158 -2.0532
12.1651 125.301 -5.95336
-11.0797 144.668 0.286502
7.71888 130.388 -6.59171
10.3785 115.006 10.4283
-6.21125 143.437 -4.69894
-5.7809 140.191 -0.917423
15.9518 117.077 -0.00601319
-14.3573 147.231 1.5477
-13.1769 147.475 -0.349006
15.1813 113.862 5.49484
-14.0894 144.195 5.34562
-6.09991 140.696 -0.996287
-15.2277 147.48 2.55465
-14.9854 144.504 6.21792
8.70805 121.467 4.37343
15.6875 111.189 8.49951
17.7145 123.053 -10.1199
-0.880678 132.916 2.42881
-2.9917 134.889 2.72844
7.45607 130.854 -6.32462
-9.12819 147.104 -5.15122
-5.83002 143.192 -4.46041
15.4394 114.159 5.13095
-2.49083 134.504 2.78446
10.899 128.632 -7.83795
-3.77383 136.182 2.37796
13.2325 126.586 -8.30141
16.668 124.316 -9.95539
-4.86886 138.847 0.401763
17.6868 118.095 -2.89686
12.2899 125.505 -5.30526
-0.893156 133.449 2.34775
16.3204 116.596 1.19981
-12.3658 148.715 -2.05939
-14.2453 147.998 1.54316
12.5645 126.453 -6.61483
8.57691 123.658 2.68847
-3.43471 136.329 2.44204
12.0784 127.363 -6.97523
-8.60311 147.306 -5.07874
-14.7427 148.291 2.11107
12.0089 127.533 -7.09606
8.751 122.169 4.62065
10.7672 129.35 -7.71751
-7.61095 146.466 -5.21282
3.12857 130.455 1.41157
-11.8715 145.846 1.61197
12.3861 125.451 -4.61663
14.1357 122.717 -3.20443
-13.7889 145.588 4.81009
13.9321 122.9 -3.14883
13.7603 125.396 -6.18964
13.8068 122.943 -2.94789
16.5212 117.05 1.20827
15.4916 112.69 8.51226
18.2591 123.476 -9.71682
-6.41927 142.853 -1.52461
15.8046 114.913 5.18969
13.6173 123.95 -3.90655
15.3859 122.619 -4.56718
8.3735 121.203 7.07201
-5.05927 141.04 -0.919641
-10.874 145.896 0.650077
-11.2275 149.435 -3.51064
14.9523 116.519 4.42465
12.8718 124.268 -2.78345
14.6143 117.235 4.24686
14.6778 124.444 -5.49992
15.6185 114.935 5.97869
9.81995 117.931 10.039
-0.283828 134.478 1.8377
12.6344 127.839 -7.15216
12.0319 124.428 -1.69159
12.6234 126.165 -4.82833
14.8677 113.567 8.98174
-2.65477 136.56 2.40884
2.85964 134.749 -2.80294
12.0217 124.453 -1.66017
-8.11542 143.885 0.202894
16.7827 120.074 -2.33743
3.89903 134.602 -3.94579
12.9604 126.626 -5.78388
-4.30835 142.625 -3.28456
-13.8887 146.319 5.07822
16.5913 113.254 7.25303
12.4362 123.614 -0.882576
1.98637 132.795 1.29874
15.2642 120.959 -1.17549
-4.11272 139.889 0.287191
-8.96238 144.537 0.819149
-5.08478 143.997 -3.82414
-14.6913 149.222 2.48647
11.7925 116.072 10.2985
13.8164 114.59 9.5922
3.29008 135.145 -3.38772
13.3436 122.757 -0.655207
16.9273 117.219 1.8701
19.4918 122.972 -9.40023
-4.879 141.892 -1.01331
-6.25896 145.97 -4.55225
8.2825 121.897 7.66675
13.4449 126.203 -5.24773
16.9244 117.739 1.36376
3.91641 135.29 -4.14943
9.7315 131.343 -6.87598
-10.1115 149.614 -3.89019
5.1003 131.204 -0.259391
14.3088 114.586 9.32377
12.7035 128.247 -6.76562
13.94 122.121 -0.124368
15.1897 121.232 -0.576394
11.904 126.756 -3.37055
-14.7332 148.213 4.75364
-2.63042 137.737 2.05459
16.4724 119.356 0.278426
5.15947 131.418 -0.228093
-5.65601 145.587 -4.18667
14.0022 121.977 0.490617
15.5111 118.013 3.84058
8.96415 125.175 3.30258
16.6899 120.072 -0.526004
-1.51297 139.983 -1.97867
7.75957 128.551 0.55742
12.6367 116.546 9.95763
13.9016 121.98 0.965911
10.1989 131.67 -6.87151
-7.88095 148.674 -4.63164
-5.34478 145.586 -3.98848
12.7528 128.057 -5.51682
-14.1823 149.258 3.38765
8.98273 125.311 3.43173
12.9591 116.546 9.74449
16.3922 126.814 -8.76478
11.7276 127.141 -2.7354
11.7102 130.738 -7.52122
-2.79407 139.047 1.46861
12.2757 117.083 10.1745
15.8804 121.605 -0.804113
8.55189 127.126 1.94484
-10.2242 150.436 -3.32008
15.2048 116.025 7.63102
17.0625 126.362 -8.80623
13.8377 128.884 -7.71621
12.3601 117.176 10.1251
-11.2188 150.949 -2.50841
-13.1716 149.975 1.51208
12.479 124.217 0.541632
5.4417 136.227 -5.82328
12.9916 127.407 -4.35428
-9.92311 150.405 -3.44699
12.5223 129.079 -5.90125
7.55966 129.905 -0.0450729
-3.15339 140.73 0.349452
-9.46461 147.301 0.284822
18.9488 118.507 -0.418344
12.6314 128.727 -5.36301
-13.9006 148.705 4.59132
4.16265 137.034 -4.54817
-2.27576 139.208 1.51615
11.8289 118.318 10.0719
8.73445 122.91 8.20482
13.4734 119.059 6.85649
1.76023 135.333 1.25711
-0.225604 137.22 1.48467
15.8351 122.805 -1.39836
-2.84548 143.037 -2.63367
8.97742 124.434 6.0093
11.9225 118.407 10.0534
16.4457 121.36 -0.0830719
12.5772 130.199 -6.56443
11.7847 129.392 -4.3331
14.8252 128.812 -7.76743
11.7418 128.719 -3.29596
17.5356 126.694 -8.5469
12.4806 129.794 -5.6846
13.5848 118.382 8.1119
3.76665 137.632 -4.0416
5.57267 133.077 -0.219771
13.4577 126.565 -2.39471
16.8189 121.138 0.420285
13.9688 125.735 -1.76554
8.59638 128.824 1.55904
8.9208 124.669 6.70955
-12.245 151.269 0.35516
12.6502 126.446 -0.809721
13.313 127.636 -3.2784
0.0317166 140.426 -2.03801
12.5532 129.095 -4.18005
12.8095 126.764 -1.40641
-1.32491 141.904 -2.09473
16.9938 127.627 -8.2172
13.0163 118.916 8.98792
5.99504 132.989 -0.1621
0.284999 140.296 -2.03464
1.64528 139.228 -2.4635
14.2547 122.537 2.46931
15.2388 121.934 1.92238
4.86756 138.01 -5.26799
19.1958 125.938 -8.9059
12.5915 124.654 1.99231
-3.36597 143.176 -0.630324
16.9035 121.606 0.299004
12.1828 130.785 -5.45386
4.72831 138.258 -5.11443
-7.10891 149.846 -4.15623
-6.65922 149.488 -4.2294
13.6305 127.598 -2.94452
4.41799 138.544 -4.85555
12.0972 128.103 -1.48347
15.8543 122.975 0.236384
13.0193 120.313 7.74868
12.7575 119.9 8.67118
-11.2338 149.142 2.69792
15.7581 123.728 -0.557511
15.5141 124.634 -1.42199
-11.7759 151.348 0.553846
0.959601 137.607 1.40678
-5.84156 148.715 -4.07272
13.394 123.887 2.64879
11.6383 130.277 -3.36899
16.6948 119.963 3.48155
13.6778 123.6 2.82401
13.5588 123.985 2.52046
-2.14163 142.132 0.0234719
-10.8184 149.494 2.25592
22.4612 122.985 -8.27426
13.547 123.985 2.76863
22.2722 123.258 -8.32457
-2.02483 144.008 -2.40572
13.9188 126.832 -1.41147
6.28942 133.504 0.214514
-0.848696 140.198 1.27541
11.6297 130.154 -2.5347
-9.52957 151.851 -2.32914
17.4084 128.27 -7.86908
14.6006 130.797 -7.19857
5.08158 135.225 0.0633793
-10.2946 149.877 1.76076
10.3858 123.943 7.97548
3.91144 139.804 -4.13481
-1.28123 143.85 -2.25329
12.5766 121.034 9.17772
14.1047 125.124 1.65702
16.2115 122.178 2.714
12.4886 133.268 -6.92731
13.0565 121.485 8.13297
12.9988 131.516 -5.20635
8.60209 128.662 4.73883
11.7379 129.978 -1.33254
13.4894 126.841 0.484666
-10.813 151.231 1.4413
14.1859 124.76 2.38628
13.6966 125.403 2.22563
11.9148 123.273 7.56883
14.6436 127.493 -1.87392
10.4338 124.738 7.69638
17.895 128.499 -7.69191
17.8215 121.304 2.1703
14.7822 125.799 0.397219
13.5452 127.094 0.384005
13.955 125.641 1.77438
8.73213 129.141 4.31941
12.3553 131.819 -4.2829
11.833 130.108 -1.25792
8.48911 128.713 5.26577
14.6534 125.928 0.483747
-10.6147 151.776 0.8485
20.4862 126.773 -8.65909
17.038 121.494 3.25324
0.81531 142.272 -2.0677
14.3045 125.983 1.1597
-1.14546 142.706 0.290734
17.3469 121.639 2.9987
2.93472 138.021 1.01502
0.0956565 140.98 0.985093
7.06302 134.086 0.618676
7.13075 139.248 -6.38084
14.5643 127.137 -0.403216
15.2226 127.165 -1.33975
23.2467 122.534 -6.21415
19.3907 127.797 -7.90498
14.5093 132.093 -6.8915
8.90441 130.078 3.60857
-10.1221 153.019 -0.76764
13.027 132.466 -5.12882
18.2925 128.766 -7.44281
15.4501 122.169 5.39171
17.7334 121.507 3.16418
-10.1164 152.555 0.0954843
8.54446 129.835 4.76046
6.02281 135.913 0.104896
13.9768 127.24 0.744585
19.398 120.304 2.55001
18.3052 128.866 -7.40103
6.34998 135.572 0.257637
12.9238 133.073 -5.44345
8.46597 128.476 6.95229
21.6784 126.185 -8.21295
17.8578 122.223 2.40367
15.3706 127.554 -1.24614
3.87435 138.057 0.642864
-7.85225 152.421 -2.37739
7.81359 134.155 0.432578
-7.79928 152.412 -2.41224
8.7818 132.582 1.23828
13.9894 123.125 6.73469
7.89363 134.136 0.416698
8.64834 133.316 0.483713
8.67734 130.45 4.31252
-5.42246 150.747 -3.35907
8.36477 133.739 0.36713
0.257723 141.931 0.736342
22.486 124.15 -6.18385
8.47585 138.879 -6.51891
-8.72255 151.084 0.950411
13.9382 133.439 -6.76811
-9.07943 151.238 1.24425
14.054 127.608 0.915521
11.9458 125.526 6.68128
21.898 125.269 -6.7434
13.9576 131.213 -3.49339
17.3891 123.131 2.68828
22.9634 119.164 0.289823
17.4055 122.749 3.2074
16.9874 122.966 3.54962
-0.206291 142.863 0.684789
17.5256 123.009 2.77483
8.78326 139.118 -6.65985
15.157 123.438 5.6101
11.9678 125.918 6.75374
21.8177 126.9 -8.17891
13.7069 125.285 5.24199
12.0304 125.975 6.70544
17.5943 123.23 2.73488
5.65027 137.59 0.0138309
6.37464 141.055 -5.62182
17.807 123.06 2.73497
8.69007 129.977 6.08551
9.75839 127.51 7.94586
8.75586 133.07 1.87527
-8.94421 152.894 -0.202871
11.6017 126.142 7.25115
12.9736 131.511 -1.83145
13.9376 133.091 -5.24999
7.38029 135.825 0.191311
-0.779189 145.075 -0.893581
14.651 125.054 4.70767
-9.28881 153.555 -0.36995
17.7054 123.577 2.52603
12.2284 126.31 6.61306
10.7806 138.012 -7.08026
17.3146 123.313 3.6107
14.7925 133.77 -6.89849
10.6566 127.16 7.73425
21.8905 127.498 -8.28369
17.5457 124.101 2.323
16.8734 124.715 2.4423
17.4784 124.181 2.3519
17.2264 124.603 2.14247
18.6141 122.267 3.43065
14.7971 129.972 -1.57388
-0.430191 145.134 -0.813902
17.0084 124.566 2.77623
-0.136252 144.783 -0.594306
7.57021 140.891 -6.00496
15.0176 125.315 4.60104
14.0664 132.533 -3.64816
14.7352 128.818 0.537774
22.1586 127.565 -8.06483
17.512 124.803 2.08325
13.2231 133.447 -3.56698
23.4947 119.774 0.612338
16.2252 126.071 2.25563
14.7316 134.671 -7.19399
17.2266 124.621 2.94594
14.7333 130.658 -1.67419
17.5165 124.469 2.88379
-1.73101 148.546 -2.66827
23.7505 119.874 0.580005
22.5871 122.461 -1.21479
17.6827 123.972 3.81756
14.4317 132.787 -3.50103
3.55436 144.061 -3.43465
15.6151 134.011 -6.63185
7.8005 141.664 -6.0039
16.1225 125.605 4.02582
-8.2847 153.96 -0.185415
17.3934 125.22 2.92055
10.2527 139.798 -6.68838
-3.70087 151.346 -2.79609
8.99101 133.687 3.42258
0.027706 147.213 -2.27819
7.09533 142.414 -5.61883
4.25268 140.96 0.287168
12.174 137.237 -5.65393
8.22577 136.755 0.484166
21.4031 121.601 2.65594
13.6788 134.418 -3.74293
22.9405 126.182 -5.51232
5.35666 140.218 0.130681
21.1171 129.361 -7.06162
8.60753 136.36 0.883322
-2.28144 150.333 -2.75638
15.7268 126.492 4.29161
3.02873 142.36 0.791125
13.4383 133.603 -1.86555
21.0556 122.272 2.80276
14.0131 135.467 -5.14862
10.8931 139.903 -6.71802
13.5338 127.704 6.00686
9.2098 134.2 3.32453
8.75635 141.902 -6.38381
13.5485 135.95 -4.98869
7.49534 138.31 0.360306
9.31415 135.568 1.58743
15.0584 135.688 -6.48536
24.2162 123.736 -2.97777
14.2575 133.788 -2.66652
19.0882 123.663 4.23414
23.3726 127.67 -7.06631
2.94916 145.822 -2.93864
9.89424 131.316 6.92179
8.18103 137.736 0.708412
13.3612 134.474 -2.08473
4.22158 145.252 -3.76846
-3.12429 152.107 -2.67507
22.5028 124.322 -0.884147
-7.12168 154.332 -0.10308
-1.06002 150.075 -2.71281
13.3986 129.177 5.40739
-5.393 153.841 -1.61253
1.57643 147.245 -2.30992
-4.1286 153.223 -2.41417
14.2752 134.68 -2.8972
6.98289 144.13 -5.26576
16.2033 128.294 3.3537
10.7185 141.095 -6.19073
13.8218 136.944 -4.90098
6.67393 144.494 -5.03178
6.95515 144.344 -5.21412
13.1256 137.256 -4.18606
4.95154 142.374 0.326443
23.8947 126.415 -4.40762
9.30192 143.035 -6.40204
3.40455 146.614 -3.01083
9.1342 137.297 1.58712
-5.39247 154.314 -1.10734
2.78043 144.487 0.769736
13.7176 137.271 -4.65595
12.4512 137.166 -2.72085
2.12251 147.68 -2.46741
18.8165 125.338 4.39858
4.32577 143.156 0.566898
7.19183 144.61 -5.30123
22.5629 124.834 0.330921
20.3786 124.248 4.22959
25.6026 123.974 -2.37961
4.87259 146.55 -3.77824
24.3018 127.021 -4.41384
18.1911 134.546 -6.03439
20.9444 131.304 -5.47782
20.6968 124.463 4.19421
21.9998 124.526 2.35444
9.66666 143.54 -5.97042
6.78289 145.725 -4.88998
18.4313 127.226 3.80507
1.64744 149.222 -2.38471
13.5489 137.811 -3.45253
17.4912 135.826 -6.24733
25.0356 126.725 -4.32992
12.461 140.423 -5.24256
21.1401 131.716 -5.28378
13.4672 138.451 -3.64894
9.99555 135.872 4.72378
9.57664 144.176 -5.74261
16.3438 129.981 4.04478
6.33997 143.126 0.379216
3.90662 145.67 0.408631
4.98181 147.578 -3.57784
-1.86059 153.695 -2.19799
25.6856 126.921 -4.40875
25.5385 126.831 -4.0206
4.09258 145.967 0.0189542
4.54444 145.034 0.691626
24.9967 128.042 -4.76845
10.8105 134.297 6.51601
23.7284 126.368 -0.684572
23.0614 125.029 2.09307
13.9884 138.998 -4.07437
13.0195 139.431 -3.20792
17.4243 129.564 3.97862
5.69604 144.474 0.494868
24.7065 127.096 -2.51408
22.6211 127.058 0.430265
27.172 124.716 -2.69148
25.2779 128.323 -4.86804
22.7965 127.128 0.25285
12.6565 139.643 -2.35765
15.6669 131.861 3.94181
5.63882 148.043 -3.79356
23.7288 125.969 0.803469
20.243 127.799 3.39463
6.03782 144.709 0.520062
2.29859 150.869 -2.54393
14.5263 139.366 -3.97868
3.29169 149.959 -2.61005
24.5127 130.259 -5.56457
5.72283 148.381 -3.75577
22.1922 127.958 0.872184
1.1209 152.375 -2.64573
12.1044 142.179 -4.1226
25.1177 128.694 -4.00726
4.57443 146.534 0.554839
5.45007 145.525 0.730928
15.1989 139.332 -4.30378
11.6774 141.487 -2.23066
15.4483 133.023 3.95263
23.9526 131.268 -5.47622
6.53474 148.273 -4.12468
1.59788 152.403 -2.65529
16.8751 131.9 3.72137
22.245 132.972 -5.12367
1.4276 152.647 -2.65419
26.1132 127.109 -2.47922
14.0893 134.344 4.49383
18.4453 130.88 3.11612
17.8747 131.522 3.06449
26.0158 126.693 -1.73143
18.8251 130.621 3.05945
1.41573 152.857 -2.65588
20.7943 129.263 2.20835
23.4026 128.992 -0.970803
10.7867 138.581 3.6493
8.12073 147.787 -4.95464
20.1699 129.549 2.84088
17.9103 132.136 2.50133
22.0926 129.197 0.666693
26.5829 125.827 -0.995857
12.3781 142.618 -3.73509
19.1448 131.095 2.38406
10.907 137.98 4.73979
16.1117 133.751 3.23552
10.9421 138.065 4.71808
15.0717 134.272 4.15676
11.3235 136.897 5.92405
9.38321 141.414 2.66004
6.87475 145.351 0.868827
11.0048 139.103 3.61589
12.1 141.887 -1.62959
12.8361 135.892 5.44495
24.5288 130.684 -3.55715
24.6724 131.211 -4.32241
16.3374 134.479 2.86327
15.2232 134.665 4.15967
22.1836 131.676 -1.47243
3.97901 151.484 -2.75862
12.1721 143.145 -2.90666
11.9315 136.625 6.32737
13.384 140.998 -1.47403
21.5932 130.789 0.903025
12.9484 136.681 5.24314
22.4151 134.158 -4.36473
16.6658 139.783 -3.92223
18.4403 138.474 -4.62176
22.5585 132.061 -1.53327
13.1215 141.579 -1.17278
17.3339 139.325 -3.96173
11.1609 145.655 -3.83687
13.1866 141.573 -1.13974
7.46136 145.861 1.16187
11.3055 145.464 -3.54822
11.4766 145.25 -3.32564
11.6764 145.007 -3.15738
16.1797 140.699 -3.60031
12.5642 137.537 5.84213
14.8861 136.197 4.42623
9.67172 142.465 3.25517
20.8637 133.231 0.183328
20.8155 133.552 0.00256005
12.4902 143.059 -1.06203
21.1663 133.524 -0.200085
15.7627 136.787 2.96175
3.49663 153.431 -2.36601
11.3474 144.979 -1.75965
11.9504 139.257 5.17631
21.6171 135.818 -3.4108
23.655 133.2 -2.69622
11.0174 141.067 4.25888
11.7935 139.783 4.93741
11.5327 140.577 4.65694
9.04737 150.146 -4.3065
7.13611 148.17 1.001
9.69749 143.868 3.36428
14.0368 142.643 -0.42
13.236 139.255 5.24208
6.58823 152.494 -3.12806
17.385 141.492 -2.96114
16.9111 142.056 -2.92915
13.8588 143.319 -0.352521
6.71278 152.653 -2.86059
23.0293 135.077 -1.80536
8.30195 147.936 1.5933
16.2896 142.783 -2.47431
8.49787 151.56 -3.22572
19.3226 136.869 1.50762
11.8818 141.618 5.47638
11.3743 142.616 4.88027
15.4008 143.4 -1.66489
12.2074 146.724 -1.67325
4.22695 154.931 -1.49134
23.2582 135.06 -1.16351
14.1264 143.757 -0.127216
18.1557 137.977 2.20831
12.7283 141.809 4.6467
10.3256 145.092 3.84334
13.2116 145.276 -0.288099
20.3931 140.112 -3.18749
21.6016 138.065 -2.0622
10.8322 149.741 -2.78934
17.6619 142.92 -2.63109
21.7711 137.874 -1.53843
13.0309 142.623 4.22613
12.9939 146.472 -0.7124
22.887 136.455 -0.933554
16.1191 140.488 3.11955
7.61856 150.541 1.45944
16.1364 140.516 3.12859
8.74514 152.127 -2.20647
15.2624 141.307 3.29883
9.42807 151.224 -1.8904
15.5736 144.065 -0.721579
16.8828 143.523 -1.76315
15.5843 144.133 -0.614859
14.5257 142.012 3.73548
13.7324 145.544 0.0967957
14.7546 144.591 -0.0316875
22.2019 137.273 -0.473103
21.3976 137.706 0.163234
6.21171 154.668 -1.20745
10.2071 150.814 -1.41064
11.7204 149.193 -1.16589
18.3748 139.514 2.6371
20.2136 138.442 1.64971
16.8389 144.184 -1.06682
14.7843 145.597 0.0683568
16.3341 141.537 3.43016
8.01856 153.587 -1.18428
19.7806 142.386 -2.42586
19.0784 139.624 2.36947
14.8168 145.823 0.0805439
18.8107 143.476 -2.2737
12.8023 144.695 4.44504
18.252 143.925 -1.93054
6.34188 155.181 -0.219153
8.27356 151.966 1.45252
12.7746 145.29 4.20122
13.5503 147.578 0.13194
10.7263 148.523 2.82167
19.7485 140.142 1.67091
22.0278 139.551 -0.560472
14.7842 146.553 0.155626
9.88813 150.067 2.22484
19.323 140.404 2.20219
8.27276 152.966 0.926179
20.673 140.692 0.496892
11.3251 148.863 2.66504
17.393 145.225 -0.8591
11.935 147.992 3.0537
9.05525 151.975 1.82449
17.0435 142.539 3.44287
10.9076 151.59 -0.184821
7.12772 154.921 0.590248
12.4744 147.5 3.272
20.5731 141.39 0.434617
12.4911 149.975 0.310576
13.692 146.087 3.89801
7.71267 154.516 1.22953
10.2797 151.454 1.94961
15.0036 145.006 4.08341
19.4498 142.412 1.58577
12.369 150.963 0.13516
15.1637 145.278 4.00955
15.4133 148.459 -0.392172
21.0447 142.837 -0.602314
9.26669 153.471 1.4932
11.3475 151.086 1.82115
13.1297 150.121 0.676129
20.8088 142.77 -0.0298116
17.2565 144.164 3.06347
8.86326 154.378 1.06977
19.3586 143.482 1.23802
16.7021 147.456 -0.330534
15.3894 148.627 0.251751
18.5675 145.902 -0.412853
15.9714 145.674 3.55834
16.3992 145.61 3.08428
14.7987 146.875 3.63065
15.7073 145.975 3.73595
18.9225 144.235 1.65582
14.7239 147.526 3.2141
18.1924 146.324 0.0573706
11.8757 152.272 0.860591
16.608 146.207 2.57566
18.3016 146.237 0.513067
18.9295 145.232 1.18425
