ply
format ascii 1.0
comment Created by Open3D
element vertex 1597
property double x
property double y
property double z
end_header
-15.8903 97.0909 2.46041
-19.1266 81.1182 -12.3445
-9.09299 113.686 2.1445
-6.2544 120.276 1.19806
-0.131837 133.358 -2.92876
-3.22234 127.483 0.607753
-7.68965 108.382 -14.2799
6.48833 149.483 -3.53582
1.29155 136.579 -3.35046
-5.82532 120.919 0.764492
1.54825 139.33 0.831932
-17.8826 83.8465 -12.2437
-3.30586 126.94 0.477411
-18.3637 82.7537 -11.8654
-20.5605 83.1867 -0.585894
-13.2984 102.788 2.21244
-7.96553 107.263 -14.2776
-12.9949 103.404 2.214
-13.7171 101.562 2.15214
1.34436 136.19 -3.52468
-2.88556 127.758 0.550696
0.532068 134.321 -3.15457
-7.65534 116.303 1.51369
-18.4729 90.2264 3.50936
-2.95497 123.237 -7.36136
-10.3421 101.645 -13.24
-15.4514 96.8755 1.92728
-8.30389 114.352 1.24704
-9.96863 110.705 2.38277
-14.8174 98.4891 2.20537
-16.7256 86.3789 -11.6473
-3.04702 122.569 -7.80258
-1.93932 126.363 -5.7555
-17.1228 93.2736 3.45002
-6.17761 119.154 0.673326
-12.0575 105.456 2.65786
-15.242 97.3806 2.43702
-3.17125 126.364 0.24025
-12.8607 102.656 1.2174
-13.8306 99.9268 0.669851
-20.7519 79.6522 -4.95824
-16.6248 93.4121 1.58724
2.05236 137.149 -3.96051
2.24769 137.555 -4.0663
-1.91467 126.237 -5.78386
-9.05805 104.275 -13.5386
-15.3724 96.2091 1.06383
-9.961 110.425 2.39654
-6.03342 112.061 -13.0381
0.145339 132.738 -3.11831
-12.6553 103.104 1.35115
-19.4097 86.3851 1.70639
-9.9177 110.44 2.34647
-0.860038 129.863 -3.69067
-6.73774 117.573 0.849656
2.91343 138.872 -4.48187
-11.5505 106.267 2.28525
-9.88719 110.422 2.31347
-6.44169 110.556 -13.6976
-10.4704 108.966 2.46169
-16.5224 86.5018 -11.4283
5.41625 145.243 -3.95016
6.75028 148.718 -3.68037
4.61956 142.757 -4.57356
3.68761 140.032 -5.26995
-13.3636 100.382 0.39917
0.00177788 131.815 -3.30362
-3.95167 118.521 -9.64121
-13.873 99.1176 0.556493
-14.6441 90.6807 -11.7574
-12.6824 102.057 0.552299
-10.3998 108.709 2.4121
-17.2128 83.8725 -12.3546
-6.40834 110.015 -13.8377
-6.89553 116.387 0.558536
-7.12609 115.565 0.365023
-7.36161 114.923 0.283506
-13.8798 92.0447 -12.1323
0.0508744 131.463 -3.39887
-20.4458 79.8709 -4.09802
-4.91551 114.269 -12.2207
-0.280874 130.475 -3.3681
-19.3018 85.2852 1.13813
-7.74351 106.243 -13.8501
6.64651 147.271 -4.22635
-11.158 98.4622 -12.3536
2.30636 136.227 -4.47285
2.02566 137.987 0.465591
1.0835 133.335 -3.66827
-11.631 104.195 1.31946
8.26972 151.323 -3.49336
-9.70326 109.293 2.00554
-11.7597 103.147 0.35588
-11.3878 104.87 1.92446
-6.38865 108.807 -14.1064
-11.2355 105.24 2.21274
8.34714 150.929 -3.89303
-8.99892 110.234 1.14377
3.07026 140.088 0.574069
8.41468 151.545 -2.99174
-5.54457 111.093 -13.3754
3.60132 137.634 -5.82741
-13.9033 97.1435 0.350548
-6.17114 108.731 -14.1093
-14.7953 94.2239 -0.650366
-1.30361 128.154 -0.169512
-2.98834 123.756 -0.395966
-3.26177 118.501 -9.01186
-18.8897 84.6203 0.782763
-8.05396 104.146 -13.3096
-5.48264 117.036 -1.03257
-19.3361 81.9068 -1.95871
-16.0537 92.5897 2.77751
8.60156 150.887 -3.47885
6.07447 143.781 -4.9648
-13.464 97.2393 -0.630156
-2.49099 120.617 -8.25693
-6.39705 114.685 -0.973133
-11.9816 100.809 -0.727797
-11.3677 102.23 -0.932426
-5.89634 108.976 -14.037
1.11368 131.98 -3.65164
-19.2039 80.8162 -4.35696
-5.94984 108.715 -14.0658
1.14861 133.864 0.0788222
-8.1961 110.701 0.445071
4.95939 140.051 -6.17025
-12.5664 98.8402 -1.22564
-5.9484 115.377 -1.20781
-13.6781 96.4791 -0.41467
2.01715 133.304 -4.87421
0.86476 133.059 0.285545
4.3457 138.169 -6.37651
-12.2837 99.4236 -1.03723
-16.6662 90.3154 2.49052
-9.04436 101.268 -12.7162
-17.8914 87.1691 2.44486
-14.1517 94.4836 -1.24196
-3.42629 116.815 -9.62023
4.34621 137.919 -6.37257
8.82945 153.254 1.57563
-1.16463 127.117 -0.557226
-17.1551 81.2066 -11.7952
-15.2856 92.9908 1.69169
-18.8374 82.9745 -0.437659
-3.41778 121.17 -0.937912
2.13727 132.624 -5.43837
-5.18439 116.503 -1.29788
-11.9177 99.7723 -1.10815
3.24978 138.365 0.27006
2.17698 135.886 0.69486
-17.5467 87.5461 2.69155
6.97435 148.489 2.06994
-8.34423 109.201 0.303765
1.05054 132.297 -0.125102
-15.9242 83.4066 -12.352
-10.2277 97.4254 -12.695
7.83211 146.373 -5.28316
-9.22652 106.921 0.924661
-0.851532 127.009 -0.605793
3.95956 135.95 -6.37951
-4.01574 113.027 -12.0036
9.66566 153.872 0.730074
-8.23045 101.952 -12.7495
-5.61877 107.804 -13.7766
-14.3956 87.2434 -11.1568
-12.4004 91.3865 -12.7381
4.68374 137.25 -6.42388
5.30148 142.792 1.15036
-3.74506 113.448 -11.4514
-9.39673 104.81 -1.0541
-14.2188 92.7186 -1.09922
9.52738 153.181 1.43399
-4.72624 115.929 -1.46578
-0.130629 125.304 -5.18109
-7.84607 108.251 -0.95243
2.7303 135.55 0.753928
5.28664 141.991 0.952052
4.76868 136.734 -6.46337
-16.7515 79.793 -12.1675
3.27998 136.45 0.342052
-0.84081 125.522 -0.757501
-12.4754 96.0833 -1.42398
-18.0103 82.4168 -0.960689
0.782964 127.647 -4.18233
-14.184 92.4035 0.252238
-3.95236 110.922 -13.0026
-7.40296 108.013 -1.97061
-0.813041 125.066 -0.848926
-12.2109 96.3077 -1.36558
5.80024 142.715 1.29066
1.33202 128.633 -4.10241
-14.3854 92.2654 1.54761
-16.3238 80.3257 -11.8778
9.54086 149.014 -4.18537
-12.3867 89.8268 -12.4856
7.26705 142.22 -6.25713
8.31578 144.989 -5.76678
-14.0338 91.5652 -1.14885
-10.1771 94.7687 -13.2701
-12.4123 95.0952 -1.8857
2.31367 132.737 -0.160319
-12.4371 95.2365 -1.32126
6.23826 138.972 -6.82085
-13.577 87.2437 -11.0061
-13.4571 87.3804 -11.0231
-6.38697 109.855 -1.82252
-15.2478 89.7321 2.12226
2.51458 132.932 -0.107325
-12.6209 94.4452 -1.1635
9.87892 150.446 -1.44106
-5.64447 105.314 -13.3317
10.3585 152.678 0.629867
-8.2897 104.56 -2.23979
5.88371 141.773 1.31724
-13.6748 91.1408 -2.00207
7.5205 146.364 2.31471
-15.2078 82.0096 -11.9411
-11.4094 90.908 -12.8873
-12.2739 94.7915 -1.36233
-17.3328 81.2489 -3.06816
3.33233 134.846 0.718088
-1.97262 116.84 -8.19375
3.067 130.061 -6.85189
0.0824513 122.723 -6.61581
-13.2882 92.0675 -1.24336
1.3886 127.208 -4.14477
10.0492 150.295 -1.33248
-5.66219 104.724 -13.2501
4.5864 137.554 0.514575
7.97468 146.979 2.42454
-2.84099 113.033 -10.6363
4.05895 132.565 -6.28042
2.95282 133.079 -0.00995921
6.15057 137.521 -6.72162
-14.2109 89.7685 -0.699397
-3.48102 116.08 -1.62825
-13.0329 93.211 0.319203
-13.4154 92.128 0.0833962
-9.40671 100.957 -2.08675
1.37816 126.698 -4.36849
9.70199 147.87 -3.5964
-6.68281 101.887 -13.1113
-12.7737 93.1733 -0.745167
2.30482 128.144 -5.82606
2.95531 132.816 -0.0268041
7.19886 144.556 2.16793
-11.7571 94.9446 -1.99468
-8.00593 98.4285 -13.1137
4.49258 136.74 0.305648
-17.0194 81.0464 -3.36398
-0.733193 119.623 -7.17808
7.74254 140.871 -7.01264
4.9731 134.198 -6.48465
6.19426 137.037 -6.70621
7.72849 145.599 2.5569
-15.7728 78.9749 -12.2929
-13.5553 91.7168 1.34882
-11.9049 88.7999 -11.8851
-2.39002 113.485 -9.99879
-13.2018 91.0142 -1.37725
3.13709 128.748 -7.21211
9.51978 145.661 -5.25032
5.23026 134.071 -6.51433
-3.15767 115.639 -1.62786
-12.5225 91.8809 -2.18053
-12.16 94.1724 0.745597
-12.0201 88.0767 -11.3689
-12.2891 93.1879 -0.380643
-15.1633 87.116 1.91743
0.0927565 120.885 -6.30101
0.984641 123.2 -6.08264
-13.6937 88.3677 -2.53809
-8.66547 95.0269 -13.5602
10.5668 150.144 -0.147204
-13.6466 88.3567 -2.55326
10.5956 151.213 1.83037
-12.8524 90.202 -2.73812
1.759 125.576 -4.82413
3.89066 129.468 -7.46584
-13.7228 89.4883 0.180321
-5.68655 102.396 -13.3681
-5.39908 109.074 -1.98032
-6.10516 101.187 -13.4002
-11.3213 94.0295 -2.12685
-11.9493 93.5031 -0.0912929
2.46479 126.445 -5.86832
4.99081 136.271 0.788265
1.81686 125.286 -4.89345
-10.8291 94.8936 -2.21914
-12.3787 91.9854 -0.194607
-13.7373 82.442 -11.7409
4.32573 133.982 0.418856
-13.3758 87.9075 -3.00295
6.60955 140.379 1.93588
-11.6372 93.1326 -1.16754
-13.7634 86.2094 -4.18964
10.1943 145.742 -4.75848
5.63381 133.303 -6.65536
1.68068 124.225 -5.06133
-1.34786 114.705 -8.66067
11.5721 152.05 0.956069
10.4038 149.862 2.41488
-10.8916 94.1827 -2.25134
-13.85 81.7612 -11.7452
-12.7644 89.5472 -2.05116
3.73219 131.879 0.0668871
11.4336 151.664 1.24696
-15.3204 84.4857 0.636058
-4.66201 109.786 -1.86737
9.40136 142.746 -5.94163
2.95848 126.001 -7.04138
1.10965 124.852 -0.462533
-12.834 89.3729 -1.59086
-1.59876 113.345 -9.34778
-1.86572 116.836 -1.35451
-1.39504 113.994 -8.9477
3.71225 127.283 -7.90182
11.2073 151.004 1.56638
-5.10244 102.155 -13.5971
-7.99736 94.8211 -13.6335
11.7078 151.583 0.745991
11.0982 150.662 1.88751
-12.4846 91.2045 1.00722
-9.92004 95.8293 -2.33203
9.42841 142.227 -5.82439
7.23231 141.03 2.43551
-14.3917 83.7408 -3.68837
-11.8738 86.1836 -10.9221
3.45058 130.381 0.25427
-11.5253 92.5355 -0.429561
-2.13737 109.936 -11.8157
-3.00846 113.147 -1.60087
-4.75903 108.505 -2.06081
-12.094 91.9837 1.36752
3.00181 125.202 -7.08071
-12.1294 90.2526 -1.3839
7.84405 136.842 -7.53907
-12.4797 90.1598 0.510033
1.90683 125.781 -0.0612513
-6.68092 97.0557 -13.7987
4.35941 132.231 0.598577
-2.69755 107.132 -13.4821
-13.3506 87.4018 -0.377972
-11.637 91.5899 -0.54666
11.2343 149.115 0.176473
-4.46055 102.514 -13.7508
-9.80729 95.127 -2.44634
-14.225 83.9253 -2.67864
-15.3833 81.4798 -1.80907
-12.8208 87.0316 -3.41767
3.08737 128.754 0.343515
-14.2251 85.5701 0.539566
-9.96123 94.8886 -1.9387
4.90027 133.55 1.04505
10.6048 148.665 2.73354
9.22205 140.048 -6.97952
-8.52449 97.9446 -2.70128
7.34868 135.122 -7.33157
-15.277 81.4947 -1.74346
-13.6836 86.4794 0.21203
-13.878 85.9952 0.280349
0.546614 121.675 -0.368305
-10.9609 92.8964 -0.38619
-12.5066 90.0218 1.49191
-12.3736 90.2101 1.23501
3.51963 125.186 -7.72467
2.6512 124.042 -5.66877
0.586556 121.637 -0.347311
-12.0597 88.7868 -2.47981
6.30432 136.978 1.96664
0.0506727 116.448 -7.30066
-7.42633 100.276 -2.4586
-10.5938 94.8197 2.20334
9.61143 140.856 -6.14145
9.68974 141.191 -5.58528
5.49563 134.388 1.5809
-11.6962 89.331 -2.37723
10.4838 143.432 -4.69392
-8.94292 96.1673 -2.25156
9.75955 145.845 3.42551
-9.30817 95.6139 -1.25311
-11.7062 90.9089 1.2241
-0.901349 112.191 -9.58674
2.62267 123.12 -5.48555
-9.91769 94.9081 0.596847
12.1794 150.165 0.721449
1.1328 122.078 -0.123464
-11.5678 90.04 -0.608899
-13.6927 83.1956 -3.42694
0.00138944 118.864 -0.67847
5.99355 135.166 1.92899
11.8666 149.899 2.28862
0.785667 117.371 -6.84151
10.6133 144.325 -2.21028
-9.8309 88.0658 -11.8872
-4.30737 107.034 -2.10625
4.43012 130.59 1.27808
-4.35029 106.791 -2.11979
10.2323 146.122 3.47108
12.0634 149.959 2.1389
11.0208 145.418 -1.51631
-3.5991 102.308 -13.8279
10.4586 146.519 3.44519
-4.44731 100.135 -13.8277
11.5176 148.792 2.7992
-11.9453 88.0921 -1.01639
6.1245 135.042 2.44785
-4.87956 105.081 -2.21458
-13.1979 79.22 -11.758
-9.04283 96.3284 0.988406
-1.33246 108.939 -11.5494
-3.59687 108.209 -2.00888
-8.93202 96.3408 0.819692
-9.87347 87.46 -11.4863
-12.9367 84.1193 -3.30872
-11.2289 88.87 -2.34492
10.0263 145.219 3.80654
4.51439 124.752 -8.85857
-12.9711 79.5176 -11.7143
-12.0479 87.0516 -1.78072
12.7196 150.386 1.0165
-1.34513 108.439 -11.8208
-0.31047 112.259 -9.24222
-8.56031 96.9397 0.801101
12.286 149.764 2.23287
10.3632 145.718 3.68779
-6.71437 99.9012 -2.1159
-8.09056 98.3588 1.58877
-11.2713 83.541 -11.2386
-0.158814 112.425 -9.07018
10.6133 146.011 3.63568
11.5784 145.843 -1.16595
-9.10598 88.2553 -12.1952
-7.74448 98.6515 1.05817
-11.2459 89.582 0.465726
-5.6307 96.0428 -13.7568
2.79695 120.694 -6.69959
5.17067 131.47 2.62129
11.2234 147.029 3.4554
-9.53439 87.2711 -11.4517
-1.64755 112.321 -1.27535
-2.56859 109.839 -1.59551
-11.57 87.2757 -1.68457
-7.65943 97.2605 -1.23151
10.8423 143.346 -1.38746
11.0631 143.064 -2.91133
12.3654 148.216 0.750518
-11.7654 86.9502 -0.892265
10.1641 138.96 -6.09666
6.51468 134.905 3.58433
2.51956 118.837 -7.90562
5.55541 132.549 3.7375
5.36941 131.973 3.6843
1.66983 121.091 0.596418
-10.6061 84.1527 -11.2008
8.71563 134.153 -7.8981
9.87032 137.511 -6.83439
-5.38714 101.858 -2.13308
-9.41873 86.9492 -11.2387
10.9785 142.316 -2.62671
12.4326 147.395 0.149281
-8.64777 96.4041 3.36734
-6.75802 98.6103 -1.328
-10.6062 88.898 -1.32243
-11.2948 86.6121 -2.25785
12.2629 146.33 -0.531202
-10.3832 89.1151 -1.63439
9.2705 141.452 4.47395
12.5253 147.55 0.636723
-6.98221 99.3932 1.79822
4.53433 122.511 -8.87578
3.431 120.698 -7.06358
3.22556 124.598 1.36675
11.6465 144.561 -0.551521
3.54397 120.909 -6.92498
-5.26265 95.4038 -13.4895
-2.27591 109.328 -1.19573
-3.55114 105.785 -1.80458
1.26621 118.988 0.428195
4.08946 122.143 -6.92566
-10.5342 88.1274 -2.1408
4.01532 126.543 1.76905
11.8194 146.929 3.53479
-10.9402 87.3276 -1.44009
4.59648 122.26 -8.78022
-1.87584 110.186 -0.998945
-5.66178 100.493 -1.39087
10.5546 140.489 -2.37976
5.19035 130.495 4.17751
5.47513 131.224 4.41522
0.680415 116.879 -0.0571502
-10.2897 83.4772 -11.3568
10.5632 140.208 -2.42753
8.2593 131.135 -8.69948
-5.75474 93.5466 -13.5578
11.1756 142.291 -1.35205
-6.65908 91.2144 -13.2867
-0.0198707 109.225 -10.3929
10.6579 140.224 -2.09619
-8.29259 95.9471 3.75475
5.62874 131.205 4.69531
-10.7103 81.6267 -11.7574
7.62408 128.58 -9.54989
-10.9487 86.9416 -0.506879
12.5562 147.647 3.27099
-3.32544 105.349 -1.49999
-9.52638 91.6264 1.94109
-10.02 89.287 0.0470741
-10.9351 86.844 -0.0806862
-2.49197 107.418 -1.0207
-11.0367 80.2661 -11.9668
2.09705 115.553 -7.26931
-11.6215 84.9599 -0.23717
2.22298 115.733 -7.30061
-2.16559 108.116 -0.838662
-2.62211 106.854 -1.04598
13.7154 149.001 1.45794
1.00144 111.763 -8.74473
-7.06077 89.4131 -12.89
1.52223 118.083 0.833058
8.35948 129.921 -8.92375
-9.82443 88.8075 -0.711223
0.448846 109.621 -9.85904
-10.0587 82.3761 -11.6154
-4.86579 101.53 0.196361
6.12159 123.505 -9.98904
-10.6549 85.458 -2.56607
11.8914 145.307 4.16529
6.52672 132.546 5.43422
4.96014 128.19 4.67489
-9.6308 88.795 -0.85812
-10.9518 84.9544 -1.78964
-10.3731 86.9177 -0.757374
4.54943 126.082 2.91952
13.2177 146.67 0.953958
-10.0156 87.519 -0.989739
10.811 142.311 4.28943
0.0825483 113.346 0.255149
8.22498 136.25 5.14328
9.43337 131.92 -8.7349
-9.87428 87.656 -1.1925
-6.45892 89.8989 -13.0481
7.39848 134.21 5.46563
6.84659 124.82 -9.62313
4.98051 127.519 4.52738
12.2284 143.002 -0.43007
11.0551 139.338 -1.69145
-10.122 86.2992 -1.69792
6.5282 123.484 -9.95116
-10.1489 85.7653 -2.46475
-7.9523 86.3665 -11.6532
-5.85958 99.7877 4.28444
5.1425 128.032 5.71525
10.8684 137.909 -2.65762
6.0601 130.418 6.01314
3.10336 121.12 2.41947
12.7986 144.164 0.232518
11.267 137.653 -4.75646
1.90613 112.354 -8.23512
5.7866 121.192 -9.85513
12.4552 142.91 -0.282606
3.87224 123.29 3.19822
11.382 138.74 -3.06133
0.891611 114.61 1.0134
5.14057 120.143 -8.58463
-10.4515 84.8669 -1.57549
-3.84156 102.228 0.0336447
5.52437 128.791 6.03851
-0.0744573 111.873 0.500173
5.00561 126.482 4.21585
-2.431 105.391 -0.45477
-8.03931 85.3783 -11.7337
2.41541 113.638 -7.48873
-8.07317 85.1035 -11.7537
2.18737 118.038 2.19775
2.38456 118.572 2.34646
11.2905 138.553 -1.9009
10.0037 139.211 5.48826
-7.71279 85.6543 -11.7857
3.17569 120.585 2.92256
0.7539 107.261 -10.6445
2.30101 118.017 2.45348
9.95248 138.676 5.58354
7.2864 132.262 6.089
4.90789 118.655 -8.38535
5.17307 126.889 6.00441
7.35343 132.216 6.05827
3.28377 120.569 3.28838
5.1778 119.233 -8.17384
-4.07631 93.3572 -13.317
5.19968 126.563 5.88752
11.7987 137.62 -4.22701
4.49517 116.823 -8.99234
-0.0329546 103.575 -12.6285
-7.05131 94.7474 3.899
9.04691 128.253 -8.80697
-10.2197 78.2933 -12.1092
12.367 140.752 -0.712941
-2.28613 97.5114 -13.2484
-9.36321 86.294 -0.951221
-6.4388 87.6653 -12.0491
11.4723 137.208 -2.46867
-1.21983 99.6642 -13.3239
9.20716 135.901 5.96155
14.9676 147.353 0.421779
-5.06153 99.691 4.95406
12.0572 142.069 4.20169
6.91911 130.284 6.30609
-4.09021 101.552 4.02774
3.12111 113.347 -7.62562
-5.75487 88.5718 -12.5386
10.7772 134.662 -3.46245
-9.65819 78.9814 -12.11
-7.48802 91.051 0.80618
10.2595 131.164 -7.155
9.40918 129.699 -5.88757
-6.38407 95.6481 4.38166
3.57166 120.477 4.30009
4.46682 123.223 5.32407
4.79477 124.164 5.55912
10.0962 137.402 5.55658
0.0529254 110.014 1.2821
3.50633 120.207 4.29728
5.34385 125.702 6.01306
-6.30144 95.6205 4.35493
-0.950565 107.078 0.766956
-10.2128 77.0879 -12.0993
10.4461 131.716 -6.33319
7.57991 122.744 -9.63359
15.0797 147.214 1.32215
-5.01531 98.9178 4.9792
10.5884 133.398 -3.51631
9.60603 128.491 -7.82427
1.51768 106.982 -10.2412
9.4529 130.394 -3.40936
-2.59527 102.916 1.57324
1.6423 114.266 3.01654
-1.61292 104.993 0.875716
11.0747 134.085 -4.00448
-7.96794 82.2295 -11.9606
4.14988 121.73 5.51473
9.65916 130.793 -3.36999
10.0598 131.542 -3.72387
9.00818 128.613 -4.15924
10.7328 133.382 -3.2827
1.9367 108.099 -9.45338
8.43733 127.558 -3.35927
0.0404202 101.191 -13.3795
8.65846 127.702 -3.95008
9.52316 128.128 -7.1831
8.63795 125.199 -8.49204
10.6352 137.402 5.22713
14.119 145.628 4.36232
8.09721 126.605 -3.15063
9.34888 128.405 -5.52162
8.0879 123.854 -8.16242
1.6783 106.736 -10.242
1.90571 114.586 3.60336
8.28859 125.301 -6.27532
8.30998 126.537 -3.76241
10.8032 132.442 -4.35167
3.64432 119.676 5.34547
-8.29179 86.3027 -1.29471
11.0832 133.921 -2.74837
10.8559 137.511 5.14233
-9.83408 76.6973 -12.0495
1.29106 112.402 3.01666
4.0714 120.9 5.95348
8.28895 123.626 -8.82429
8.29702 123.616 -8.86211
1.75468 113.864 3.68019
8.27781 126.662 -2.94733
9.49625 127.857 -6.37266
14.2317 145.323 4.35822
9.7639 128.666 -5.75206
-8.99463 83.6611 -2.20641
-6.4771 92.001 1.73386
-2.40358 94.4372 -12.8667
3.33113 118.372 5.31555
10.81 131.558 -5.04178
10.4794 130.218 -6.01527
-1.09288 105.235 1.45864
-0.846644 98.1307 -13.0282
10.6917 130.653 -5.96586
9.07524 125.913 -7.19351
-8.24882 84.6333 -3.2612
12.2768 135.096 -4.76655
2.06811 114.474 4.50976
-2.28935 102.851 3.12948
15.2442 146.602 3.0635
14.4654 142.515 -0.985256
5.42924 124.331 7.3611
13.7735 140.288 -1.88011
3.854 119.731 6.20581
6.82201 118.535 -10.0713
-0.533955 106.328 1.66656
12.4019 135.484 -4.25114
9.43008 128.742 -2.75144
6.63702 126.843 6.93053
6.38787 117.302 -9.87429
12.47 135.294 -4.36275
5.74635 115.51 -9.95847
9.57992 128.231 -3.71874
8.50659 125.234 -4.22807
11.6009 133.192 -3.77893
-0.911846 104.957 1.98188
-4.72478 96.7822 4.87754
9.02254 125.262 -6.19498
-8.02753 79.5128 -12.0869
-6.26672 91.0444 1.42447
11.5855 137.351 4.68265
11.2753 136.504 4.56481
14.8435 145.068 3.93508
-2.98196 101.471 5.89004
7.55424 119.108 -10.5349
1.11858 101.78 -12.8375
12.9862 135.727 -4.67601
-8.08289 79.1583 -12.0924
7.71643 121.22 -7.19415
3.22493 109.207 -8.59577
-4.50656 87.897 -12.3075
12.1741 133.612 -4.60997
3.08748 108.64 -8.82383
-6.07588 91.1441 1.53589
-7.17447 87.3088 -0.464917
5.19757 113.833 -8.76907
15.8118 146.409 2.73277
-2.85373 101.405 5.88663
14.9176 141.793 -1.71857
-7.12965 81.2281 -12.0727
8.23598 124.452 -2.76883
13.9825 138.333 -3.51237
9.41424 126 -5.20922
0.97093 109.566 3.62703
14.0873 138.707 -3.20653
4.26121 111.566 -8.06643
8.42107 129.157 5.61879
-7.20782 80.7439 -12.0799
10.149 127.055 -6.50319
11.2046 129.498 -6.75118
-3.48568 99.3635 5.79698
-8.72862 76.8079 -11.9098
15.6332 145.631 3.1335
1.89712 112.483 5.49518
8.60166 125.358 -1.83179
-4.78962 86.4722 -12.0277
-0.322889 105.334 2.57334
10.0536 126.528 -6.32876
14.7149 140.118 -2.61036
-4.67008 86.6669 -12.0539
2.71025 114.736 6.17416
1.58591 111.367 5.25149
8.73462 124.191 -4.27803
-4.40655 96.1937 4.98682
-8.53332 76.8875 -11.8931
2.42972 113.682 6.04133
-4.00626 96.9313 4.80468
10.9978 134.211 4.43367
-4.72052 86.2209 -12.047
-0.948984 104.295 4.35013
11.9597 130.904 -6.28643
9.82964 126.25 -4.91854
-5.23271 84.8927 -11.9414
2.54556 105.083 -10.4859
-0.149291 97.3124 -12.3651
8.38068 123.78 -2.61194
3.35743 107.803 -9.07645
9.34819 126.296 -2.25719
9.4976 125.781 -3.91381
8.73981 122.436 -6.58011
9.11741 129.401 5.00805
7.33833 125.861 6.74237
8.08387 120.381 -6.8824
7.52526 116.794 -10.8082
15.971 143.308 -0.15812
12.342 131.39 -5.54513
8.89006 121.373 -8.14473
11.218 129.983 -2.78059
15.1524 139.666 -2.95841
7.76776 117.193 -10.508
-7.76204 82.9237 -1.81546
2.52845 113.023 6.53539
-3.29377 97.7746 5.42187
9.54085 126.437 -0.980147
12.9127 132.692 -5.0764
-2.95798 98.8125 5.93273
4.69033 118.74 7.62123
9.71093 124.438 -5.33717
16.1294 143.026 -0.383516
10.5678 125.935 -6.41589
0.621303 106.722 4.30016
0.0950492 96.7083 -12.1044
13.0329 132.526 -5.48127
-5.74487 82.1457 -11.9999
13.0561 131.753 -6.99117
14.3523 136.011 -4.96187
-2.39401 89.9178 -12.981
11.5167 127.618 -7.40564
8.55931 120.163 -7.51656
10.4781 124.973 -7.48123
5.84844 112.594 -9.00989
10.5115 125.084 -7.32805
0.497942 105.935 3.78848
1.12607 108.438 5.63508
1.78841 110.446 6.32381
10.1245 126.179 -3.28007
1.01574 108.043 5.51561
-1.01934 93.3966 -12.5676
13.6298 133.639 -5.63555
1.02247 98.5047 -12.4483
-6.97018 84.8019 -0.53856
10.0889 124.853 -5.30389
14.5113 135.95 -4.95571
-6.03218 80.82 -12.1022
13.2092 131.534 -7.09949
13.9967 134.043 -6.07259
12.2743 135.108 4.25361
9.76694 126.664 0.15444
4.50815 117.507 7.73167
-0.753858 93.697 -12.4332
10.3995 126.086 -3.78106
12.8334 136.242 3.95554
-1.62928 101.122 6.05275
8.89089 124.429 0.642219
12.7142 129.566 -7.69026
11.5976 128.585 -4.19458
2.79918 102.536 -11.7563
-5.38928 81.9322 -12.0119
0.843629 97.4305 -12.0269
11.0608 124.807 -8.48909
15.4868 138.589 -3.32537
17.196 145.358 1.52097
0.641267 105.515 4.40487
9.1155 119.716 -8.72611
10.3589 129.759 4.41485
8.64827 118.369 -9.03519
16.5486 144.501 3.10913
10.5723 126.804 -2.10368
-3.89506 94.1888 4.72219
16.3599 141.27 -1.81144
-0.629843 93.1481 -12.4729
-6.16775 85.6993 -0.256734
12.0145 126.888 -8.16166
7.96374 118.132 -5.47966
10.4832 124.727 -4.8995
2.59476 111.332 7.1001
2.49024 111.061 7.08837
7.33658 122.763 6.52922
7.13209 122.37 6.95226
8.7078 125.574 5.72191
-5.73204 86.6851 0.507184
-3.49564 85.5104 -12.2765
10.1079 122.677 -5.89681
-5.78947 86.1818 0.242389
-1.24014 90.5271 -12.7467
10.1471 125.472 -0.339005
-2.54502 96.6947 5.24196
11.0213 123.065 -8.815
13.9383 131.383 -6.85576
-6.64548 77.3862 -11.6232
-6.92495 76.6573 -11.5928
11.1491 126.177 -3.31289
11.6081 128.163 -1.6714
1.71835 108.11 7.2812
17.6672 144.952 1.70537
8.24592 116.337 -7.88884
3.88373 113.666 7.77869
-2.33078 87.3902 -12.4706
-0.341827 102.248 6.39085
3.63759 112.803 7.81415
-1.51286 89.0735 -12.718
15.0389 133.751 -6.39769
15.8067 137.059 -3.75158
7.79868 113.79 -9.87086
10.7884 128.581 3.99967
14.9908 138.799 3.48154
13.5097 129.038 -7.69429
9.44634 121.793 -2.15705
-4.8695 80.6603 -12.1191
10.3733 124.808 -0.643884
13.8736 130.059 -7.21023
-0.557483 101.004 6.14971
-6.40778 76.99 -11.5272
0.82583 104.592 6.52614
8.3051 114.552 -9.80224
9.13065 118.957 -5.32811
8.50456 114.875 -10.074
0.382925 103.681 7.17766
10.8579 122.232 -6.79437
-4.38279 88.6889 1.80834
-0.809699 90.0144 -12.5244
8.44453 115.489 -8.02616
1.30768 105.126 6.28132
-2.19373 95.6931 5.03926
16.6388 138.634 -2.67418
11.4364 121.945 -9.60708
5.75341 117.098 8.13668
3.8099 101.605 -11.9841
8.40582 116.889 -4.79216
9.58135 122.369 0.0970441
10.0854 119.193 -8.0592
-3.46563 91.4857 3.59137
-4.1072 89.0522 2.0222
15.1494 137.829 3.33616
8.17305 116.269 -4.46172
12.4356 124.325 -9.3158
8.36451 122.298 6.1023
-5.35232 78.6171 -11.6869
10.7293 124.346 -1.15307
9.54079 121.452 -1.00728
10.7008 120.085 -8.83502
-3.24748 92.0278 4.11077
-0.649131 99.6094 6.21532
13.0124 125.769 -8.84471
10.2871 121.572 -3.89081
16.6376 137.786 -3.16452
14.4613 135.513 2.92766
9.94766 119.978 -5.00958
-1.72582 96.148 5.10775
1.79213 106.312 7.78765
17.613 143.271 2.93964
-5.79738 77.1622 -11.4068
-4.42527 87.2821 1.26571
18.2451 144.322 2.03976
-0.474743 89.8456 -12.3779
13.6125 127.328 -8.05163
10.5275 123.413 -0.804675
3.07097 109.4 8.09831
-1.37971 96.9638 5.72163
9.24116 117.105 -6.35818
-3.24855 91.0738 3.44911
10.5142 121.191 -4.53199
17.6083 140.429 -1.59369
11.4248 127.418 3.04984
4.73691 113.444 8.2683
16.1101 134.441 -5.73637
-5.46462 83.7777 0.442289
2.68435 108.071 7.96433
-0.203151 99.9417 6.25155
8.84229 113.98 -9.939
8.93589 114.686 -9.02548
6.51241 108.786 -8.6916
-4.39436 86.6749 1.05105
15.7409 133.295 -5.87832
5.71126 106.184 -9.3087
-1.33728 86.9405 -12.3695
7.27184 119.151 8.15412
2.13019 95.8766 -11.5087
6.8359 108.971 -8.92028
8.16603 114.659 -4.44505
12.7299 129.9 3.1207
14.0812 127.362 -8.01885
0.967395 102.905 7.72907
-2.62744 83.3604 -12.2441
10.8093 119.627 -7.14261
8.3833 112.353 -9.32293
-2.91534 90.8566 3.54597
7.12633 118.36 8.15196
14.4152 133.788 2.92228
10.6951 119.012 -7.39452
-4.08396 79.7586 -11.6362
10.6168 120.441 -4.12999
18.6042 142.468 -0.19774
9.49085 122.521 5.2519
8.92113 114.702 -6.8163
-2.04262 93.5498 5.22105
0.575396 100.618 6.54195
8.20509 113.79 -4.37273
15.9965 137.244 3.20833
11.5326 119.202 -9.69692
11.0836 119.524 -6.8504
8.57276 120.659 7.17764
8.68535 114.271 -5.21842
5.73297 113.999 8.25072
-1.44725 85.2848 -12.049
1.08488 101.807 7.26412
9.75431 117.125 -4.74169
11.4646 121.883 -3.75684
-5.0173 82.6763 0.0364441
1.50945 103.118 7.89244
10.1149 122.938 4.72685
13.204 129.837 3.3459
8.52334 113.654 -5.08359
15.3919 135.023 2.90679
18.7075 141.09 -1.16343
3.97176 98.9387 -11.2267
12.0869 119.651 -10.3493
11.0073 121.98 -0.716113
4.74738 100.777 -11.1848
13.7246 124.019 -9.62166
4.55414 100.267 -11.1373
8.31664 110.466 -9.59021
8.26597 119.41 7.62323
14.9858 128.172 -7.55948
1.26378 91.5628 -11.8453
16.285 136.918 3.09062
8.52161 113.625 -4.19265
6.77651 115.769 8.121
-0.10373 88.0193 -11.8553
6.96111 107.219 -8.90206
18.2012 138.507 -2.6062
18.7336 140.549 -1.24567
9.03706 120.576 6.9227
10.8648 121.785 0.653959
5.58407 112.59 8.23027
6.94983 106.862 -9.01281
11.126 121.732 -0.602267
1.24306 91.075 -11.8101
8.85734 111.428 -9.21087
-4.2067 77.799 -11.0574
12.0785 124.224 -0.159219
9.26892 120.772 6.63929
-0.782313 85.9328 -11.7369
-3.88182 84.9543 1.1194
11.7531 121.63 -3.34303
9.43564 120.958 6.37318
14.8009 126.496 -8.50753
10.4879 122.614 4.58207
18.8235 140.36 -1.25079
-4.06736 81.9506 -3.3967
-3.3252 86.4846 1.69655
6.85365 106.13 -9.24484
13.1941 121.342 -10.4385
11.4662 120.448 -3.95867
18.084 137.252 -3.42455
12.0579 125.657 3.13091
11.8844 119.22 -8.13589
6.65699 105.45 -9.46805
3.09725 95.7069 -11.0486
7.25477 107.158 -8.90001
5.60378 112.047 8.24532
18.6818 139.344 -1.94011
8.92947 112.992 -5.6436
12.6151 119.76 -10.2171
-4.52748 82.5154 0.366873
9.02638 119.858 6.94734
-2.32814 89.3558 2.94578
11.9669 123.457 -0.0642501
-2.09202 82.1256 -11.6316
7.59308 107.847 -8.70759
-0.18513 86.8685 -11.5497
18.5798 138.469 -2.63014
-3.89344 77.8168 -10.9678
12.5526 124.614 -0.149525
6.30945 113.362 8.14292
6.62066 114.079 8.10424
18.065 140.082 3.25718
11.0536 120.999 0.321463
12.5685 124.495 -0.130193
2.19895 102.726 7.79726
6.26101 112.95 8.1349
18.9303 139.228 -1.99619
12.3005 122.06 -2.9088
18.9075 138.86 -2.28723
3.31785 105.276 7.98415
17.2271 133.042 -5.13589
5.27067 100.193 -10.6022
11.8887 121.595 -1.23367
6.72448 103.836 -10.3142
19.2155 141.483 1.8681
9.64131 119.149 4.95373
4.85243 98.9327 -10.5483
9.29071 112.945 -4.93429
17.3187 137.308 3.22472
19.7641 142.212 0.963382
-0.495952 93.7492 5.22676
-0.609557 84.6725 -11.3941
-3.13573 85.3416 1.94315
-3.35255 84.6303 1.71698
13.5289 127.108 2.33691
17.4848 133.052 -5.0012
-0.681857 84.2145 -11.3443
0.836982 97.4844 6.70305
-3.80962 83.0683 1.42844
14.8084 123.444 -9.90945
0.574844 96.0485 5.70883
2.71082 92.4298 -11.2275
15.8489 127.013 -7.70988
19.7746 140.561 -0.436333
2.59975 101.968 7.74861
17.9809 133.585 -4.73125
2.24131 100.521 7.20454
18.2582 138.438 3.22572
18.8347 139.487 2.50445
9.4463 109.711 -9.39494
10.9069 116.479 -3.40041
-3.35445 76.9887 -10.6631
17.9092 133.225 -4.78058
14.7581 129.8 3.64039
-2.38574 86.335 2.50848
-1.16079 82.1693 -11.1198
14.1341 127.806 2.93088
2.94972 102.195 7.69495
10.6537 119.093 3.6447
16.4656 127.916 -7.10126
13.4966 124.625 0.715138
12.127 119.596 -2.25644
-2.04639 86.7945 2.76485
14.1478 120.619 -9.75787
8.02575 114.568 7.77857
-3.40593 81.8989 0.03075
7.05847 102.282 -10.6342
11.1494 119.76 3.18876
20.0054 139.957 -0.36765
10.0652 110.69 -8.65697
17.043 134.166 2.90005
14.4574 120.912 -9.87871
13.2827 123.617 0.85695
6.78667 110.939 7.76768
17.228 134.393 2.87113
20.1737 140.301 0.286675
17.8963 131.913 -4.77783
9.70799 116.871 5.4905
3.75335 93.4923 -10.5805
12.5932 120.157 -1.85346
19.766 139.857 1.8317
0.830621 85.8008 -10.8702
2.69416 100.075 7.37832
14.2565 120.072 -9.37977
-2.20613 78.2005 -10.621
19.0621 134.729 -4.0751
13.1565 122.829 1.48663
-2.6317 81.5641 -1.92913
17.3923 134.126 2.88142
17.382 129.238 -6.09532
10.8587 116.973 1.55503
12.5492 117.3 -5.69462
9.97753 112.818 -1.96759
2.10627 97.826 6.97531
-2.66466 81.523 -1.24093
19.7106 139.068 1.99486
14.0388 118.95 -9.25567
9.87467 116.555 6.03015
-2.55284 83.2442 1.80422
13.2063 122.152 1.01801
12.6326 119.281 -1.64068
-0.0129703 91.2856 5.20076
3.29429 100.773 7.57001
4.17326 93.4005 -10.4593
12.9554 117.81 -5.78696
12.9891 118.161 -5.09165
16.1897 123.921 -9.19048
18.891 137.021 2.96377
10.1708 116.137 4.71176
3.83142 92.1263 -10.6479
9.08598 114.578 7.11583
2.25586 97.3134 6.7664
11.2074 116.75 1.24916
13.1655 117.673 -6.17199
10.4084 115.907 3.58176
-2.09745 83.8462 2.16271
12.8531 119.876 -0.348484
10.1695 112.622 -1.37304
12.9042 118.532 -2.8674
1.68024 95.1075 5.89076
4.41887 93.3327 -10.3903
13.3519 121.076 0.0592247
9.07845 105.097 -9.88382
10.9122 115.203 0.583234
8.11351 102.452 -10.2105
10.4816 112.406 -2.32231
11.7969 117.571 1.27461
11.7095 115.742 -1.70246
17.214 131.666 2.47891
9.18122 105.048 -9.8037
13.396 120.956 0.396849
6.64298 107.587 7.03175
-2.58821 75.435 -10.1388
20.3582 137.466 -1.20895
10.743 115.465 2.63615
16.6633 130.334 2.84115
6.70222 98.83 -9.66762
-1.48524 84.9424 2.77842
0.0652593 89.7875 4.69995
12.9511 117.832 -3.06845
-0.949519 86.6232 3.61739
18.9372 135.814 2.73181
19.0868 132.574 -4.09596
13.1971 117.678 -4.33407
13.1601 117.697 -4.12117
9.09662 104.473 -9.85555
9.72846 114.74 6.60031
13.6434 117.752 -6.17165
11.0058 114.54 0.27109
-0.588134 87.519 3.96171
12.9704 118.474 -1.56739
10.8662 115.125 2.21831
20.6611 138.642 0.41706
13.1828 117.024 -5.09589
4.08317 91.4651 -10.3802
2.25088 95.8003 6.49318
-1.75245 81.0972 -2.38773
-0.171932 88.5026 4.28151
17.5067 131.666 2.38116
11.7649 116.165 0.22598
20.3961 138.49 1.70059
10.8921 115.286 2.74883
14.2033 123.543 2.74608
17.5441 126.635 -7.13172
-2.57126 74.8201 -10.0263
10.1359 112.567 1.33261
10.8733 111.928 -3.30165
13.0851 118.134 -1.45969
14.8112 124.832 3.22025
3.16071 97.2782 6.29221
6.91274 98.321 -9.42879
-1.59366 80.9703 -1.98303
20.1401 137.407 2.0962
-0.306473 79.6565 -10.4949
15.0109 125.159 3.33283
2.65256 95.8786 6.36636
10.4094 114.826 5.70182
17.2611 124.574 -8.19575
3.94889 90.1885 -10.1763
13.7939 119.742 -0.78258
11.0105 111.854 -2.52217
11.1674 110.869 -5.0562
17.5738 125.525 -7.57156
17.141 123.89 -8.618
13.1787 118.677 0.294899
13.3801 117.347 -3.16269
12.0718 115.397 -0.534004
12.5432 116.567 -0.485227
13.4854 118.856 -0.607347
3.30846 96.9778 6.12237
18.8019 133.604 2.38479
-1.14771 80.72 -3.2589
1.33567 83.2441 -10.2168
-1.01227 84.1003 2.5627
0.963982 82.1672 -10.2515
11.0196 113.401 1.3965
0.202545 80.1141 -10.4128
-1.47705 81.0103 -0.770753
-1.4471 80.8512 -1.16071
1.66741 83.8406 -10.1924
9.44317 103.735 -9.20622
-0.160581 79.1128 -10.3329
10.6839 107.943 -6.83842
20.5276 136.037 -0.0741929
18.7641 128.785 -5.45389
0.947425 89.833 5.13445
10.4221 111.88 2.21192
9.87363 104.697 -8.66559
1.91484 83.8981 -10.1048
18.6217 132.133 2.18558
7.53963 106.404 6.43255
20.517 136.304 1.66565
10.3979 113.18 5.79794
13.9744 117.305 -3.18884
20.5447 133.835 -2.90277
7.10128 96.8059 -9.38146
13.8246 117.161 -2.60739
10.9422 113.044 3.37752
8.74881 100.811 -9.18848
19.344 129.734 -4.51134
16.0485 125.881 3.92386
4.52104 89.6762 -10.0029
2.6791 85.0481 -9.97125
11.3125 114.168 4.32703
14.327 117.216 -4.09424
19.338 129.151 -5.01042
18.7058 126.606 -6.82443
10.5593 106.023 -7.1643
10.2159 104.642 -8.11721
20.149 134.667 1.73189
16.7306 126.989 3.49275
10.3932 105.157 -7.74496
9.20817 109.595 6.27867
1.07266 88.2601 4.64109
17.1799 120.806 -9.77299
14.8856 121.06 1.58646
10.814 107.565 -4.64014
17.3883 121.374 -9.54017
10.815 107.507 -4.55505
9.96304 110.986 6.15338
6.92217 103.653 6.69076
20.0305 130.904 -3.62832
14.8653 116.951 -5.4587
19.6623 129.317 -4.71562
5.60689 100.102 6.67055
15.5465 122.996 3.05319
5.58088 99.9112 6.62798
10.7536 112.258 5.58942
14.6971 117.166 -3.72584
11.9342 110.601 -3.07282
-0.55745 81.6172 1.15654
-0.310835 80.2379 -2.08174
7.51796 104.292 6.48003
0.199733 77.4181 -9.74791
11.5419 111.024 0.351938
20.0383 129.644 -4.23851
1.98266 81.47 -9.97067
18.3867 123.24 -8.36707
10.681 104.922 -6.57824
10.8315 105.763 -5.59507
6.03788 100.084 6.51387
8.71675 106.268 5.74269
4.23806 95.014 5.93098
-0.135858 81.2974 0.773286
20.4466 130.481 -3.46927
18.1887 121.994 -8.85094
20.7848 133.931 1.48311
20.6658 131.105 -3.28989
0.306708 76.9041 -9.57749
9.28933 99.9841 -8.35629
9.48188 100.437 -8.23933
19.3715 125.474 -7.55276
0.552672 77.3841 -9.54465
20.629 130.741 -3.39958
10.3726 102.972 -7.40595
10.395 109.834 5.64573
10.8329 105.527 -4.49654
5.82009 90.1688 -9.69155
10.6439 103.787 -6.7052
19.6906 126.343 -6.79722
2.18488 88.6713 4.72912
4.82714 87.6739 -9.58317
19.7448 126.081 -7.01972
11.8998 109.164 -1.27657
12.0727 109.122 -1.97738
10.8867 104.648 -4.80802
15.9228 120.661 1.71499
19.0146 128.719 2.5151
21.1273 133.319 1.30762
15.3498 118.288 0.20615
17.4966 125.004 2.89959
8.47265 104 5.93504
15.3274 117.969 -0.0141544
10.5405 102.225 -6.82804
10.9124 104.451 -4.23046
3.66487 83.6435 -9.22878
9.2876 105.4 5.389
4.21456 92.8331 5.66612
20.4044 126.99 -6.20536
20.6191 131.343 1.09376
7.56675 93.4301 -8.89845
10.7861 102.753 -6.17975
9.55596 105.714 5.26188
9.70159 106.002 5.22115
0.727732 81.0529 0.541891
19.0796 127.79 2.39314
12.0363 111.01 3.97471
10.7439 102.178 -6.31883
18.9056 127.084 2.3301
12.1752 108.248 -1.40124
4.45868 92.5522 5.4918
4.08824 91.1991 4.9191
15.758 116.412 -2.25549
12.1737 109.724 2.07381
10.4746 100.892 -6.57948
19.5699 128.22 2.12719
18.5238 125.524 2.0589
20.0296 129.06 1.65628
16.0081 117.893 -0.235324
10.7246 107.149 4.46913
12.2382 108.151 -0.725456
21.4017 128.65 -4.83023
17.3428 121.903 1.68241
15.9926 116.151 -2.69084
20.304 129.036 1.33983
2.06518 84.421 3.31912
22.1542 133.158 0.581676
22.1782 132.565 -0.517248
16.1528 116.863 -1.57777
10.0175 98.6078 -6.91719
17.6951 122.475 1.947
0.708776 74.1651 -9.08176
7.07025 90.1017 -8.74436
9.44003 96.6177 -7.45937
5.56131 86.3022 -8.46342
5.77377 93.9921 5.13155
4.83976 91.4787 4.96687
1.84344 82.346 2.09255
9.87993 97.6321 -6.77187
10.4677 104.945 4.52072
1.78322 81.7628 1.7972
3.88345 88.4345 4.51466
1.68208 81.3328 1.55553
20.9234 124.456 -7.81124
21.9623 128.714 -4.60707
3.84314 88.2058 4.45741
11.6931 107.125 3.33605
16.7571 117.503 -0.950532
11.0469 101.398 -4.3059
2.7645 84.6434 3.28387
21.3852 125.789 -6.73587
3.4619 86.5102 3.76962
5.06826 90.9807 4.81807
16.7396 116.177 -2.68213
9.35346 101.782 5.01177
16.8638 117.191 -1.34186
10.2287 103.772 4.68538
2.1389 79.8117 -2.32083
4.26019 81.8032 -8.49262
3.74468 87.0827 3.99691
2.40972 82.9364 2.50536
2.35889 82.7079 2.38627
18.2944 121.5 0.813011
9.79534 102.365 4.80672
8.08231 98.1989 5.09946
21.6469 129.271 -0.236424
16.9453 116.355 -2.30243
2.5811 83.0417 2.59599
4.86577 89.7354 4.65657
17.726 119.303 0.0203099
18.9986 124.062 3.17134
11.7424 105.902 3.17404
10.3661 103.124 4.5427
2.32225 80.5675 -0.0948129
9.45125 95.0283 -6.36571
8.89619 93.0928 -7.30087
10.568 98.313 -5.29756
22.9334 130.475 -2.88773
7.43885 95.7767 4.72099
10.8169 100.057 -3.09085
6.56593 86.6968 -8.15953
9.32751 100.268 4.70357
6.93494 87.4074 -8.31187
2.6035 79.7737 -2.05941
18.3889 120.319 0.0457356
23.1794 131.266 -1.43744
23.0179 129.663 -3.64537
9.47232 94.6037 -5.93323
3.23185 77.8177 -8.16835
7.47578 88.2065 -8.18064
23.34 130.996 -1.60799
10.4614 101.716 4.15942
17.9487 117.605 -1.0356
22.8364 129.709 -1.17289
11.8025 103.134 0.734527
3.74333 78.3357 -8.04725
6.84325 86.2873 -7.64688
22.4846 126.5 -5.49911
22.9087 129.698 -1.20986
8.06844 89.0818 -7.66234
19.5615 123.374 2.89211
9.50417 93.7357 -5.54813
2.92104 75.8203 -8.19757
11.3219 100.847 -0.558966
9.844 94.671 -5.13417
19.6956 123.109 2.21537
21.0281 120.435 -8.81367
3.96398 83.9489 3.02313
11.6448 102.942 2.67724
3.61543 82.8894 2.7829
8.8419 90.6821 -7.01513
3.5007 82.2518 2.46348
8.0787 88.3837 -7.57346
7.5583 93.3709 4.36339
21.194 120.542 -8.68747
7.6448 87.1995 -7.59728
5.83175 82.5454 -7.67017
11.8818 102.316 1.36777
5.76633 82.266 -7.63336
7.978 87.7801 -7.6424
6.90592 91.3503 4.21527
21.8397 123.566 -5.33145
9.84969 98.0384 3.9275
6.61464 83.8566 -7.55137
18.675 116.986 -1.81053
23.7234 129.106 -2.67593
9.60691 97.3721 4.03391
22.5599 125.023 -4.70395
4.98383 79.391 -7.86235
10.7275 96.3185 -2.86913
7.677 92.1284 4.05069
21.0596 124.594 2.43567
20.8318 124.248 2.89035
19.0967 117.684 -1.06114
11.0831 97.8427 -0.638282
11.1244 99.7555 2.79523
4.83841 84.025 2.90931
19.6822 119.334 -0.372617
23.8705 128.147 -3.36765
9.92211 92.7562 -4.30153
22.2245 122.841 -5.46828
22.4726 126.025 -0.293179
8.50083 87.5615 -6.9037
22.3566 121.956 -7.24297
7.12651 89.5518 3.67487
21.0772 122.762 0.58619
4.33268 76.5082 -7.73484
23.67 128.118 -1.44939
23.8293 128.387 -1.62011
10.5065 94.268 -3.0272
20.0071 119.357 0.139815
11.4153 98.7941 1.86447
10.4674 93.936 -2.69131
9.19811 88.7644 -6.10801
11.3298 98.1769 1.98783
8.59855 92.0162 3.46781
22.6849 121.648 -7.0069
8.51945 91.7354 3.44387
7.15941 88.3524 3.47377
10.3807 93.0815 -2.74793
11.6859 98.0838 1.03995
6.29904 80.2536 -7.1039
10.7164 96.323 2.69485
23.1012 125.573 -0.460854
23.6334 125.742 -2.6556
11.2592 96.7935 1.82702
9.73539 89.5693 -4.44162
6.83478 86.0556 2.82093
10.2765 94.6093 2.89432
6.91207 86.1334 2.80889
4.71635 78.0096 -1.73552
6.50858 84.7369 2.68623
10.1792 93.95 2.83755
23.5135 125.537 -0.149487
11.3296 95.1646 0.279994
10.2585 91.2214 -2.10854
21.5869 121.055 0.91891
8.86684 90.1329 2.74071
22.3817 123.513 2.11292
24.062 125.679 -1.66123
4.84058 76.7417 -2.8585
23.152 121.655 -4.43891
9.48344 91.0969 2.61375
6.5172 78.6652 -6.78909
24.321 125.775 -1.80578
10.2066 92.7372 2.44632
8.18124 87.7443 2.69016
5.62054 76.1991 -6.9277
4.69886 73.4549 -7.55321
8.62157 84.0964 -5.73468
10.5336 92.966 2.05506
6.62227 83.1796 2.20289
7.61035 81.0404 -6.13396
7.75473 85.8796 2.38777
11.4762 94.3015 1.00789
22.9716 123.744 2.37538
5.96581 80.829 1.76442
7.69151 80.675 -6.03971
10.1089 90.8889 1.93388
10.4993 89.7628 -1.8968
24.6368 125.429 -0.768967
10.1572 90.4755 1.73924
24.2402 124.599 -0.240165
24.5294 124.909 -1.00098
24.457 124.52 -1.2038
11.4355 92.8425 0.827297
24.4082 124.524 -0.045345
24.2358 121.976 -2.96564
6.11819 77.7823 -0.594555
11.3137 91.4763 0.754653
23.5171 122.652 2.09509
10.6692 89.9946 1.25959
10.1526 88.7765 1.51761
24.375 122.148 -2.29663
10.6939 89.7112 1.20742
24.3232 122.869 -0.066037
24.864 124.487 0.503421
11.2016 90.2691 0.651066
24.4759 122.253 -1.54755
6.4769 78.0233 -0.0599699
9.94034 84.7306 -3.71198
8.33109 79.8554 -5.30142
11.1625 89.841 0.832032
8.85298 84.399 1.56286
6.45442 76.8765 -1.1342
8.26508 82.8921 1.74196
7.73046 77.7321 -5.4696
10.7655 88.4547 0.99007
7.08864 75.5742 -5.88746
7.4573 80.1331 1.19611
9.38702 81.9957 -4.12551
10.729 87.2456 -0.401211
25.1469 124.187 1.39096
6.89187 77.1894 -0.507655
9.50768 84.3445 1.13571
8.64669 82.222 1.41444
10.5962 86.2028 0.366177
10.4056 84.6216 -1.58396
7.07194 75.4806 -2.92579
10.4572 85.1011 -0.409739
9.80376 82.0532 -2.58879
25.5201 122.483 -0.212882
9.74395 81.3956 -3.33259
8.58528 80.78 1.07197
10.248 83.8516 -0.807091
9.99689 82.9475 -1.29478
7.27474 73.893 -5.53959
9.99961 82.9427 -1.07505
8.17862 76.4395 -4.32889
25.8577 122.674 0.283278
7.73185 74.4016 -5.08448
8.7977 77.9061 -3.45025
8.99562 78.4418 -3.31775
25.8743 122.296 -0.0993248
9.21116 80.6498 0.821012
9.83691 79.7491 -2.92415
8.01054 73.8195 -4.69199
8.51752 74.3048 -2.94965
9.35654 74.2686 -2.64304
9.61084 74.937 -2.38264
9.14369 72.8227 -2.24515
