ply
format ascii 1.0
comment Created by Open3D
element vertex 1771
property double x
property double y
property double z
end_header
12.5732 105.618 5.98625
-13.3059 115.26 -9.19681
-12.7225 115.1 -8.89973
-6.61184 117.246 -9.58421
-24.6543 115.527 -11.9751
-29.0979 109.273 -6.86546
-8.51619 116.118 -8.83444
6.67333 118.73 -7.9029
-16.3712 100.603 4.55242
12.8623 112.593 -0.403414
-28.0119 113.298 -10.3962
8.71302 103.336 7.6949
13.8377 119.152 -6.53868
11.3776 114.693 -2.7249
11.7377 105.348 6.47316
-1.35967 116.444 -7.28105
-20.0823 116.509 -11.6028
3.2241 104.286 5.66207
1.56162 110.412 -0.680102
1.11316 110.764 -1.09469
18.9479 124.695 -10.5782
23.3021 121.928 -6.86542
-28.3192 106.049 -3.11402
-28.4605 106.216 -3.29777
-22.8884 101.978 2.11389
23.6874 121.711 -6.47289
4.05102 106.731 3.64787
-29.0428 107.936 -5.05682
22.16 123.874 -8.89772
-7.42296 105.859 1.95929
11.2303 115.879 -3.55131
6.75669 102.921 8.08629
-3.66403 117.94 -8.89281
11.9662 106.085 6.2413
-27.2711 104.894 -1.53153
14.9415 124.326 -10.8236
14.5024 118.843 -5.57025
1.84299 110.653 -0.471981
9.70334 104.371 7.45987
14.1424 111.342 1.68542
-27.6419 105.479 -2.11381
12.6277 115.665 -2.82726
-29.2791 111.953 -8.73517
18.0824 116.852 -2.67819
2.79007 109.834 0.683907
13.7294 111.6 1.4564
10.9104 120.658 -7.96518
3.49892 103.507 7.09463
-28.7588 107.496 -4.10848
3.98782 118.114 -6.98169
18.9043 116.723 -2.17216
-9.28722 105.46 2.39078
4.14744 107.421 3.62984
14.3155 124.304 -10.4968
-27.1857 105.13 -1.25389
13.1512 114.874 -1.53126
16.1079 125.258 -10.9442
16.6181 117.86 -3.59895
22.1964 124.305 -8.53392
-3.13742 118.047 -8.20306
15.6421 125.154 -10.7612
-28.3993 106.908 -2.94367
-22.4832 102.386 2.85425
-9.52414 116.674 -8.10436
12.2194 114.206 -0.707379
16.9204 125.644 -10.7764
-11.7855 116.408 -8.18474
-4.30806 118.982 -8.95399
-14.0454 104.176 3.25663
8.41925 104.905 7.66688
-6.60986 107.039 2.1684
21.4015 125.07 -9.00921
-8.38453 117.307 -8.21876
-9.08033 116.977 -7.99114
11.0267 106.583 6.71366
22.2784 124.811 -8.47692
-0.660915 117.773 -6.84275
10.6984 118.307 -4.76982
11.2083 118.376 -4.69764
12.9714 114.1 -0.126514
-28.6586 108.958 -4.55873
-14.5193 117.15 -9.30784
14.3726 111.039 3.2774
7.02415 122.365 -9.42018
6.64973 122.143 -9.28059
20.3623 117.122 -1.2399
14.7369 110.075 4.35775
-18.093 101.965 4.81223
9.86988 119.028 -5.43234
-28.4704 107.883 -3.30516
-10.394 116.851 -7.88575
-15.3231 117.324 -9.46307
-22.0571 102.477 3.47053
-18.9662 117.717 -10.6598
17.0754 125.932 -10.4444
12.0482 118.262 -4.10938
9.53058 123.561 -9.77407
15.6141 125.705 -10.4674
-14.6723 104.395 3.40556
2.89049 118.213 -6.0472
-15.1898 117.411 -9.38151
7.32945 122.805 -9.44871
14.8262 118.859 -3.86425
-10.8621 106.17 2.65286
-9.20367 106.847 2.42751
6.06888 121.065 -7.93015
13.4358 117.509 -2.77539
6.06833 121.663 -8.49841
13.8107 121.114 -6.18702
14.2426 120.494 -5.41497
-0.817456 112.695 -1.24052
-5.90776 108.755 1.4463
1.46608 112.899 -0.901361
24.2437 122.599 -5.14747
-7.55748 107.296 2.51538
14.2589 109.81 5.04596
9.86537 123.184 -8.96429
13.531 117.687 -2.7625
-14.8704 104.717 3.44279
3.6689 119.305 -6.52126
12.0071 107.796 6.59904
12.7745 118.476 -3.62773
2.18675 112.621 -0.312985
6.84558 104.94 8.23149
-24.8369 104.546 1.46984
10.3827 120.14 -5.69135
-1.94509 112.622 -1.16297
-19.9469 102.124 4.99749
1.12454 113.149 -0.938368
-2.13453 118.975 -7.29711
5.89122 120.839 -7.28528
-18.2876 102.919 4.72186
-27.8639 115.636 -9.84294
14.8583 125.928 -10.1174
4.38149 107.396 5.57027
4.10095 110.481 2.51658
-28.243 110.258 -4.62077
-10.2347 117.533 -7.58
13.9109 111.839 3.47505
19.7794 117.605 -0.779044
-5.05715 119.851 -8.60668
-24.12 118.259 -11.3715
-0.845905 118.876 -6.59889
24.0713 123.007 -4.90473
13.0704 122.262 -6.65198
11.3508 120.241 -5.03945
21.5902 117.505 -0.0279143
18.0524 126.478 -9.56911
-28.6992 114.807 -8.84392
-19.1248 102.669 5.16629
4.26463 110.693 2.72707
22.5898 125.754 -7.68819
-1.58142 113.366 -1.08814
5.68853 122.214 -8.02938
-13.8105 106.203 3.23234
-27.5442 116.479 -9.86596
-28.127 108.941 -2.64893
23.688 123.561 -5.08322
21.5771 126.468 -8.39437
13.7626 114.164 1.86116
12.9349 109.366 6.3507
4.47168 108.096 5.70598
-5.57311 120.069 -8.16415
-19.3478 118.856 -10.027
-1.67206 119.867 -6.94653
-18.6808 103.638 4.99336
15.177 118.73 -1.98111
-12.9713 107.007 3.06798
10.7337 121.687 -5.83143
-22.6106 104.17 3.64061
-8.11982 118.864 -7.36822
-10.875 118.216 -7.31498
9.51118 123.866 -8.17102
-19.9964 119.069 -10.1606
-8.95965 108.135 3.01295
-0.186463 114.334 -1.01375
-24.6142 118.955 -11.0739
-5.05031 111.473 0.696747
14.3546 112.359 4.25728
-9.17678 118.625 -7.18899
12.932 121.867 -5.30683
4.63323 111.237 3.16895
23.0729 118.248 0.545939
3.18467 119.924 -5.60562
-19.5325 103.393 5.33182
-19.6372 103.426 5.29909
9.04962 107.513 7.85982
17.7629 127.095 -9.22448
2.80642 114.072 0.0577372
-29.5939 113.747 -6.98284
0.545078 119.42 -5.6224
-3.91298 120.776 -7.92131
-1.56558 120.232 -6.85375
13.6734 110.626 5.97279
3.57206 113.446 0.955305
-15.0665 118.864 -8.53071
9.45365 108.062 7.63452
12.5933 122.352 -5.56483
14.9464 119.415 -2.1571
14.5977 112.447 4.55394
3.70536 113.447 1.10322
15.02 118.163 -0.869257
22.9885 126.137 -6.80494
13.2744 126.057 -8.90766
8.47479 125.417 -9.34975
-25.0581 119.138 -10.7799
-12.9491 119.018 -7.89223
-5.96231 120.473 -7.70757
5.14054 106.913 8.0283
9.88294 122.96 -6.51947
-27.8965 110.471 -2.95304
2.16194 115.088 -0.396709
-26.7088 107.841 0.0871431
0.229727 115.172 -0.901875
-19.1745 104.269 5.36408
26.4119 123.557 -2.93816
-25.9144 118.938 -10.3429
-4.89338 112.7 0.58327
-5.72671 120.964 -7.606
7.93773 125.976 -9.35104
-15.5555 107.076 3.72488
-21.647 120.177 -10.4177
4.8056 110.815 4.73515
-20.526 104.625 5.00638
-14.3196 107.781 3.39111
8.41691 126.342 -9.50123
-28.0674 117.501 -9.13609
0.949812 120.277 -5.20101
3.96775 114.283 1.33088
-29.17 115.61 -7.48104
-4.25422 113.629 0.132115
13.5117 120.498 -2.50931
-8.50149 109.334 3.36452
-26.0167 107.68 0.988735
4.97638 122.542 -6.42411
4.19226 121.651 -5.72932
4.84464 110.426 5.35703
-3.26956 114.551 -0.500164
4.07802 121.608 -5.64133
3.74728 114.705 1.05235
-3.04013 114.842 -0.618531
9.98607 126.456 -8.95592
14.5387 119.749 -1.37941
-15.5955 107.489 3.78461
13.1267 121.66 -3.38117
3.07276 115.798 0.0589078
-28.7322 113.517 -4.94011
-17.2867 120.466 -9.09069
12.6669 121.636 -3.40477
-3.09842 114.98 -0.505316
23.8704 126.362 -5.40205
7.85348 126.866 -9.48694
14.9026 119.229 -0.432758
14.187 113.614 4.92066
1.38382 120.71 -4.88254
19.449 119.189 0.734225
23.9931 124.436 -3.33335
-28.9369 116.604 -7.75387
-29.4016 114.538 -5.8288
19.0401 128.071 -7.93985
-15.4855 107.981 3.78912
12.1919 123.303 -4.82907
13.1169 121.068 -2.38821
-25.706 107.953 1.55742
14.1645 117.528 1.3273
13.815 112.947 5.74167
14.13 114.112 4.78019
9.77253 109.878 7.91661
4.6549 123.555 -6.52622
13.3987 115.737 3.10231
-8.66666 120.395 -6.45864
-6.17113 112.438 1.90031
14.7218 120.691 -1.35516
18.3993 119.328 0.846049
18.875 119.404 0.89179
8.52148 109.319 8.35871
25.0276 124.266 -2.41033
12.1312 124.736 -5.80387
-2.48876 122.372 -6.80643
-21.8605 121.124 -9.99209
12.5716 123.598 -4.53651
-26.4986 119.831 -9.73863
23.7917 125.921 -4.20669
3.22248 116.602 0.200577
23.9526 126.299 -4.51753
9.95233 125.457 -6.86663
13.8981 122.258 -2.8417
16.1284 119.553 0.305521
8.14756 127.717 -9.4443
-21.8805 106.019 4.85644
-4.29102 122.51 -7.15822
-27.827 118.233 -8.33187
15.1313 120.498 -0.744748
9.54564 127.824 -9.14595
13.5154 113.156 6.07207
13.8591 122.56 -3.00617
6.15217 126.721 -8.79545
15.4162 119.748 0.117414
9.64648 124.814 -6.09553
25.6791 124.044 -1.69288
11.205 124.69 -5.60694
6.33328 109.026 8.56887
11.445 122.95 -3.81994
23.7341 128.033 -5.93924
4.38916 123.763 -6.16601
23.454 120.764 1.12638
15.378 119.826 0.271611
10.0382 110.59 8.05473
5.01752 112.232 5.35326
-21.3912 106.347 5.13992
15.2827 119.73 0.468125
-29.5466 116.076 -6.16255
24.8069 121.304 1.12711
26.9332 123.67 -0.662436
24.4262 128.102 -5.53715
-25.5464 108.839 1.85099
12.7822 116.402 3.21734
24.8871 124.504 -1.90276
5.29925 111.344 6.49396
-25.3055 108.719 2.08541
4.33154 124.852 -6.87168
3.72099 117.122 0.527083
-8.10565 110.984 3.82418
25.092 124.53 -1.79614
23.5474 128.374 -5.88494
-2.29352 116.802 -0.477964
25.2861 121.506 1.22703
16.8438 119.937 0.84018
-12.7545 121.029 -6.95415
19.1611 128.937 -7.36548
-23.6437 107.774 3.54305
10.0002 128.465 -8.90842
-17.3088 108.228 4.59933
6.69166 127.707 -8.84207
10.1885 126.081 -6.39945
9.97147 125.607 -5.96918
-28.3168 114.227 -3.56981
11.8285 122.214 -2.19244
-14.5427 109.985 3.73621
-23.0083 107.661 4.10237
13.1267 116.127 4.15138
-5.45015 114.356 1.68083
14.1179 122.518 -1.76602
5.75832 110.839 7.71415
-10.8171 121.288 -6.22816
-0.339502 122.696 -5.17918
2.02984 122.723 -4.65851
-0.588873 122.762 -5.26346
12.6403 128.214 -7.44835
-15.1684 121.471 -7.19787
0.00140728 118.329 -0.671361
8.38243 110.546 8.82862
-27.2019 119.114 -7.61558
-14.0761 110.544 3.74719
18.9194 129.525 -7.21889
13.9837 120.654 0.313366
10.5048 126.483 -6.12365
-14.386 110.476 3.80157
-13.4207 121.585 -6.78673
-11.8089 111.249 3.66745
-18.5307 122.687 -8.98631
-7.4124 112.634 3.33751
28.4645 123.523 0.928895
22.7165 121.741 1.37134
-19.8016 107.624 5.46777
3.91893 125.01 -6.06301
3.79691 124.549 -5.63318
10.8924 126.368 -5.76465
-7.77544 112.296 3.69771
4.56733 126.55 -7.35656
-26.4565 112.741 -0.971856
11.5242 127.159 -6.32313
10.6989 125.522 -4.88577
-25.7525 121.441 -9.18527
-24.1905 109.012 3.28841
4.81863 127.075 -7.68913
-2.81997 124.042 -6.47116
21.7548 129.429 -6.11813
5.4271 114.894 4.35804
13.6024 121.08 0.204131
-18.8135 122.849 -8.88982
-17.0994 109.509 4.53417
-12.0185 111.548 3.70712
13.2692 121.26 0.052885
22.7065 129.485 -5.80343
25.7129 127.942 -3.61041
10.601 126.138 -5.29228
17.5544 130.245 -7.60751
4.8852 117.319 2.11207
-26.4723 111.907 0.264328
23.521 122.519 1.32054
6.64458 111.226 8.49096
13.4518 123.1 -1.52161
12.3803 116.929 4.24824
-15.1797 110.77 4.02433
19.5845 121.156 1.84321
10.9818 127.458 -6.16953
10.4201 129.961 -8.73461
8.04006 111.477 8.77245
14.0583 121.402 0.476741
-26.2037 121.118 -8.40278
14.4341 121.219 0.753864
17.2409 130.441 -7.56462
15.2647 121.059 1.24096
25.7706 123.179 1.56926
16.0546 130.512 -7.77323
-27.6822 119.312 -6.8246
25.7178 123.186 1.56494
-1.91877 118.47 -0.132948
-18.0524 109.439 4.9997
13.2543 119.045 2.81857
-1.14076 124.06 -5.3241
4.85938 127.933 -7.70414
-5.44669 115.418 2.14398
3.70399 125.572 -5.64346
-10.5263 122.53 -5.87015
11.8386 113.887 7.67185
-26.1043 111.384 1.49521
-18.9017 123.438 -8.59868
12.9955 130.039 -7.74257
21.3932 122.31 1.71622
-12.2599 122.622 -6.23847
20.8279 130.033 -5.90718
12.9207 116.356 5.66111
-27.0495 120.608 -7.57969
-27.3088 114.858 -2.02842
24.4465 123.388 1.49562
-3.95141 117.2 1.08572
5.66973 113.95 6.49667
10.7909 123.507 -1.61678
25.5133 129.159 -3.76449
17.9147 130.81 -7.0378
-26.7831 121.173 -7.79552
13.0649 116.151 6.18807
-10.6178 122.949 -5.81084
-8.72508 123.16 -5.56725
5.64753 114.483 6.1771
-3.96308 117.401 1.18553
22.0478 130.165 -5.28105
10.3194 126.2 -4.0782
9.83038 131.174 -9.03043
9.76399 113.068 8.59061
25.8211 127.039 -1.33575
13.9797 120.048 2.80787
24.1667 130.248 -4.80403
17.6942 121.723 2.0313
25.721 129.038 -3.2512
-12.7038 112.667 3.94652
-0.487053 124.534 -4.82885
4.9086 128.637 -7.58228
12.0691 126.553 -3.87019
-0.49135 124.659 -4.82055
10.1335 125.639 -3.33255
-10.2805 112.991 4.3396
24.2257 127.381 -1.754
12.9829 122.037 0.895325
10.6882 127.924 -5.35709
6.36851 113.22 7.9998
-24.4753 110.666 3.46776
-26.2386 112.631 1.16064
22.0878 123.147 1.96347
15.5062 131.478 -7.61812
10.6639 128.895 -6.15927
-11.215 123.48 -5.84482
-25.2121 111.558 2.58147
12.5212 122.553 0.489185
24.9064 130.006 -3.94423
3.34327 125.856 -4.77061
4.06918 120.049 1.05376
5.90654 114.305 7.07237
-23.3427 110.201 4.42317
25.453 126.668 -0.501043
-8.50045 123.742 -5.36907
12.5622 116.786 6.25026
5.14677 119.537 1.92633
-4.28992 124.65 -5.18614
-27.9072 116.464 -2.58479
10.6124 129.135 -6.14634
-0.569189 125.185 -4.80468
-3.40465 125.148 -5.38877
12.6619 127.087 -3.58528
15.8654 123.405 0.742306
11.6249 129.405 -6.052
-22.9097 124.236 -8.87035
-22.0053 124.34 -8.74432
-29.2579 118.72 -4.90947
18.1677 122.341 2.37572
25.7034 124.789 1.78322
11.0317 114.783 8.22337
12.7061 124.769 -1.10249
2.38464 121.145 0.0805304
10.6467 129.978 -6.58884
2.357 121.209 0.0717464
-13.6743 113.272 4.17461
-27.6447 120.332 -5.86198
1.89676 125.428 -4.03541
-6.12942 124.674 -5.09939
-13.1857 113.57 4.14914
-8.25838 124.28 -5.15243
-27.3921 121.542 -6.82125
-20.2995 110.351 5.70801
14.0087 123.378 0.861385
15.3128 122.619 1.9022
12.6456 125.755 -1.7602
11.9042 118.382 5.26114
2.36243 121.458 0.102055
9.88764 126.311 -2.90047
-15.9697 112.52 4.69288
-27.302 121.687 -6.81217
11.5033 128.098 -4.21779
4.65125 120.532 1.60123
11.9534 129.238 -5.2156
22.9083 126.218 0.226734
17.7611 122.651 2.53317
19.1305 131.723 -5.9779
12.2931 122.69 1.28783
-16.3435 112.357 4.8338
10.8104 124.059 -0.378864
-16.8 112.106 4.97771
11.891 122.959 0.969562
-17.5929 125.065 -7.79218
-27.5184 120.738 -5.83312
25.2027 129.577 -2.40721
-6.52389 115.931 3.67963
13.9742 120.935 3.51324
-17.6799 125.19 -7.81873
-3.32344 119.402 1.10521
-0.604597 125.971 -4.6697
-23.3045 111.048 4.71076
-2.93563 119.915 0.752134
12.6985 128.057 -3.60604
13.5666 123.666 0.885472
-27.8957 120.456 -5.40563
15.5748 123.593 1.44592
8.91164 114.553 8.74057
15.1536 124.439 0.56605
15.3573 123.438 1.59167
-9.54143 124.701 -5.27267
5.10184 120.693 1.99512
-23.9027 124.274 -8.06734
6.08299 116.246 6.58821
15.5705 123.068 2.12849
15.0307 122.621 2.46668
-17.1274 125.084 -7.23517
3.99748 121.544 1.0278
23.6121 127.375 -0.176431
-6.29164 116.486 3.62455
1.87712 122.231 -0.0896734
13.4651 127.865 -2.92226
3.85885 121.704 0.913599
2.5797 122.107 0.28464
-0.234348 121.859 -0.071188
15.0336 124.736 0.609067
9.7955 126.66 -2.42835
5.28693 120.997 2.08755
11.8173 118.111 6.41197
6.17896 117.755 5.47562
-25.8983 115.753 0.129494
10.9621 124.02 0.480835
2.91721 122.207 0.416195
8.77744 115.04 8.76315
-15.3073 113.783 4.51008
3.94666 129.862 -6.75365
15.7729 125.206 0.486137
7.82132 114.893 8.74596
8.28564 132.111 -7.90175
-9.3768 125.153 -5.12593
-0.547611 121.894 0.0644023
-5.6862 117.406 3.27198
-14.5456 124.824 -5.91283
-24.1452 112.027 4.39726
22.9165 131.966 -4.29855
6.1354 119.458 4.06469
13.2748 131.58 -6.09896
-22.208 125.382 -8.09122
13.8301 132.254 -6.57128
-8.25809 115.514 4.70659
-21.9683 111.226 5.76041
14.8679 133.533 -7.56859
-9.71224 114.983 4.91342
-26.0443 122.864 -6.47163
-8.80236 125.35 -4.94917
20.9582 124.141 3.01619
19.4174 132.613 -5.57337
-18.4784 112.242 5.65091
-20.7638 125.782 -8.0387
16.0376 123.6 2.4749
-12.337 114.743 4.65258
2.69657 122.754 0.274771
-25.922 115.102 1.2105
-19.4652 111.93 5.77837
-12.1187 125.162 -5.43365
-26.4289 122.813 -6.35734
5.2053 121.742 1.90959
21.2902 125.877 1.59328
13.3183 127.571 -1.75995
-24.9173 124.937 -7.87847
-8.9111 115.6 4.88539
-24.0982 112.472 4.51747
-20.0165 112.202 5.7305
16.7246 133.556 -6.69379
1.75005 123.396 -0.179654
15.6574 125.304 1.13668
14.9288 123.262 2.97771
-4.614 119.088 2.61549
6.68525 116.405 7.82223
2.04635 127.332 -3.8242
6.3448 119.033 5.2443
8.95496 116.046 8.77229
19.6302 133.161 -5.43064
-7.41919 116.734 4.46017
-18.9178 112.757 5.75341
-25.4249 114.823 2.28385
-22.3373 125.964 -7.81708
20.6941 126.077 1.876
11.5155 131.655 -5.63712
-19.3755 127.228 -8.35525
13.3905 132.154 -5.65114
-17.0497 113.857 5.25487
20.118 133.262 -5.15552
23.0825 129.09 -0.375779
1.25798 123.757 -0.149826
12.1691 127.171 -0.978313
17.3462 134.002 -6.44734
11.7 124.841 1.1992
16.6035 134.238 -6.82091
15.467 124.708 2.22866
5.6588 122.529 2.12953
-24.8443 114.385 3.12355
11.3802 133.364 -7.09018
-23.2313 112.533 5.33141
-24.3306 113.696 3.97831
22.9303 129.073 -0.234633
21.9386 127.511 1.08734
11.2286 131.48 -5.17585
11.6919 125.065 1.18282
6.94324 116.922 8.04088
-21.192 112.826 5.63355
11.8398 126.188 0.148937
22.3527 127.988 0.797565
-5.61202 126.75 -4.33852
-14.1903 126.195 -5.73385
5.29117 123.037 1.79056
16.5496 134.636 -6.9252
23.5462 132.593 -3.33119
-20.5239 127.187 -8.09827
7.27623 116.868 8.33658
11.2423 125.266 1.08166
-21.941 112.788 5.68313
0.0368466 127.903 -4.02808
6.38592 118.673 6.43731
6.43023 119.205 5.96013
18.5946 124.444 3.64686
13.1955 128.715 -1.73867
4.15862 123.945 0.86864
15.4246 124.974 2.44094
2.05704 128.088 -3.62688
11.0926 125.543 0.924942
21.8836 127.829 1.18122
17.0243 124.446 3.38238
-6.98286 126.689 -4.26499
15.434 125.048 2.44735
13.6081 122.642 4.40373
11.8882 126.988 -0.171011
-15.9008 127.348 -6.81863
10.0128 134.974 -8.34123
12.9169 132.539 -5.29452
-21.5337 113.269 5.6339
11.5322 129.678 -2.81572
-9.87226 126.733 -4.817
-21.8906 126.993 -7.7932
22.4534 133.413 -3.94188
-24.1608 125.334 -6.64803
-15.5536 127.556 -6.8172
-29.1998 119.978 -2.53597
4.26282 124.322 0.869162
13.8565 133.172 -5.56199
11.6752 125.826 1.12133
12.5303 129.892 -2.62217
12.8182 130.603 -3.19137
-21.9694 127.244 -7.77782
-5.7068 127.259 -4.08293
12.6969 127.835 -0.441259
6.54898 120.237 5.56743
11.6821 134.366 -7.01702
-29.4288 120.527 -2.83666
18.8548 125.028 3.79168
22.882 131.013 -1.11556
6.7503 133.307 -7.00643
-26.3248 125.246 -6.68244
-15.6023 128.194 -7.09294
-22.6746 126.887 -7.35561
23.5135 131.469 -1.28258
20.4807 127.418 1.98111
13.9822 133.662 -5.52905
-20.3012 127.945 -7.74131
12.1369 127.49 0.0976265
15.5796 126.317 2.02468
-18.2441 128.204 -7.51146
0.838269 128.499 -3.44857
-27.7166 122.63 -4.19776
-18.4467 128.45 -7.68425
16.1017 126.446 2.23003
21.8221 129.437 0.623856
21.2659 134.268 -4.19182
13.3588 132.55 -4.31178
15.5771 135.535 -6.70163
12.0441 134.134 -6.12692
-0.605519 129.046 -4.03888
-25.0366 115.89 3.21118
11.8142 131.548 -3.63332
9.93232 135.964 -8.313
-22.7169 127.331 -7.28195
-6.85868 118.845 4.65675
12.9663 124.366 3.79592
-17.8556 115.406 5.52549
-24.7526 116.737 2.66155
-24.4388 115.265 4.16778
-23.4559 114.006 5.62507
-20.2804 114.638 5.75273
-24.3757 115.244 4.28291
16.1958 126.736 2.33763
-26.7192 124.957 -5.69367
-22.072 127.665 -7.25542
-22.8558 127.698 -7.38233
6.57391 122.804 4.08862
15.03 126.861 2.07304
13.2143 133.966 -5.25558
-11.665 117.105 5.51422
-16.1543 130.257 -8.30887
-29.26 122.116 -3.32494
13.9787 134.733 -5.73818
5.59957 133.546 -6.48246
6.93324 134.435 -6.99526
11.9246 121.583 6.66237
-25.3432 126.523 -6.58121
19.6346 127.717 2.51419
-23.0204 127.811 -7.28639
12.4489 135.15 -6.33926
-25.049 117.639 2.20605
21.6906 130.248 0.581093
8.4904 118.887 8.65014
-16.1615 130.945 -8.68743
-14.9847 130.758 -8.23306
23.3863 133.487 -2.14957
-22.6329 127.15 -6.44131
12.7641 132.946 -4.02233
20.1371 135.621 -4.91939
-14.2828 129.777 -7.03676
15.6102 127.133 2.37169
-1.67345 129.247 -3.60698
-11.063 128.609 -5.11697
-13.4672 129.393 -6.41942
22.9424 133.859 -2.40528
-14.8118 131.398 -8.57667
-27.0853 124.254 -4.39246
7.82738 135.599 -7.47729
4.38371 126.377 0.745044
-22.6394 128.178 -7.15962
-18.4741 129.222 -7.21887
9.3677 119.412 8.68307
-6.57019 128.763 -4.01544
6.233 134.631 -6.8139
4.72409 133.76 -6.30889
-21.8236 127.75 -6.45822
-14.5857 131.597 -8.54756
-0.763385 125.075 0.963152
12.9002 134.914 -5.46202
6.78341 123.704 4.10177
-13.8179 130.221 -6.9278
21.9604 131.805 -0.320736
-6.05794 129.034 -3.99385
10.0773 137.101 -8.16472
13.5198 134.74 -5.07056
-21.6832 128.228 -6.7055
10.2108 120.323 8.30523
18.662 127.216 3.55915
10.8494 136.861 -7.59522
-20.1343 115.688 5.98245
12.241 135.945 -6.35059
5.94673 125.849 2.05542
-28.363 120.672 -0.713476
-12.8783 130.251 -6.47414
-7.45981 119.821 4.9326
-21.1299 128.708 -6.83535
-28.1101 120.314 -0.221804
17.0145 127.375 3.18201
-27.3958 120.153 0.18687
10.6896 122.178 6.9052
12.3188 133.988 -4.22078
6.70507 135.439 -6.8969
2.9047 133.081 -5.45972
-18.485 130.217 -7.52078
-27.4011 124.664 -4.10583
20.7918 129.881 1.79149
-26.9949 125.059 -4.38545
11.6244 136.34 -6.5471
-17.6171 130.468 -7.48607
-1.42188 125.121 1.41164
5.61209 126.583 1.60415
11.9876 133.621 -3.7465
5.55506 126.705 1.53777
-13.3218 132.017 -7.90851
-0.853815 130.263 -3.35929
11.596 124.609 4.98392
-26.346 118.797 2.00564
7.67325 136.43 -7.4021
2.45887 132.397 -4.66205
-17.079 117.378 5.52008
20.475 129.808 2.02021
7.30525 121.077 7.55322
-6.56699 120.601 4.86686
-13.3366 132.383 -8.14132
-1.39632 125.318 1.46868
9.10926 137.675 -8.1611
1.03245 126.963 0.48786
21.5523 135.441 -3.09659
-5.112 122.169 3.76688
12.0689 134.816 -4.59465
12.8663 135.331 -4.90079
-1.00466 125.676 1.34565
-19.8117 116.519 6.01114
-24.135 128.521 -6.66129
-16.0515 132.372 -8.55062
-20.9281 116.162 6.1605
-12.5704 132.266 -7.61514
15.489 136.756 -5.59367
-16.3089 132.393 -8.53569
-9.68386 130.874 -5.49542
6.94028 122.593 6.39077
15.9229 136.81 -5.39522
-24.2693 117.07 4.68222
-8.76966 120.174 5.19801
-24.3458 118.181 3.5942
-2.88035 130.768 -3.76307
7.95496 121.006 8.22113
18.7824 128.556 3.34973
23.1735 133.857 -0.787741
4.581 135.337 -6.45751
-24.8862 128.399 -6.3775
-6.42166 121.193 4.84815
-11.8815 132.459 -7.34413
-10.5058 131.688 -6.21867
-24.7134 128.635 -6.4738
10.6771 124.273 5.83907
-0.88982 126.104 1.42594
-27.4347 124.741 -3.28659
-9.98569 131.435 -5.81822
-28.8362 123.829 -2.67451
-3.66717 131.077 -3.99967
11.3614 125.187 5.18561
10.0919 123.614 6.46196
-17.3274 131.735 -7.64307
-24.7952 128.686 -6.34898
-23.4813 129.202 -6.52521
6.9143 125.498 4.02808
21.4853 135.726 -2.59152
7.00712 125.152 4.43366
16.5598 137.083 -5.00887
-24.2845 118.15 4.13856
19.5127 137.377 -4.60709
-13.8153 118.609 6.09187
4.7524 135.955 -6.564
-6.25082 121.725 4.79165
-1.59301 125.887 1.80988
5.53027 136.407 -6.70028
-13.7215 134.092 -8.80827
-0.0240569 131.453 -3.11483
-0.3856 131.307 -3.02973
10.047 138.239 -7.39253
-5.13506 122.932 4.06224
-9.76347 120.534 5.36761
-30.7972 125.919 -4.65312
6.61142 127.071 2.75064
2.47898 133.564 -4.49248
-20.3463 130.555 -6.75485
-20.0257 117.509 6.0259
-1.92177 125.839 2.0959
18.6751 129.894 2.86679
3.64474 135.373 -5.72385
-4.124 131.922 -4.11058
12.9241 126.899 4.69198
-5.56511 131.73 -4.13993
-25.144 128.04 -4.93305
-5.59626 131.841 -4.14985
21.0543 133.308 0.535669
-33.542 124.313 -3.13138
9.10564 123.449 7.4482
3.9361 129.382 0.560517
-6.11271 122.641 4.84773
12.3175 126.645 5.14594
-10.6529 133.902 -7.11414
-7.79112 132.179 -4.76018
19.1511 138.055 -4.27275
15.1896 129.212 3.46941
-2.10946 132.295 -3.44255
6.34916 128.586 2.17523
6.18845 128.891 1.91078
-4.63904 132.696 -4.20566
-9.40944 133.359 -5.91122
18.5896 132.014 1.88354
8.53731 139.397 -7.57812
-31.6535 124.704 -2.32064
19.3211 138.397 -4.03811
-13.636 135.204 -8.39257
-10.2146 134.845 -7.21753
-26.0077 128.868 -4.9741
-25.2658 128.444 -4.31864
6.87414 128.347 3.09946
-6.07569 133.069 -4.41138
-12.1865 135.495 -8.15598
-28.7607 123.567 -0.310398
19.1567 138.509 -3.93649
-25.0585 128.69 -4.40679
-30.4184 126.381 -3.37771
-10.2113 135.447 -7.59156
-28.0752 127.88 -4.28948
-23.1258 130.59 -5.79739
-28.3695 127.908 -4.37455
-10.2387 135.697 -7.77291
1.50445 134.112 -3.55355
-3.52726 133.369 -3.97132
-20.3342 131.837 -6.30403
20.1865 133.82 1.01593
-22.5289 118.382 6.326
-5.4896 124.137 4.62414
-6.3015 133.331 -4.50649
-29.4008 126.91 -3.49062
17.3076 131.374 2.80876
-25.9759 128.903 -4.6044
10.8893 126.343 6.34036
-20.1375 132.212 -6.42951
-27.5715 126.591 -2.63741
-4.71739 133.651 -4.30619
11.4184 139.183 -6.00808
-26.8293 128.973 -4.76454
15.1433 138.559 -4.54239
-26.6855 128.702 -4.4631
3.83307 137.249 -5.82609
-5.51329 133.653 -4.4314
14.7834 130.116 3.63807
-11.5125 121.906 5.72665
-29.5859 126.127 -2.3451
13.9743 129.978 3.83799
-29.3271 128.851 -4.90529
7.57966 125.504 6.76315
7.10866 127.013 5.19601
-28.9283 125.444 -1.46916
12.8548 129.259 4.36449
7.83063 124.342 8.04297
-10.0421 136.476 -7.84067
-30.0578 125.277 -1.47588
-26.3933 128.964 -4.21917
-9.5072 123.02 5.41583
7.54383 139.995 -7.21865
-31.4313 125.809 -2.27086
-35.2544 125.189 -2.52152
-2.75879 133.807 -3.50923
6.93465 128.104 4.26143
-9.19619 136.12 -7.21095
-5.81751 134.273 -4.61416
-29.2072 127.463 -3.25668
-30.4725 127.02 -3.05845
-23.7943 119.484 5.85179
-6.83734 134.423 -4.80269
17.2856 132.535 2.54369
-8.96269 123.66 5.26672
-26.8894 128.875 -3.88586
0.927626 129.765 1.60508
12.4114 139.01 -4.7489
-1.30022 128.178 2.73084
19.7435 139.352 -3.35792
-21.271 119.407 6.73098
-14.0702 121.569 6.32129
-26.5141 130.176 -4.86847
-11.9357 137.012 -8.18026
-19.1626 120.605 6.22378
9.99692 126.642 6.99009
5.72427 131.647 1.1555
-23.3076 119.874 6.02027
-13.6564 136.304 -7.7631
-8.73931 136.817 -7.13929
16.0508 131.721 3.4974
6.95789 129.97 3.15283
-14.824 121.663 6.29934
12.3195 138.535 -3.91471
-24.8491 120.62 5.07683
-29.4135 129.163 -4.28174
-27.0758 123.721 1.60342
-29.1618 128.734 -3.74226
0.882077 130.071 1.80508
-28.5191 129.128 -3.9588
-5.25115 125.808 4.60861
-2.88735 127.521 3.49147
16.9397 132.941 2.72729
12.7129 129.999 4.64322
-6.8602 135.604 -5.25401
-28.2704 129.692 -4.34259
10.6472 127.99 6.18557
-29.3407 128.764 -3.67065
-0.887526 128.83 2.78591
10.8763 128.75 5.57933
-31.2348 126.562 -1.86379
-32.5462 126.077 -1.68779
15.0033 139.434 -3.86607
-11.3116 123.308 5.84882
17.5901 133.459 2.55154
-7.5176 124.8 5.27752
-7.7487 136.832 -6.46823
13.0903 138.827 -3.63709
-30.2366 128.243 -3.15115
-20.0035 133.934 -6.36178
-12.0155 137.622 -8.13103
12.7214 138.262 -3.11789
-20.1222 133.911 -6.34779
-25.9712 130.12 -3.95595
1.40726 135.845 -3.28943
-22.2448 120.449 6.33551
-33.3357 126.348 -1.882
-9.48978 137.797 -7.56094
-28.6946 129.134 -3.49607
-21.2817 120.183 6.91574
-28.6347 125.062 0.500846
-26.2389 130.071 -3.816
20.2621 139.825 -2.59423
-21.5318 120.55 6.69192
-32.8557 126.25 -1.4357
-29.7117 130.169 -4.53658
-0.0401142 129.776 2.60736
-28.7505 129.278 -3.43964
-31.7172 128.668 -3.50805
-1.1113 135.128 -2.82947
-23.894 133.734 -6.59302
-25.6215 122.103 4.35124
10.126 128.298 6.48509
11.9276 139.771 -4.25388
-2.5148 135.636 -3.47803
-18.7221 134.465 -6.0143
-16.2747 135.368 -6.31981
-9.70868 138.284 -7.6262
-31.3281 126.056 -0.63225
-27.9746 129.693 -3.40393
-28.9411 129.092 -3.03151
-26.9574 129.981 -3.44395
10.0964 128.473 6.4844
10.6082 129.304 5.79968
-8.95382 138.143 -7.26203
-8.43663 137.957 -6.95735
-31.3526 128.562 -3.00558
-25.6322 132.146 -5.17234
-6.05731 136.391 -4.81506
16.5582 140.253 -3.41891
-27.7305 132.209 -5.6553
-36.2995 125.944 -1.49928
-11.0849 124.218 5.94
-19.1802 134.686 -6.04223
-27.1451 132.583 -5.7289
-11.1705 124.299 5.99262
11.689 138.807 -2.92244
-28.0698 132.096 -5.41583
11.6393 140.789 -4.8371
-31.6587 128.474 -2.68441
-4.60732 127.374 4.55094
-3.76566 127.95 4.18923
-31.8098 129.188 -3.3844
6.92683 131.219 3.48678
21.2855 137.253 0.886078
-22.6162 132.501 -4.46621
-27.7142 128.83 -2.04445
-15.0593 136.871 -6.9856
-3.00574 128.463 3.95825
14.0095 132.027 4.38467
-28.5757 131.678 -4.91211
11.1791 130.253 5.53826
17.1625 134.578 2.70229
13.7103 131.815 4.63562
-28.2471 125.571 1.17979
-6.49204 138.371 -6.33215
6.59928 132.69 2.19901
-21.7933 134.45 -5.97321
-24.2166 122.76 4.8748
-14.826 137.287 -7.1287
-25.9438 123.354 3.92174
2.47345 138.099 -3.95006
-26.6047 124.688 2.55579
-25.8769 133.418 -5.76687
20.7505 140.257 -1.80035
-25.1213 134.295 -6.43813
-14.3258 123.6 6.44525
6.1606 133.924 1.06525
15.9945 134.331 2.91237
-36.0352 126.59 -1.34947
-36.5621 126.367 -1.2491
10.7701 130.122 5.89257
-19.5196 122.203 6.70866
-29.418 131.289 -4.39231
14.369 132.907 4.04966
10.8005 141.784 -5.39749
-27.754 129.317 -2.01714
19.3678 136.154 2.05694
-28.3621 132.519 -5.25851
-28.0453 128.788 -1.47449
-20.2636 134.924 -5.6669
-36.9572 126.335 -1.06394
-11.3386 124.891 6.18387
-8.20047 139.057 -6.89579
-36.1015 126.785 -1.26659
-30.7723 130.819 -3.92693
-16.3893 123.653 6.33908
8.2511 128.741 7.00302
-3.9059 128.571 4.40951
18.9687 136.293 2.10635
7.63133 128.696 6.92618
2.32929 138.377 -3.68909
-20.4082 122.131 6.99922
1.99396 138.032 -3.36901
2.26174 133.074 1.52725
-27.4815 125.839 1.80143
14.2026 133.317 4.07606
-16.596 136.346 -5.8798
-33.3967 128.454 -1.99799
10.0709 142.755 -6.0028
21.6646 138.501 0.781134
1.16167 131.956 2.50877
-11.1562 125.343 6.17864
8.99385 129.248 6.99746
21.1102 137.969 1.29443
-27.6386 130.454 -2.48628
-16.0462 137.126 -6.31422
-8.69142 139.762 -7.18051
5.52986 141.532 -5.65863
16.6618 141.309 -2.87671
-3.33609 129.274 4.31434
19.0395 141.222 -2.20542
-28.5683 129.045 -1.16293
-22.2653 133.799 -4.31523
-7.21865 127.379 5.39051
11.5469 141.18 -3.74541
-2.76743 129.792 4.10303
-28.6565 127.894 0.0584813
-22.0496 135.112 -5.45981
-20.015 135.499 -5.36177
20.4041 141.252 -1.72158
-35.2551 127.698 -1.17649
-35.0669 127.775 -1.19916
-27.2433 126.794 1.54728
7.06541 131.723 4.56168
-11.7254 139.483 -7.26365
-7.87681 127.433 5.35029
10.768 142.836 -5.39847
-5.19254 139.297 -5.56532
-37.0743 126.905 -0.752863
-16.854 136.803 -5.7397
16.689 136.04 2.66265
6.93242 133.06 3.39464
16.5733 136.071 2.68353
-27.4404 126.433 2.04885
-8.72133 127.478 5.29851
-28.1111 129.381 -0.935132
11.1087 142.842 -5.10526
2.5768 139.413 -3.69966
16.4295 141.787 -2.83858
-32.2028 130.554 -2.89995
-9.71269 127.31 5.38451
11.4547 140.558 -2.69317
-6.79835 128.003 5.4032
11.8519 132.089 5.67581
1.38698 138.624 -3.05201
-13.2516 125.265 6.70218
-33.5626 129.672 -2.20045
-29.4307 133.158 -4.64636
-37.2115 127.16 -0.570974
-4.52237 129.166 4.98299
-17.4163 136.986 -5.56143
-9.65907 127.661 5.3094
-35.3814 128.924 -1.76104
-34.7735 129.261 -1.91852
6.99911 143.226 -5.99566
11.6789 142.816 -4.52443
7.16382 132.731 4.27277
5.92122 135.733 1.11965
-22.1427 135.308 -4.84782
9.63275 130.788 6.79662
-37.7674 127.052 -0.338452
20.5117 141.585 -1.19212
16.0908 136.49 2.76503
-27.7874 127.995 1.05475
-14.3039 125.266 6.81057
-21.4085 124.842 5.6134
-22.5793 136.447 -5.94139
-21.5909 134.888 -4.14261
-23.7552 125.336 4.66845
-31.2932 129.098 -0.682712
15.7757 136.462 2.87906
8.38427 130.669 6.83985
-22.1532 134.87 -4.19725
-4.99614 140.343 -5.61978
5.56623 136.005 1.05403
-11.9882 126.366 6.45706
-18.154 137.146 -5.36174
18.6303 137.692 2.5254
-27.7619 128.083 1.34438
8.10376 144.422 -6.40002
-33.6636 128.863 -0.745097
4.06054 134.923 1.95876
-32.9239 130.981 -2.60732
-21.369 135.974 -4.73235
-12.1524 126.602 6.51227
3.42034 141.502 -4.44316
9.3243 144.471 -5.9825
-2.40852 139.486 -3.78528
-32.6715 129.096 -0.512576
9.37065 144.536 -5.95812
-22.2495 127.355 3.59198
-6.85057 141.308 -6.45463
-15.884 125.406 6.97853
-34.9905 129.076 -0.944626
-35.8558 128.593 -0.659247
10.7522 132.477 6.1775
-20.6781 125.522 5.80081
18.9895 138.091 2.59459
4.78728 136.124 1.29839
-5.84762 141.393 -6.15053
-6.65047 141.483 -6.39477
-33.7903 127.944 0.621976
-22.8155 126.566 4.53769
-22.389 137.122 -5.6261
1.05905 139.921 -2.99851
-14.6585 126.638 6.39001
20.2997 142.248 -0.819238
8.09113 132.729 5.73488
-14.4061 140.33 -6.77679
-35.4543 129.23 -0.733292
-18.8131 125.372 6.84995
-3.01118 131.822 4.16607
-23.2485 127.047 4.22277
7.61376 144.776 -5.97516
-23.352 127.079 4.23084
8.07569 145.08 -6.13873
-33.8045 131.465 -2.30561
-33.221 129.231 0.0585663
-15.4514 140.058 -6.43594
-5.10137 130.687 5.07215
2.11491 140.813 -3.13895
-15.3113 127.382 6.02388
5.78048 143.604 -4.93233
3.44589 136.355 1.60233
2.93517 136.253 1.60359
-37.1577 129.103 -0.556349
11.3909 142.308 -2.32713
-9.32379 142.335 -7.04824
-3.8683 141.862 -5.3309
-36.9731 128.888 -0.220314
6.88038 136.769 2.09348
12.8768 141.794 -1.43527
6.29252 144.045 -5.07519
-25.0254 136.109 -4.40959
-37.1401 129.747 -0.971472
20.1667 140.806 1.31355
-20.4098 129.03 3.54582
-14.418 127.809 6.13105
-13.8345 141.253 -6.80426
-1.75076 141.398 -4.19142
-26.4176 128.757 2.56894
-21.0064 129.213 3.36775
-16.6085 127.275 6.30084
-32.6029 133.482 -3.38014
-14.9023 128.22 5.80147
-7.91585 142.763 -6.75417
-1.58096 141.555 -4.11714
-6.059 142.695 -6.23211
-18.2762 127.122 6.21216
8.19711 135.002 4.566
0.030147 134.781 2.96922
7.59198 136.914 2.63411
20.2261 141.38 1.1639
-26.3307 136.057 -4.24983
-13.9696 128.173 6.29269
0.789498 135.461 2.57969
-36.9336 129.507 -0.192553
-35.3113 131.476 -1.6495
-20.1284 127.903 5.30733
-19.7292 137.911 -4.33335
-5.80489 143.093 -6.16473
-2.16694 133.493 4.04164
7.90399 137.145 2.80351
-2.85029 133.156 4.26274
-24.2507 129.962 2.53329
-31.3962 134.435 -3.42552
14.3583 137.704 3.88313
19.613 141.13 1.747
-37.963 129.279 0.191318
10.059 146.291 -5.39629
-5.08499 143.361 -5.95919
14.0688 142.639 -0.850737
10.5427 145.956 -4.79083
19.4942 141.148 1.95096
-18.5663 139.931 -5.49308
-37.1605 130.738 -0.755842
-37.6678 129.791 0.102038
-10.8379 130.615 5.44764
-34.4786 129.125 1.51695
15.2433 139.037 3.23964
-31.5154 128.786 2.59746
-37.8521 130.352 -0.303467
-1.90437 143.125 -4.54039
-11.9041 142.987 -6.60689
11.3454 143.853 -2.12
2.70893 143.151 -3.34644
-6.70491 144.039 -6.30944
-19.3069 129.008 5.47121
-37.0038 131.275 -0.761303
-13.407 129.922 5.9339
13.0892 143.161 -0.923595
-0.00366651 142.727 -3.47626
13.2161 143.156 -0.842227
-30.4843 135.083 -2.93153
2.65385 143.232 -3.29451
-12.7339 142.846 -6.38926
-26.256 129.645 3.40969
-9.59132 131.431 5.48043
-12.8054 130.761 5.4616
3.58185 143.98 -3.66085
-7.90973 132.942 4.58157
-17.4657 141.236 -5.67177
2.55333 143.401 -3.19784
-38.8226 129.279 1.14848
-36.2834 130.179 0.892649
-29.4484 129.194 3.41935
-19.6967 138.918 -3.79815
10.1157 135.554 6.30422
-25.9068 129.874 3.66421
3.31778 138.765 1.66856
-30.6028 135.292 -2.63107
-2.79198 135.054 3.93968
-17.7686 141.175 -5.31843
-18.7497 131.158 4.21678
-18.4537 139.669 -3.97755
-9.69806 132.726 4.80989
-38.3362 130.888 0.0789225
-0.222196 136.226 3.56573
9.10873 137.349 4.63331
-7.33081 134.008 4.30852
-3.09196 135.498 3.84459
18.3638 141.295 3.09134
-5.71352 144.952 -5.92696
-14.0582 130.853 5.90871
6.81512 146.622 -4.69397
14.9762 140.152 3.46913
-4.14376 144.982 -5.58673
13.3169 143.93 -0.574507
-8.67063 134.335 3.79228
-24.7662 130.785 3.60538
-0.21236 144.095 -3.76098
-4.64778 145.037 -5.68435
-13.9999 131.046 5.82336
-7.18288 145.093 -6.30032
-22.1779 138.767 -3.54371
-38.3433 130.32 1.07857
-15.2637 134.733 2.04129
-10.8939 144.703 -6.65639
-27.8635 130.188 3.68158
-15.8235 134.238 2.50863
18.2466 145.29 -0.491448
-35.0481 130.115 2.15552
-22.1174 138.944 -3.46347
-22.6032 138.912 -3.52613
-20.4087 131.803 3.90156
12.5902 138.019 5.36559
-20.1729 139.356 -3.3897
11.7585 144.941 -1.51804
-12.1556 133.08 4.62259
-38.2906 131.621 0.134865
-15.723 133.177 3.77336
-36.9507 132.795 -0.686563
-25.0825 130.777 3.98513
1.57518 144.323 -3.13549
-10.59 133.881 4.27667
-16.7878 132.512 4.20769
17.949 145.418 -0.442357
6.17934 140.312 1.85819
-17.1796 132.118 4.53779
18.5711 142.303 2.77587
-30.5671 129.985 3.58313
-14.6169 131.656 5.60429
10.2474 147.085 -3.68823
-39.7672 129.763 1.85982
7.9298 139.651 3.12093
-8.39243 145.756 -6.54304
-5.56302 135.817 3.83934
6.26003 140.543 1.93865
2.26713 144.841 -3.15479
13.5116 139.993 4.13387
-17.89 140.753 -3.66528
12.031 145.229 -1.19828
11.1358 146.438 -2.56312
3.32408 140.259 1.72177
11.6734 137.906 5.93523
19.1207 144.4 1.32434
-26.7176 130.731 4.24607
6.82538 147.421 -4.35978
11.7349 146.037 -1.87511
-36.346 134.045 -1.13719
0.402344 138.214 3.19224
-8.00328 146.126 -6.39969
-21.381 132.406 3.91907
-29.8174 130.319 4.03824
-12.7828 135.214 3.15737
12.2068 138.63 5.52869
-3.86274 136.974 3.50095
-11.8469 134.625 4.0143
-1.80065 146.099 -4.84696
-4.41532 146.2 -5.51008
-24.9649 139.565 -3.65449
-26.4066 138.187 -2.59928
-26.258 131.132 4.31627
-12.0489 136.713 2.11869
6.68466 140.913 2.29525
-6.65842 146.338 -6.02115
-33.7793 130.438 3.29161
-34.9941 130.699 2.76202
18.9118 145.036 1.09574
1.80606 139.623 2.49023
18.7928 145.146 1.04756
15.7796 145.572 -0.0371116
6.00806 141.54 1.69748
18.7443 144.529 1.69306
-22.6767 132.456 4.02594
-6.8024 146.553 -6.04879
-9.80943 137.092 2.51284
-39.2257 132.05 0.726317
-6.3845 137.495 2.91224
-18.9802 134.361 3.14078
5.83672 147.144 -3.63754
-10.2341 137.156 2.44743
-9.52653 137.293 2.50255
-27.9532 131.108 4.35477
18.5292 145.42 1.07428
-8.1587 146.868 -6.40184
-37.9486 133.459 -0.091103
2.2006 140.511 2.19949
18.4789 144.539 1.98931
-36.8367 134.557 -0.85439
-5.21802 146.821 -5.56982
-6.866 138.464 2.23642
-24.024 140.088 -3.21774
-24.1969 133.063 3.5952
18.1311 144.207 2.41221
-3.62297 147.003 -5.24179
-3.42471 138.563 3.04984
-6.76777 138.697 2.15814
-16.7479 136.021 2.56142
-34.9834 131.129 3.24412
16.9317 146.668 -0.0643013
-2.04276 139.406 2.79137
15.6987 146.555 -0.10045
-37.1587 134.691 -0.5672
10.3206 148.516 -3.21832
-30.121 131.257 4.42015
2.4525 146.99 -3.40772
-1.94806 147.506 -4.87375
-11.158 138.068 2.28341
1.00411 140.399 2.8164
-12.3779 137.357 2.81998
-28.4223 131.671 4.72136
-18.6285 141.763 -2.87272
7.96448 141.635 3.34252
-7.97061 147.803 -6.2747
-6.84619 139.367 2.21557
9.26176 141.108 4.21826
-26.4006 132.766 4.22197
-22.3752 134.132 3.82011
-26.748 132.513 4.41319
11.7151 140.697 5.22382
-37.0087 135.092 -0.403799
17.8552 145.673 1.81608
-15.0723 137.587 2.21287
13.6863 142.312 4.1632
-3.17097 147.853 -5.06309
-8.22865 147.919 -6.25646
-35.0728 131.558 3.61176
-23.3158 134.253 3.68702
-41.1488 131.023 2.78734
4.59174 148.235 -3.41876
11.4666 140.862 5.36893
2.13262 147.915 -3.60919
16.5757 143.965 3.52929
-7.144 148.337 -6.03164
-25.3447 133.628 4.17442
-12.0871 147.102 -5.85094
-15.1367 145.203 -4.68212
-23.1079 134.762 3.74916
-36.9436 135.553 -0.143256
-24.342 134.448 3.80972
-16.3986 143.374 -2.98192
3.8957 148.539 -3.31704
-39.6541 133.008 1.92864
0.6696 148.865 -4.32083
3.67035 143.2 1.88892
-41.3956 131.569 2.99821
-9.32585 148.504 -6.15987
3.08371 148.556 -3.37425
-22.5004 135.081 3.92389
-20.7236 142.19 -2.59462
-12.2863 147.347 -5.67533
13.5489 143.079 4.38752
-7.73351 140.147 2.41212
16.2589 144.933 3.23683
-16.1422 144.949 -4.14935
-8.57052 148.732 -6.05497
11.1143 141.623 5.36918
-14.4743 145.789 -4.48414
-30.6969 132.582 4.68772
-3.84549 141.611 2.03395
-19.4551 136.441 3.53201
-12.7452 138.576 3.05616
-34.7801 132.516 3.94377
-17.3602 137.068 3.51133
6.53713 144.034 2.18446
-11.9792 147.896 -5.732
-16.2607 144.491 -3.38277
-23.9959 140.952 -1.66912
16.1275 145.409 3.13726
6.54168 144.166 2.18343
-2.04843 142.202 2.15124
11.2831 142.502 4.94612
12.5923 143.177 4.59156
3.46734 143.762 1.97182
-9.86035 148.911 -6.02993
-16.3745 138.609 2.5285
-13.7266 140.414 1.37926
-11.862 138.551 3.64316
10.0856 150.164 -2.66638
-27.1585 139.147 -0.406448
3.56448 143.943 1.9338
16.0191 145.632 3.15612
14.538 144.078 4.33654
-31.8245 133.051 4.5234
16.2368 146.201 2.70255
-12.098 138.683 3.6302
-23.1864 135.729 4.08281
-16.6462 138.87 2.58924
-18.5461 137.284 3.71089
-16.4933 144.064 -2.3689
-27.9968 138.85 0.209026
3.77907 149.878 -3.28944
-0.176958 143.306 2.24092
-26.7921 134.82 4.4499
-32.9044 137.396 0.564398
10.1685 150.323 -2.10235
-26.2102 135.326 4.2868
8.87482 144.135 3.7752
-11.9998 140.101 2.96462
5.25149 150.514 -3.20618
-16.0875 145.594 -3.1751
10.1671 143.81 4.55695
-30.456 138.501 0.490051
-9.97306 149.684 -5.66284
-2.46832 150.176 -4.42057
-38.1887 135.301 1.93911
-15.9405 145.72 -3.10748
-40.724 133.717 3.00777
-5.27606 142.361 2.66257
-32.284 134.312 4.40452
2.36538 150.746 -3.69246
-22.7237 142.328 -1.1852
-39.054 134.046 3.16295
-22.0093 142.744 -1.37421
-9.89789 140.461 3.65846
1.26151 150.813 -3.85942
-10.4697 149.775 -5.50326
-33.0284 138.102 0.74587
-33.7825 134.204 4.37718
-16.5934 144.634 -1.85206
-30.2189 135.771 3.68624
-25.4344 136.968 3.65275
0.953162 144.567 2.27643
-5.41589 142.591 2.7758
3.73127 145.463 2.08201
-23.3737 136.766 4.38994
-12.5489 143.17 0.626825
-3.90948 150.372 -4.41972
-24.502 141.917 -0.852618
-3.92838 150.425 -4.4006
-37.1267 136.173 1.96325
12.2629 145.417 4.21588
12.8713 149.133 0.826092
-31.2759 135.707 3.93183
-11.5921 140.275 3.9707
-26.9888 137.301 3.36505
-19.6745 144.03 -1.50946
-12.4452 142.933 1.21873
-33.3518 134.913 4.32305
-32.8441 138.681 0.785166
9.28458 145.512 3.78814
8.6766 151.926 -2.53051
-31.8462 139.27 0.601854
-38.3467 135.362 2.94159
-30.9367 136.976 3.12478
-12.1873 149.393 -4.68253
-2.78795 150.982 -4.06938
-14.885 141.576 2.42092
13.3561 147.05 3.52544
13.9442 147.568 3.20159
-24.2456 137.944 3.89295
-32.3053 135.881 4.08362
-17.7652 144.888 -1.37088
-1.66242 144.46 2.74719
-32.1596 139.445 0.687939
-17.9455 139.369 4.02421
-19.9519 144.44 -1.3689
-12.0661 144.295 0.579564
8.18301 152.398 -2.68701
-25.1089 142.092 -0.140677
8.27036 152.427 -2.59799
1.60817 145.749 2.49826
-11.5015 141.26 3.97989
-16.0132 145.671 -1.33477
-29.666 138.407 2.63725
-10.4372 144.825 0.860035
-24.9848 142.377 -0.032529
12.5218 147.962 3.07469
10.63 147.125 3.47039
4.40513 147.185 1.99943
3.25188 152.289 -3.2059
-25.3064 142.218 0.145365
-12.1106 144.747 0.710327
-33.7051 138.86 1.53013
-31.6525 137.828 3.01485
-25.3983 138.559 3.73795
2.77169 147.13 1.84448
-7.50105 142.964 3.56383
-28.1467 140.553 1.30124
-17.3388 141.12 3.27579
-28.2175 138.376 3.47742
10.931 151.311 -0.190854
-8.89606 144.958 1.48401
2.48879 147.449 1.66947
-33.7021 136.65 3.9589
-9.1686 144.31 2.15079
6.01611 147.705 2.31306
-28.6467 138.787 3.23616
-29.9435 140.492 1.29746
-2.28928 144.879 3.33385
-12.5972 149.981 -3.9777
1.07625 146.369 2.76002
3.78257 152.953 -3.02589
-33.6358 138.538 2.51141
-9.82708 143.342 3.307
-16.8715 146.105 -0.98155
12.3742 150.773 1.24354
-13.8726 144.131 1.84472
9.75943 152.086 -0.5109
-9.85588 143.277 3.60225
-1.20408 145.487 3.47533
-13.511 144.807 1.45915
-0.458158 152.564 -3.09591
-3.27059 152.282 -3.40199
-13.3819 145.125 1.31983
6.33346 148.848 2.3199
-26.0034 139.768 3.85621
-27.6146 141.941 1.37765
-10.4249 142.933 4.37346
5.66764 149.535 1.62988
-24.981 139.82 4.27992
0.704612 153.023 -2.68928
-1.80078 152.819 -3.04362
-12.9775 145.937 1.13443
6.83145 149.554 2.1484
11.741 151.952 0.931718
-3.33141 145.134 4.14208
-3.19536 145.254 4.08761
8.87256 153.306 -0.959075
-3.96579 152.611 -3.17203
6.26003 150.188 1.55811
-11.298 151.709 -3.85885
-9.6799 151.924 -3.69552
-7.04225 144.23 4.42314
9.49651 150.327 2.26915
-8.84984 152.118 -3.49436
-30.5903 141.171 2.2273
-11.6891 147.011 0.845242
-28.5448 140.174 3.67013
-8.94343 143.62 4.78927
9.92384 150.81 2.08677
-22.9892 145.199 0.106037
-8.33819 144.001 4.7296
-30.1308 140.859 2.84277
-18.1168 141.571 4.92923
9.8344 153.227 -0.000999354
-30.3761 141.361 2.52069
-4.51841 153.118 -2.82417
-10.5368 148.087 0.826272
10.2212 153.303 0.49085
-11.5197 152.153 -3.31836
3.45453 154.299 -1.98602
-13.8713 146.218 1.96429
9.64047 153.618 0.231352
-26.8888 143.748 1.57271
-18.017 142.365 4.95022
-30.0809 141.642 2.95234
8.09201 151.896 1.70373
-25.0483 144.535 1.3605
-22.7555 140.727 5.5996
-22.5042 146.117 0.579963
-19.3906 142.035 5.29516
-29.6687 141.597 3.41794
8.25962 154.222 -0.227914
-16.3609 147.745 0.474867
-27.136 143.762 1.92841
10.2397 153.216 1.2513
-24.6082 140.976 5.25703
5.01577 154.967 -1.5826
-21.6768 141.293 5.65689
-28.3752 142.906 2.6208
10.2164 153.478 1.2167
7.05886 154.496 -0.457034
-25.8646 141.339 4.87087
3.82751 154.874 -1.53702
-12.1879 152.199 -2.5045
5.15281 155.201 -1.42547
-4.76205 153.837 -2.23446
-14.5906 149.608 -0.233241
-9.38035 150.233 0.425914
-14.7805 149.653 -0.0531353
-8.84521 153.259 -2.18381
-28.1311 142.785 3.94851
-10.2342 153.285 -2.05934
9.50797 154.602 1.27135
-22.6062 146.777 1.62882
-20.1974 143.168 5.69773
-9.34661 151.239 0.40017
-9.65423 151.149 0.574083
8.46289 154.86 1.10636
-16.1839 149.266 1.03747
-22.3811 146.998 1.84328
-26.2779 143.675 4.21793
-13.3786 148.358 2.60678
-15.8302 149.67 0.863625
-12.885 148.936 2.29389
-8.85905 153.84 -1.51351
-8.72485 152.887 -0.530736
-24.1673 145.725 3.00275
-19.7491 144.05 5.74179
-25.3222 144.323 4.21477
-25.1464 144.137 4.48858
-23.6555 143.986 5.00489
-13.0196 152.434 -0.708782
-5.21847 154.598 -0.939518
-9.87076 153.212 -0.597662
-11.977 152.638 -0.361485
-13.2119 152.38 -0.288936
-21.819 144.703 5.23537
-9.19062 153.91 -0.722117
-11.9788 150.817 1.92348
-18.2129 145.524 5.68592
-12.9568 152.052 0.856561
-12.5026 150.622 2.36296
-16.7083 150.043 1.98023
-22.948 146.386 4.21205
-18.0382 146.581 5.35837
-13.8238 151.731 1.43559
-22.1439 146.57 4.64221
-15.041 150.759 2.34027
-16.7254 148.309 4.60934
-15.8339 149.521 3.71234
-15.1923 149.714 3.70908
-19.8595 147.614 4.70956
-17.3671 148.828 4.21516
-18.24 148.359 4.51988
-18.2492 149.682 3.2804
