ply
format ascii 1.0
comment Created by Open3D
element vertex 1516
property double x
property double y
property double z
end_header
20.199 130.051 4.26481
-16.907 94.3295 -3.35046
9.84502 116.819 -3.42903
9.6086 124.072 9.13881
6.17058 121.812 10.1758
23.4154 126.952 -5.657
20.6115 130.841 4.86986
23.8985 131.673 1.59209
25.1934 130.117 -2.90635
-4.91958 104.014 -4.19017
8.0776 115.505 -3.33526
-19.2609 93.3466 -1.92239
-3.54355 114.792 11.9158
13.4917 124.229 3.62384
23.7809 127.701 -5.16984
-7.66163 102.737 -2.64085
22.4354 125.937 -6.24633
16.1106 124.4 0.118802
20.1711 124.773 -5.02231
20.0579 130.265 4.37691
-20.0638 93.977 0.133288
15.4193 128.556 8.03243
24.7646 133.433 2.91814
-2.85707 105.746 -4.57937
24.2545 132.363 1.81756
-3.50512 115.016 11.8971
7.0896 122.884 10.064
-3.86779 105.216 -4.1909
20.3534 131.114 5.05803
-4.11508 105.096 -4.24001
21.0149 125.592 -5.36038
-16.9626 100.035 5.44652
19.5095 124.681 -4.77971
25.5198 130.873 -2.93982
25.552 130.845 -3.0676
23.8961 128.912 -3.998
18.7993 130.235 5.43452
17.3986 130.7 8.12398
21.952 126.459 -5.54454
25.5003 131.142 -2.70866
1.08149 119.073 11.5839
18.3729 123.578 -5.49417
24.3984 131.847 -0.137099
24.0898 128.159 -5.92403
-19.8454 95.2721 0.953482
22.809 133.438 4.71947
-16.7826 95.1937 -3.59758
13.3257 127.956 8.89836
-2.17051 107.144 -4.23915
23.291 127.75 -5.67555
7.04569 123.327 9.89066
2.27198 119.877 10.8245
-1.98993 107.491 -4.13916
15.8751 127.812 4.74625
-10.8999 108.911 10.8476
5.87249 122.483 9.9042
15.3047 126.028 2.46833
16.1721 128.42 5.256
14.1061 128.71 8.66675
-0.168905 118.759 12.1263
14.2293 123.078 -1.08684
15.4808 122.936 -3.13477
-8.16823 103.126 -3.05402
19.5234 131.195 4.93267
19.2571 130.987 4.93479
-6.40577 113.653 12.1112
-11.439 100.122 -3.64046
14.8954 126.586 3.55286
15.4487 124.531 -0.721519
-6.7723 103.988 -3.93083
14.3391 123.202 -1.50395
21.4516 127.633 -4.13716
24.0912 133.023 1.20999
24.3052 132.653 0.272143
-5.6112 104.787 -4.33675
16.6936 129.454 5.53719
24.2927 132.764 0.327665
-7.99874 112.939 12.7208
24.841 134.736 2.80337
9.16771 125.506 9.45711
12.7309 128.487 9.37106
-19.8808 94.9241 -0.949442
15.1178 127.156 3.72131
-3.435 107.545 -3.22551
19.9133 133.08 6.56801
1.90067 120.525 10.9325
14.7812 124.661 -0.387053
8.75022 117.975 -3.13545
-20.0309 96.0024 0.635636
-18.5134 99.0684 3.61916
19.0107 126.01 -4.27629
-8.86187 103.341 -2.99089
18.5635 125.513 -4.56479
-4.54181 107.087 -2.89407
-19.7413 95.0387 -1.64094
-2.7935 117.452 12.0937
22.8768 129.831 -3.4983
9.56841 118.822 -3.19621
24.4929 133.338 0.0982922
-10.1301 110.832 11.2983
17.7968 124.681 -5.07431
-5.70097 105.876 -3.4326
20.4466 127.698 -3.79167
24.6966 133.057 -0.796589
16.9794 129.147 3.54654
8.69587 125.788 9.62763
1.00211 120.375 11.4151
5.71182 123.276 9.59568
-15.9654 103.189 6.49013
10.9141 120.593 -2.35472
-17.4322 96.0603 -3.51276
-5.68898 106.117 -3.23021
8.0007 125.37 9.47294
9.34136 126.288 9.08859
25.2714 132.539 -3.0016
9.76828 126.422 8.67007
14.4034 129.667 7.51777
25.023 133.891 -0.479378
24.4622 134.273 0.961437
-4.22401 107.999 -2.66926
17.0482 128.61 1.8897
0.98953 120.718 11.3701
2.7344 121.655 10.4686
12.6872 126.746 4.92106
13.4112 126.397 3.28063
15.7105 129.18 4.65623
10.989 126.959 7.60156
25.6589 133.333 -2.49521
14.3856 124.725 -1.00841
14.7283 123.755 -3.18612
24.0853 130.674 -4.83531
14.3711 127.067 2.86539
2.82723 121.824 10.4101
9.42061 119.608 -2.77083
13.9748 122.795 -3.86549
-5.6478 106.981 -2.69243
14.6131 124.737 -1.51777
4.8315 115.858 -2.67388
-16.9679 102.357 5.49916
20.3481 134.451 6.64515
12.4396 127.14 5.53498
-18.5808 99.8201 3.47116
0.887695 111.76 -4.05547
1.76633 121.417 10.9405
14.3547 126.478 1.58606
14.0177 124.294 -1.62524
16.3239 124.148 -5.15736
16.9414 124.608 -5.29732
10.2302 120.724 -2.49061
-19.814 96.0907 -1.41482
10.9908 127.362 7.57669
-17.7288 96.7148 -3.35077
16.7487 132.21 7.57019
5.74416 124.045 9.34841
24.4164 131.143 -5.26172
13.7426 126.985 2.86799
15.2821 124.165 -4.12546
25.2 135.304 0.562162
14.0627 124.337 -2.17181
-16.267 97.936 -3.73704
14.0021 124.462 -2.03121
24.1196 131.763 -4.10366
-6.6134 106.593 -2.9273
15.479 131.643 7.92586
5.26616 116.597 -3.05274
-2.428 118.887 11.699
-17.9776 101.528 4.4855
9.76729 127.42 8.6115
10.0304 121.638 -1.5578
-18.6774 100.41 3.34344
14.4035 123.667 -4.43761
-14.0575 107.017 7.85246
-4.98996 116.875 11.5567
14.0831 130.416 7.26804
-12.2743 101.804 -3.59426
-9.96885 112.665 11.4517
17.7083 126.667 -4.31486
23.8989 136.539 3.40126
14.4515 130.823 7.16811
-14.0619 107.157 7.72862
-17.668 102.368 4.76925
-3.58733 109.902 -2.52162
24.8977 133.482 -3.19554
13.2529 130.393 7.79805
16.1831 130.759 4.15821
25.2677 136.522 0.970542
-14.7757 99.7129 -4.28221
13.8055 125.897 -0.708666
-12.9712 101.534 -3.78547
-16.4966 98.6037 -3.74924
-17.1745 103.323 5.09212
-3.05145 119.078 11.5846
-12.337 102.371 -3.45378
15.6712 131.103 5.2389
11.0134 122.062 -3.53737
-2.83555 110.974 -2.62725
13.6738 125.22 -2.08566
15.7743 132.654 7.41938
16.2847 130.908 3.71321
-16.4917 104.524 5.7282
18.9542 134.982 6.7345
14.4157 124.515 -4.49623
14.0479 125.525 -2.39218
-5.02679 109.698 -2.08919
10.1217 122.324 -2.31962
25.2786 135.339 -1.96305
9.52416 128.417 8.6884
-15.8945 99.7029 -3.70683
-6.03637 117.365 12.0594
24.5316 134.784 -1.9666
23.9158 134.296 -1.93345
-17.9878 102.352 3.57097
-15.0696 100.33 -4.0404
4.95824 124.864 8.89576
-19.5427 97.9772 -1.67941
16.5951 126.769 -4.50676
-14.4235 107.475 6.98736
21.5965 131.5 -3.65992
-14.5272 107.378 6.93621
9.29872 128.57 8.78045
-2.75013 120.005 11.4408
-13.3563 108.669 7.358
-8.34 106.772 -3.05852
-8.74336 106.399 -3.15594
-11.3123 112.033 9.93286
16.5341 126.966 -4.44606
-1.86321 112.169 -3.30044
-16.9236 99.4361 -3.40036
16.0465 126.62 -4.40243
15.4826 130.24 2.50096
-17.3741 99.1435 -3.32532
3.58686 124.043 8.90751
3.74132 117.039 -3.17281
22.2334 136.928 4.11721
19.1599 135.82 6.56227
15.6648 131.793 4.67844
13.3856 127.576 0.768982
14.4098 126.42 -2.66027
11.3907 122.765 -4.6174
12.9988 131.126 7.1893
14.5091 125.365 -4.71113
15.7705 130.532 2.16712
12.3104 129.248 4.90193
9.38363 122.491 -2.36993
14.5987 129.421 1.8948
-8.00793 116.849 12.699
-6.11081 118.094 12.1036
20.1398 136.413 5.67165
-15.9902 106.038 5.72102
-5.12442 110.624 -1.98513
-19.5758 100.233 0.980834
21.358 136.802 4.537
15.2042 132.531 6.05398
-17.7174 103.807 4.31084
15.2894 131.148 3.51661
12.5025 129.338 4.39056
23.2358 134.528 -2.10639
-11.3529 112.534 9.8923
13.4881 127.172 -0.708931
14.5568 126.733 -2.9869
22.9593 134.306 -2.17105
25.1707 136.942 -0.890799
-5.37451 110.509 -2.1113
-18.6865 101.998 2.42083
12.7377 123.976 -5.17033
22.0306 133.227 -2.86074
16.1021 130.879 1.58412
-19.6464 99.6346 -0.392926
-1.38845 113.147 -3.56886
13.4589 127.27 -0.863538
16.1873 130.991 1.50589
14.5117 126.196 -4.22388
13.5942 126.524 -2.39098
13.3537 131.875 6.96817
-5.73754 118.694 11.8011
-17.1402 100.333 -3.08353
-1.83944 113.28 -3.00102
9.59827 122.8 -3.19964
24.8579 138.08 0.877615
-4.9583 119.43 11.6358
15.7434 130.567 0.910336
2.09251 116.089 -4.14319
-15.2496 107.406 5.82025
-5.07665 111.45 -1.83408
14.5403 126.09 -5.01481
-14.8294 101.711 -4.53183
-16.9124 105.365 4.48531
15.7506 134.473 7.09882
-17.323 100.885 -2.64919
-0.243439 123.447 11.1524
15.5588 128.036 -3.56941
5.98266 121.013 -1.84431
4.62546 126.144 8.68669
13.9845 129.919 1.74821
-19.8267 99.9675 -0.791588
-0.339206 114.605 -3.80261
-3.40782 120.935 11.2342
13.2821 132.401 6.84166
-1.75013 114.022 -2.92646
10.9193 130.733 7.23972
-19.8587 100.02 -0.886166
-19.9167 99.7285 -1.33826
1.79829 124.789 10.0841
-12.1384 112.469 9.01464
-5.70507 119.544 11.809
-5.62738 119.606 11.7902
-12.9494 103.961 -4.26835
12.876 128.11 -0.222744
12.2181 130.536 4.7331
15.3334 129.385 -1.65086
14.4883 126.815 -4.85815
11.075 131.101 7.12949
-0.971566 123.466 11.2584
-17.7617 101.497 -1.98465
15.9597 130.03 -1.7708
16.3629 129.499 -3.2883
-1.10714 114.676 -3.53056
1.61011 125.052 10.1132
18.9741 131.045 -4.51354
-19.5923 100.152 -1.87853
8.36732 124.043 -1.33751
8.56943 130.191 8.71168
-19.6857 102.107 1.35545
17.4096 131.32 -2.08052
13.6606 130.219 1.34181
1.55285 125.217 10.0902
-19.5497 102.381 1.52917
-4.84713 112.993 -1.46611
17.0429 130.089 -3.7405
-13.8459 103.717 -4.43693
-16.4763 106.668 4.21354
13.1855 127.899 -2.22455
16.0665 132.055 0.61585
12.9586 133.208 6.90798
17.2302 131.627 -1.87534
14.4185 129.797 -1.03955
-20.0228 100.785 -1.1051
-14.8723 103.287 -4.20307
16.0568 132.316 0.758602
-12.5892 112.478 7.97
-7.79471 109.689 -3.57075
14.3921 134.08 6.04051
-10.4906 115.707 10.3633
5.24948 121.527 -2.1868
23.1515 136.768 -1.92542
-14.4415 103.883 -4.02011
-17.4126 105.807 3.42472
14.9478 129.063 -3.3414
-1.18942 115.579 -3.2029
12.2675 131.27 4.11552
-9.66923 117.575 12.1639
-20.0337 101.078 -0.993501
-0.304127 116.235 -3.6593
15.7462 129.829 -3.58131
-10.1947 108.223 -3.1993
16.2818 130.984 -2.44497
15.2344 133.581 3.41511
-4.29354 114.314 -1.40921
-2.11463 123.848 11.5711
24.5859 139.678 0.342559
16.9408 132.08 -1.63767
4.55986 127.772 8.65922
14.0553 130.59 -0.114636
-11.548 106.799 -3.89466
14.8211 128.83 -4.25985
-5.1208 113.734 -1.43854
-10.2639 116.973 11.3065
6.52574 123.967 -0.770134
5.48785 128.979 9.09919
-13.9666 111.058 6.47778
-5.30725 113.612 -1.52538
21.5341 134.9 -3.76843
0.782771 125.865 10.3676
8.22419 124.987 -1.68474
-11.0986 115.647 9.97354
-11.2779 115.433 9.81296
-5.49158 113.554 -1.60082
14.6997 131.407 -0.167868
-13.4717 105.9 -3.27133
5.05497 128.724 8.90774
2.2879 126.331 8.79211
-17.0474 102.813 -3.44247
15.9146 136.865 7.1368
0.465536 125.879 10.5229
13.5654 134.697 6.71927
13.2259 131.013 0.958143
14.7665 131.88 0.211815
22.029 139.863 3.36004
-2.40572 124.255 11.6849
23.7934 139.051 -0.585482
-11.6612 115.196 9.4782
-16.4179 103.546 -3.515
-18.0095 103.449 -1.49174
-12.2694 113.947 8.04951
19.0951 132.981 -4.397
-10.4483 117.685 11.7506
4.02171 127.987 8.52218
-13.8007 111.798 6.51419
14.9021 133.722 2.61167
-11.6966 115.573 9.74478
-19.9304 102.902 -0.00323361
9.39165 132.317 7.97846
-8.34328 119.801 11.9996
14.4728 129.738 -3.65394
12.7764 128.859 -2.72959
8.6453 131.91 8.2328
-8.31523 110.579 -3.67986
10.5793 133.16 7.54718
-9.34497 109.647 -3.83802
13.9412 131.587 0.0165996
-2.65323 116.797 -1.38936
22.4121 137.062 -2.8327
14.0652 135.079 5.66822
-16.4678 108.479 4.09882
19.4563 133.768 -4.39595
-15.654 110.052 5.4537
23.6203 140.888 1.67639
2.7934 120.26 -3.60177
10.9364 126.174 -5.2022
-0.184904 126.23 10.6726
-7.182 121.465 12.5255
12.5102 132.489 3.13365
-16.5714 104.114 -3.44397
7.83428 126 -1.21828
11.8295 132.822 4.61282
12.4926 129.408 -2.10334
18.3532 132.896 -4.57501
-2.19763 117.345 -1.66258
-18.6019 103.789 -1.31987
12.5026 129.734 -1.73367
14.3555 132.601 0.447214
12.7212 129.219 -2.93912
-3.61242 116.542 -1.13084
16.7638 138.086 6.27924
-1.29233 117.814 -2.29254
-11.7306 116.523 10.2
-17.0618 108.155 3.56773
-12.284 115.63 9.38136
-18.8901 103.805 -1.19325
9.50687 125.946 -4.18857
0.0870733 118.567 -3.26981
-19.0908 104.871 0.859715
14.4533 129.767 -4.87787
14.5168 132.715 -0.0276063
-15.4281 105.449 -3.63774
15.8467 137.9 6.68398
-4.96217 115.833 -1.07926
-5.6824 123.029 12.035
12.2428 130.151 -1.45136
-6.83547 113.775 -2.07568
4.30027 123.185 -2.17804
3.49522 122.06 -2.94645
17.0092 138.936 6.32158
-7.57574 112.814 -2.87571
-6.50084 114.353 -1.82981
15.1713 137.882 6.98178
23.1289 141.603 1.94457
7.29678 126.638 -0.832224
-12.8681 115.533 9.02701
8.28945 133.121 8.59279
-12.3173 116.706 10.1062
17.0038 132.48 -4.97996
8.53372 133.347 8.50931
14.8423 137.842 7.02611
13.7228 132.876 0.209125
-8.76278 120.884 11.9099
-9.28356 120.289 11.558
15.6572 132.181 -3.80263
13.4168 136.143 5.92037
23.3367 141.731 1.25058
5.66337 125.701 -0.758538
-16.9827 109.962 4.84788
15.6075 136.587 3.41581
16.2161 132.865 -3.75279
22.8145 141.968 2.22502
15.568 136.626 3.42111
12.572 134.215 3.59641
-13.9164 114.061 7.20786
1.31188 127.58 8.29859
-5.89728 115.904 -1.30946
15.6712 136.726 3.1714
7.9472 127.125 -2.0643
-9.41261 120.591 11.5586
-20.1172 104.625 -0.288122
3.6595 123.436 -2.39963
-13.6885 115.256 8.41554
-5.70481 124.105 11.9686
-6.96283 123.04 11.9007
1.14493 127.808 8.21943
-12.6279 109.136 -3.77684
12.4885 131.427 -1.83917
-19.6124 106.181 1.11236
10.8951 128.328 -4.93128
-13.9781 115.115 8.05695
16.227 133.443 -3.92415
6.52626 127.338 -0.551966
10.6977 134.083 4.89553
16.6363 134.374 -3.05636
15.4232 136.733 2.635
12.8065 132.153 -1.37734
13.2492 135.121 2.97858
3.45093 123.727 -2.35848
-9.14395 112.517 -3.40885
13.7741 137.804 6.62419
21.877 138.831 -3.16842
14.2833 137.025 4.48984
15.3991 137.258 3.22697
4.39339 131.144 8.49152
-6.60845 116.024 -1.56911
13.0917 135.385 2.97307
-0.3657 127.777 9.2116
0.229181 127.827 8.43155
11.1912 128.971 -5.28136
-7.74666 114.838 -2.28972
13.0394 130.202 -5.90395
13.7464 133.672 -1.19151
-0.853445 127.937 9.82805
-10.1422 112.161 -3.60782
-12.5179 109.762 -4.31368
8.08772 134.525 8.07909
15.4095 137.503 2.62048
-18.9864 106.164 -1.4206
-1.45627 120.97 -1.34262
17.5399 134.69 -5.20523
1.88692 122.912 -2.89855
14.9331 132.692 -4.92658
-14.8276 115 7.47027
22.4861 142.91 1.56018
-17.6706 110.948 4.59275
13.408 135.725 2.15857
15.1685 133.453 -4.1967
-4.0026 125.869 10.2326
16.6896 135.178 -3.49036
1.00773 129.028 8.36175
21.5301 139.42 -3.29685
14.1403 138.153 5.03448
15.796 134.838 -2.92099
20.7355 143.023 3.86381
-13.5415 117.215 8.93346
-8.60517 122.707 11.1663
-0.991105 121.646 -1.50902
14.1238 136.553 2.14427
-9.25507 122.462 11.5252
13.8597 131.851 -5.5043
-15.2022 114.772 6.94757
12.4748 132.568 -2.39248
0.165246 128.499 8.20508
11.3215 135.39 3.9544
13.9433 133.677 -2.68271
-5.28384 118.618 -0.79299
5.58644 127.988 -0.442106
-11.3517 120.388 10.6198
-16.6175 112.852 5.37042
15.126 137.843 2.43614
11.5349 129.9 -5.86878
-8.54144 114.922 -2.62821
-0.374935 122.481 -1.48232
9.18456 135.634 7.09344
16.6199 134.451 -5.47069
-9.9725 113.243 -3.48788
16.3223 135.399 -3.47569
-11.3288 120.468 10.603
-17.9204 111.309 4.49296
-3.15589 120.766 -0.522343
-3.99193 120.18 -0.412452
7.06118 134.543 8.05293
20.9554 143.658 3.69179
-9.65362 113.709 -3.39459
-4.37663 119.933 -0.410564
13.5365 133.718 -2.62284
-10.2918 113.085 -3.68003
15.9425 135.344 -3.45141
-18.7297 110.349 3.60645
16.4161 141.44 6.06442
-2.67215 121.47 -0.568283
16.6667 141.608 5.90636
16.0282 136.142 -2.41988
8.08433 135.335 7.48266
13.1237 136.339 2.01648
0.215628 129.056 8.05132
11.3606 136.789 5.10501
-3.43697 121.1 -0.363835
4.3328 132.501 7.81505
16.0874 136.474 -2.35839
-3.68734 126.838 9.4478
11.4437 137.619 6.14379
11.2391 136.516 4.56436
22.8161 143.678 0.159337
6.58499 129.166 -1.28562
13.6324 132.309 -6.02455
16.1232 134.877 -5.37013
-1.7826 128.694 9.61681
3.58946 126.638 -1.4961
17.556 136.297 -5.08247
12.8205 131.586 -6.34362
3.93864 127.186 -1.1655
-13.6025 110.416 -4.57123
-16.0447 114.801 6.29441
9.19148 129.869 -4.12693
-5.35705 119.644 -0.820439
18.6361 137.615 -4.59006
5.98672 134.314 7.7173
19.5259 138.706 -4.1465
22.0719 144.071 1.25221
8.26749 135.878 6.97883
14.695 135.184 -3.33606
5.81444 134.279 7.67719
-1.41564 123.093 -0.976298
11.1537 138.196 6.34643
-11.8429 121.143 10.0805
15.2022 140.076 3.56421
15.9322 136.094 -4.25484
-5.88972 126.257 10.0561
6.06874 129.708 -1.1111
-16.0269 109.229 -4.28758
-14.4907 118.44 8.99708
15.9435 136.346 -4.08847
-10.5357 114.213 -3.8374
5.13729 134.139 7.51994
-6.4915 119.182 -1.3387
-5.18641 120.521 -0.949063
15.9509 137.288 -2.73396
11.0171 136.953 3.65687
9.5781 130.819 -4.6729
-14.1316 119.018 9.02089
-13.5745 119.584 9.15234
-2.49329 123.315 -0.298766
14.9481 140.796 4.40444
-18.6283 108.501 -2.41664
7.43454 136.08 6.94803
-12.7012 112.206 -4.75148
-4.05309 122 -0.511162
12.6033 132.694 -6.12549
-11.3903 113.465 -4.52343
11.1383 138.337 5.37177
-2.69382 123.401 -0.184337
-19.7031 109.665 0.795144
6.99857 130.049 -2.78758
-1.29241 124.11 -1.03676
-18.9796 108.498 -2.28187
11.8577 137.663 2.91027
7.55717 130.204 -3.58635
1.06695 125.948 -1.68587
-12.7879 120.711 9.15254
20.2691 141.253 -3.22568
20.3556 145.237 3.35768
-16.1294 109.925 -4.48685
9.04793 131.278 -4.25848
17.7582 144.014 4.81317
-11.8888 122.306 10.2469
15.7742 137.366 -3.65062
-8.63354 124.335 8.98082
11.3126 132.647 -5.34616
16.8615 137.686 -4.8094
15.3965 142.581 5.51207
2.72577 132.934 7.21626
-1.85513 124.424 -0.70842
12.0776 138.243 2.79836
10.8242 139.214 6.19643
1.53858 132.093 7.28536
-16.8351 109.785 -4.2782
14.3904 134.895 -6.27735
1.26675 126.612 -1.62331
15.7805 138.134 -2.80295
-10.273 115.706 -3.77658
15.6821 137.039 -4.6555
18.9212 140.437 -3.52809
-3.52263 123.425 -0.355629
-12.8903 112.963 -4.75819
13.9804 139.361 1.60335
15.0808 138.315 -1.83704
-19.0288 112.78 3.52112
-14.5693 111.591 -4.83501
-7.22321 119.676 -1.69398
20.003 141.902 -2.96684
21.3997 145.45 0.997623
9.08486 138.336 6.47446
-10.1062 116.123 -3.77283
-19.4238 111.666 1.8576
-5.27494 121.782 -1.20634
-16.1473 117.282 6.57121
-5.17985 128.14 9.25874
0.4624 126.724 -1.37449
-8.93554 117.96 -2.84989
-3.41777 129.358 8.26414
14.5918 142.53 4.90697
-15.8617 118.51 7.60415
-15.8733 118.55 7.6246
-4.33598 128.917 8.69752
15.9424 143.662 4.7501
2.31849 133.568 6.99335
14.3671 142.809 5.45705
-14.4306 112.53 -4.75136
13.1699 134.546 -6.81777
10.0152 133.172 -4.86996
-3.19366 129.924 8.36976
6.44183 136.895 6.43357
16.8487 144.558 4.48373
14.8512 139.326 -1.58785
-17.5353 116.614 6.06111
16.8494 144.628 4.45157
15.0753 139.334 -1.99382
-15.3684 119.568 7.85758
13.1992 134.869 -6.91227
-3.88808 129.539 8.31676
17.9731 140.707 -3.93037
-9.19648 118.555 -2.76732
17.2768 139.898 -4.44934
-12.2185 115.092 -4.43082
-7.141 127.086 8.53909
16.3597 139.603 -3.86521
7.96864 132.641 -3.73084
8.89893 133.125 -4.24354
-4.57143 124.016 -0.590372
-12.0912 115.453 -4.37704
4.68593 131.654 -0.903246
14.535 137.711 -4.71957
-18.9089 114.1 2.89718
10.3419 134.023 -5.03879
14.707 141.559 1.4065
11.0854 134.323 -5.6876
-17.5941 117.101 5.93119
14.1865 136.833 -5.93807
20.8016 146.602 1.1147
16.0612 144.549 4.32027
9.04685 133.561 -4.29023
-8.72783 119.758 -2.39418
15.4318 138.995 -4.26138
-18.7115 114.297 2.54795
-8.24824 120.25 -2.32293
-3.6006 130.303 8.03107
-7.34139 127.515 8.56313
4.61858 131.979 -0.963661
-0.475267 127.972 -0.569424
-16.9754 117.83 5.72393
-13.3929 122.907 9.1771
10.3962 140.21 4.5057
-19.527 111.858 -0.859865
19.9036 143.938 -2.77012
5.51155 132.572 -1.5562
10.498 140.557 4.78675
17.3049 140.968 -4.18951
2.7412 135.228 6.64518
-13.0271 123.477 9.19469
19.9111 144.153 -2.77026
20.5978 145.15 -2.18209
-10.6337 125.28 8.57214
-6.60205 122.328 -2.13747
17.2198 141.299 -3.96837
20.1518 147.092 1.63529
3.93994 132.013 -0.784779
14.4054 139.681 -2.80952
-16.7417 118.653 5.91433
-22.1572 117.623 11.8674
-0.085069 128.754 -0.732622
20.9426 145.886 -1.694
-22.1529 117.878 12.2159
-17.1651 118.122 5.46324
-9.06395 120.238 -2.5034
11.5758 142.309 5.33473
13.9849 142.116 1.48335
-6.82804 128.729 8.38178
4.46062 137.309 6.65662
-7.75267 121.716 -2.34155
19.9248 147.348 1.57415
-16.8946 119.047 6.10066
-6.55594 122.843 -2.22585
14.4922 140.114 -3.07258
14.4067 140.759 -1.89202
17.0057 142.128 -3.29535
20.2875 147.414 0.911607
-12.7445 125.509 10.8242
16.8584 142.349 -2.81214
-17.6477 116.347 2.24256
-18.0044 115.941 2.05725
1.05856 130.317 -0.768294
-14.5558 115.125 -4.23164
14.8022 140.17 -3.70849
-16.067 120.895 7.57026
-15.3726 123.455 10.8848
-12.37 125.223 9.59138
-9.65379 126.439 7.76442
-9.30227 126.85 7.93096
-8.25319 128.031 8.42282
7.24307 139.63 5.82951
-15.5403 123.366 10.6902
-15.8929 123.677 11.6904
11.064 135.782 -6.1818
-9.16983 120.928 -2.58624
-15.2349 124.187 11.4914
-14.1767 115.888 -4.03026
-13.2232 124.795 9.63376
16.4458 142.756 -2.20805
-14.0884 124.556 10.4408
-17.2191 119.398 6.12827
-19.0882 113.134 -1.91844
-17.2997 122.221 10.8373
-16.4674 120.876 7.37038
-15.7314 122.1 8.38843
9.74734 142.005 5.69359
-3.39624 131.884 7.26825
-21.4525 118.538 10.3379
-4.48004 131.152 7.51003
14.9409 141.763 -2.18975
18.6033 144.804 -2.27591
20.4858 146.808 -1.57171
-20.9499 120.276 12.3865
-7.87775 128.779 8.14354
-4.7368 126.191 -0.700207
-18.4472 113.347 -2.9297
-14.8035 123.699 9.334
-4.93239 130.932 7.51068
15.039 145.665 3.99111
10.2775 141.589 3.83199
-10.8185 119.273 -3.87716
-0.975035 129.699 -0.287683
-15.7789 122.432 8.43511
18.4057 145.028 -2.01377
-17.6476 122.082 10.4577
-13.6032 124.14 8.18285
8.08108 141.205 6.17167
14.8559 142.293 -1.62875
-17.909 123.231 12.7
-10.3663 120.222 -3.11135
-20.238 121.485 12.9926
-22.4523 120.524 14.491
-11.2726 127.031 9.45683
13.754 143.338 1.4208
-20.9899 120.339 11.8914
-12.2715 118.078 -4.36101
-17.5837 119.407 5.406
12.4917 137.524 -6.7776
-6.62465 130.177 7.94974
-11.7347 126.451 8.89497
-16.3907 123.603 10.6897
-2.80253 128.686 -0.0639512
-20.2401 121.46 12.4817
-11.0484 127.373 9.40155
-16.314 122.761 9.07346
-16.9168 120.452 6.02687
-16.5022 123.575 10.673
-15.418 125.104 11.7092
20.0743 147.933 -0.193018
-17.6817 123.948 12.9183
9.16203 142.427 5.94681
-1.64724 129.772 -0.0589047
14.2049 144.162 1.67888
-14.7398 124.397 9.38638
12.4614 137.807 -6.64935
6.52174 134.502 -3.81421
-10.0105 127.448 7.75785
14.4279 145.67 3.79145
-18.7935 120.756 8.84326
10.6702 143.598 5.50098
-10.2555 127.997 8.89149
-17.4693 121.109 7.50752
-15.7943 124.528 10.8689
-15.3793 124.74 10.6089
-16.7441 121.142 6.44086
14.1689 145.554 3.71232
-13.8261 125.092 8.90667
-19.1299 120.961 9.43358
-13.8848 126.826 11.8718
19.7373 148.268 0.231252
3.95924 138.5 6.124
14.205 141.101 -4.05869
10.7672 136.946 -6.33649
-16.9456 119.395 3.3701
16.26 144.641 -1.27725
9.47039 136.576 -5.28224
-10.8364 120.681 -3.386
-18.2432 116.521 0.0811542
-15.5107 123.473 7.90141
-24.121 119.25 13.005
-21.4627 119.565 9.66154
-10.2095 128.285 8.39
-14.6028 124.53 8.28099
-15.2041 116.862 -3.84812
16.6773 145.255 -1.22757
-14.7617 124.322 8.04868
-10.5199 121.478 -2.83281
-19.2233 115.094 -1.28987
-5.98066 126.122 -1.49163
-22.5987 119.957 11.6887
10.4371 142.656 3.04482
-12.7059 128.122 11.2881
-16.9193 119.521 2.72457
-19.2256 117.494 2.57773
-23.9189 120.267 13.8687
11.6113 137.769 -7.14758
-10.5578 121.665 -2.84993
-18.9508 124.36 13.6
14.802 143.566 -1.95767
-17.067 119.317 2.31073
-16.2643 118.793 0.260905
-16.3962 125.477 11.6817
8.88145 143.333 5.89881
12.6751 139.473 -6.00245
3.2316 138.614 5.94125
-23.2475 120.011 12.1347
-23.1672 119.984 11.9489
-16.5431 122.018 5.91725
-3.81093 133.012 6.37112
-17.3126 119.996 3.56721
-16.605 122.145 6.12048
-9.64317 122.803 -2.66218
-19.055 121.745 8.90075
-23.3459 120.869 13.4869
-7.94504 130.776 8.31036
-11.7452 128.285 9.39772
-16.8209 121.84 5.69233
-16.6486 120.172 2.60164
6.56511 135.77 -4.0876
-17.9282 117.688 0.159135
-21.2306 120.126 8.90377
3.03389 135.004 -0.474876
-20.5975 119.525 6.94075
-15.8181 120.583 1.88375
-12.183 128.474 10.0298
6.84685 141.895 5.63822
18.76 148.96 0.617264
-17.2281 118.736 0.735705
-17.5894 119.78 2.95003
11.0093 143.37 2.11267
-8.4937 130.724 8.46994
-10.7768 122.053 -2.92121
-19.0785 124.875 13.5788
11.8962 143.888 1.6476
-19.8964 120.569 7.36912
0.246527 136.743 6.00216
-16.2648 119.935 1.06711
-13.6803 128.284 11.4728
-16.9527 120.537 3.01458
-16.7527 121.443 4.24862
13.7663 141.468 -5.31813
-14.9281 127.462 11.7238
-21.7483 120.369 9.43881
-22.2318 120.631 10.5525
10.9261 143.533 2.08916
-19.805 118.18 2.95899
-18.8412 116.019 -2.06528
-13.9111 119.019 -4.03611
-24.716 119.564 12.2283
-20.0128 121.288 8.42857
-16.3868 117.206 -3.83849
-17.475 119.806 2.07784
-15.9698 120.908 1.76563
-12.1396 129.298 10.4719
-7.30177 125.647 -2.66072
-17.858 120.938 4.34874
-17.9718 116.352 -3.302
-16.3746 119.211 -0.779734
-16.6696 121.108 2.83737
10.4065 143.939 2.89406
18.6226 148.427 -1.23473
-4.62201 133.51 6.55256
-17.6601 117.739 -1.60124
13.8418 142.272 -4.98391
-18.3308 122.747 7.7612
13.6761 146.224 1.89302
-14.3195 128.431 11.5724
-16.7122 118.395 -2.06064
-21.4483 117.892 3.81028
-19.4763 118.93 2.71366
-2.85043 131.24 -0.176359
-21.77 120.443 8.44162
-19.8697 125.169 13.7066
-16.1186 122.161 3.27651
-17.5441 122.273 5.44932
-18.4312 122.016 6.21971
-17.379 120.074 1.44123
-14.1117 128.788 11.4375
11.6626 144.64 1.49862
8.98586 144.956 5.81876
-6.55733 127.269 -2.0072
-16.4952 119.238 -1.56014
-1.30601 133.121 0.284789
-1.16736 136.687 6.07333
-20.8776 120.4 6.55528
-9.36626 124.219 -3.39864
-11.718 129.905 9.52353
-5.8457 133.652 7.47848
-19.6602 125.656 13.5563
-17.6567 122.421 5.22882
-13.3532 120.608 -4.0355
-22.4592 121.313 10.0331
8.42977 144.674 5.46898
-22.1401 120.052 7.27265
-13.2389 129.762 10.9861
-5.2459 133.878 6.48028
-17.2371 120.154 0.32262
-17.3739 120.1 0.333638
-7.08705 127.229 -2.26989
11.3709 140.142 -6.73036
-16.458 121.523 1.36595
-15.3182 122.235 0.942269
-22.6523 123.626 13.63
-17.3834 120.203 0.327487
15.9402 147.914 -0.355286
-17.7206 119.818 -0.000897921
-5.39787 134.363 7.01301
-20.4898 119.237 2.87022
-15.8215 121.917 0.737695
7.93179 144.69 5.3883
-17.18 118.152 -3.72891
-17.8209 119.977 0.196513
-4.18774 135.216 6.51814
7.48351 144.211 5.10087
-16.2714 123.363 3.56095
-5.3123 134.312 6.44897
-0.990433 134.297 0.278265
-18.1158 126.83 11.9734
3.1628 140.601 4.98189
4.41091 141.651 4.96084
14.5442 145.567 -2.82969
-21.3506 118.539 2.54568
-20.4776 125.875 13.5956
-20.1719 126.085 13.5154
-5.09528 129.761 -1.69944
-17.6362 127.163 11.6131
-21.2246 125.442 13.7683
-13.46 121.336 -4.21775
2.98549 140.63 4.96092
17.2327 149.71 -0.000411501
11.4122 140.857 -6.73812
16.0217 148.407 -0.549599
-15.7243 122.863 1.43445
-6.65059 134.498 7.98727
-13.0108 121.77 -4.45956
-16.8592 121.342 0.259336
-23.2521 119.63 6.32
-15.6016 119.975 -3.97057
-3.55862 136.268 6.38089
-15.4341 121.462 -1.79139
-17.017 121.611 0.677774
-17.4624 120.513 -0.622673
-18.5032 119.969 -0.0699502
17.0935 149.429 -0.989348
-17.2064 127.768 11.1669
11.0671 145.863 1.5383
-22.6397 119.084 4.21955
-15.1819 120.65 -3.78181
-19.2372 127.117 12.8872
12.6031 146.932 1.07359
11.505 141.644 -6.35138
6.04105 143.724 4.89678
11.8552 142.352 -5.73614
12.5645 147.019 1.06571
10.0898 146.515 3.72403
-16.7839 119.887 -3.05233
-9.69138 125.356 -3.9377
-1.05373 138.42 5.82052
-15.9681 121.689 -1.31909
-16.9736 121.29 -0.618901
-7.49679 127.997 -2.82623
-19.4567 127.322 12.9936
12.9996 147.507 0.940998
-18.0867 127.658 11.5913
6.46105 144.901 5.67778
-22.2564 119.239 3.13523
-21.1746 126.28 13.4723
12.6143 147.374 1.00755
-8.98328 126.442 -3.66576
11.9555 142.986 -5.59901
13.4699 148.659 1.81505
3.75435 138.31 -1.85083
-10.3033 133.624 10.1383
14.062 146.554 -2.65885
-14.6843 121.602 -4.01475
7.32703 139.24 -5.53686
-4.45752 136.262 6.13934
13.7081 145.181 -4.64239
11.0254 141.851 -6.4835
-17.7504 121.899 0.685749
-8.35186 134.862 9.17874
3.4523 138.404 -1.62259
-16.2593 122.013 -1.67032
-17.054 122.229 -0.18857
-10.4368 133.912 10.1108
13.327 149.022 1.83303
3.09725 138.54 -1.38178
-23.6245 120.768 6.58499
-14.9406 130.539 10.7084
12.9182 144.593 -5.24382
9.81048 147.047 3.27659
13.7698 146.845 -2.76661
13.5219 146.382 -3.2167
-9.75818 126.292 -4.10097
6.35663 139.436 -4.82697
-16.7143 122.233 -1.13271
0.54613 137.396 -0.0715589
-3.7081 133.273 -1.00566
-22.9685 119.917 3.70818
-19.1138 128.18 12.1634
-16.2725 122.307 -1.89071
-17.1418 123.317 1.02929
-16.6534 121.915 -2.10263
-17.1505 123.361 1.02327
0.471452 140.656 5.11092
10.6578 142.434 -6.36323
-16.2232 122.401 -2.13801
-15.4401 123.468 -1.48324
-17.3168 123.349 0.863108
-18.7196 128.586 11.5334
14.3526 149.19 -0.919429
5.04864 144.756 4.80146
-22.6877 120.846 3.79638
9.67617 148.074 3.68804
-17.9299 122.836 0.247887
-22.6771 121.219 4.13833
-16.7314 123.264 -0.882378
-21.6216 127.32 12.8049
-10.9015 126.028 -4.65143
-23.8687 121.797 6.57
-17.3589 123.914 0.86741
-21.9566 121.525 3.21705
-16.2611 122.511 -3.37211
12.8667 147.039 -3.44619
-16.0529 123.282 -2.55357
-0.614898 140.865 5.15836
9.67668 147.467 1.61962
-13.2934 124.607 -4.43128
-16.285 124.969 0.363135
-16.2348 123.306 -2.5698
14.866 151.153 0.151642
-12.6609 125.44 -4.16968
10.7521 148.342 1.18424
-23.1474 125.55 10.8582
-10.7373 135.398 9.82157
-23.4145 125.229 10.5496
-17.8921 130.131 10.9072
1.82082 142.972 4.4299
3.46708 144.407 4.46945
-2.84553 136.008 -0.737517
10.8401 148.646 1.13147
-3.99441 138.479 4.85274
-16.4477 126.184 1.79247
-22.2378 123.273 5.06344
-15.3682 124.176 -3.19007
-22.6206 127.078 11.9318
4.6632 141.015 -3.37908
-15.817 126.633 1.41122
6.56124 141.814 -4.77225
-4.85284 138.063 5.09439
9.37949 143.43 -6.17241
-3.28183 139.268 4.73389
9.56271 148.15 1.44708
-18.2596 124.123 0.421256
-22.5565 126.63 10.5086
-15.7009 125.678 -0.838042
-17.3628 131.237 10.8599
-16.0714 126.52 0.930683
-7.93309 130.46 -4.17113
14.121 152.168 1.12274
-15.6324 132.756 10.626
-23.9377 124.078 7.76059
-15.6522 127.603 1.89471
-20.7615 124.04 2.99073
-14.5915 125.684 -3.11756
0.256253 142.72 4.47472
-15.4123 126.036 -1.49668
13.6979 151.421 -0.124801
-13.4069 126.364 -3.95919
-10.1575 137.163 9.58526
-15.6519 127.637 1.31239
6.5171 142.719 -4.76337
-13.4715 135.045 10.6482
-12.1791 126.93 -4.93116
-22.1615 128.573 11.9524
11.3146 150.339 1.08487
-6.52663 138.617 6.60828
-21.9774 124.307 4.38719
-15.0967 125.721 -3.01497
-19.1818 124.626 0.820802
8.73718 144.185 -5.86553
-4.26534 135.553 -1.9892
-21.9952 127.658 9.85798
12.9003 150.959 -0.474427
-15.0928 133.875 10.4253
5.64844 142.637 -4.29456
-23.4761 125.541 8.1591
-9.98818 128.704 -5.72319
-21.6283 129.348 11.8233
-22.7053 126.811 8.98147
7.81299 143.99 -5.41606
-8.49418 130.745 -4.80601
8.77459 149.841 2.88484
0.120144 140.508 -0.57416
-14.7863 126.774 -2.58918
-14.6884 127.43 -1.70246
-12.1525 137.103 10.7864
7.33322 144.093 -5.17846
-9.02172 138.945 9.30969
-7.12141 132.634 -4.04092
0.102894 143.786 4.35765
-6.98994 139.228 6.69512
-9.17877 139.097 9.57255
-15.7524 128.344 0.733478
11.5523 151.817 1.54767
-11.8517 127.87 -5.76887
-22.1874 127.392 8.09511
-14.3705 126.578 -4.3809
-22.1937 125.116 4.25882
-22.7239 126.056 6.57991
9.51015 145.887 -5.75646
-1.30325 142.837 4.35961
12.2804 151.29 -0.690139
12.1195 150.065 -2.57715
12.0126 149.848 -2.98619
-2.12494 142.473 4.588
-15.6783 129.036 1.09719
-14.6862 130.032 1.35068
-8.14306 139.201 7.51468
-13.4214 127.328 -5.0519
-15.4686 135.251 11.2169
-14.5718 130.117 1.22146
-21.4671 130.29 11.2969
1.20992 142.22 -0.982029
-20.0402 125.545 1.02729
-2.68903 142.355 4.72582
-13.1663 128.863 -3.18015
-6.91941 139.936 6.5221
-9.94087 139.314 9.74489
-14.8327 130.195 1.301
-14.6799 130.237 1.14332
-14.9499 128.915 -0.734587
-14.6739 130.322 1.231
6.96777 144.863 -4.98303
-10.9613 129.509 -5.4474
-18.6584 133.006 11.3804
-20.0842 131.866 11.4542
9.66693 150.974 1.27756
-7.35865 133.245 -4.47695
-14.3161 128.365 -2.85825
-15.2699 129.067 -0.334267
-12.3187 128.624 -5.32565
-14.5775 128.92 -1.68224
-14.8611 130.337 0.816874
-12.4041 130.362 -2.64125
-21.5559 127.248 4.98038
11.3948 150.238 -3.09641
-10.8743 130.219 -5.26944
-10.7497 130.521 -5.32167
-15.0515 130.262 0.310981
-7.09827 134.075 -4.57495
-11.7191 129.871 -5.1485
1.03885 143.062 -1.05747
-18.702 127.536 0.679697
-12.1691 138.707 10.2015
-16.3374 129.026 -0.295999
-22.1886 126.505 3.66262
-1.59771 144.037 3.94828
12.1887 153.494 0.230823
-11.6946 139.199 9.94234
-9.38542 131.768 -5.92195
-8.42294 133.05 -5.19167
-21.3671 131.125 9.89627
-10.2901 140.585 9.96805
10.7429 151.854 -0.955009
-14.5115 129.992 -1.98171
-10.9808 131.615 -4.31602
9.58146 152.147 1.10097
-11.3005 131.923 -3.39637
0.891998 143.641 -1.09139
-8.70513 140.938 7.93923
6.00291 146.04 -4.39574
0.841389 143.712 -1.09092
11.352 153.671 0.739756
11.5621 153.434 0.00113244
10.5285 151.031 -2.62238
-19.9486 133.645 11.2718
-15.2502 131.568 1.08214
-20.204 133.203 10.8622
-18.0707 135.476 11.6331
-15.1422 131.284 0.360193
-1.43383 144.988 3.98448
-3.96881 143.03 4.2516
-11.0261 132.675 -3.20943
-2.32326 141.219 -1.15527
-12.0738 139.69 10.0902
-11.1825 140.426 10.0367
10.3712 150.841 -3.1388
6.80867 146.888 -4.77267
-4.9885 142.325 4.28054
-15.3907 131.384 0.588147
-17.09 136.607 11.525
-13.6237 132.402 -0.647536
2.65069 145.186 -2.21823
-21.2121 127.576 1.95944
4.20907 145.809 -3.42754
-5.82399 137.292 -3.63126
10.429 152.756 -0.71167
-16.8233 130.44 0.216493
-20.4383 129.972 4.53041
-9.21641 133.567 -5.37536
-3.62226 140.305 -1.9688
-20.9744 127.96 1.80019
-19.0271 135.335 11.4284
-12.9739 132.907 -1.40868
-10.9354 133.372 -3.62385
1.63468 145.095 -1.71926
-14.562 132.704 0.320098
-11.3021 141.347 10.2045
9.73627 151.317 -2.94394
-19.8267 133.816 9.43706
-7.54862 142.418 6.48973
-8.32607 134.645 -5.5253
4.64811 146.689 -3.65656
-8.98296 142.289 8.26432
10.2614 154.203 0.900614
9.74465 153.901 1.09264
-20.2957 129.179 1.91499
-6.09813 137.617 -4.13863
-14.1219 139.509 10.4423
-5.27872 143.188 4.05471
-2.09361 142.814 -1.16037
8.89998 153.711 1.525
-7.61068 135.713 -5.41785
-10.9682 142.148 10.1737
-6.33959 137.397 -4.46729
-15.3413 133.11 1.06085
-19.9809 132.431 6.42943
-18.0639 131.14 1.33102
10.0198 154.51 0.832779
-8.38348 135.406 -5.31992
8.12706 149.902 -4.48385
-11.883 134.197 -2.9607
-12.4534 141.697 10.3199
-7.60541 143.591 6.37765
-12.623 141.714 10.3124
-16.3513 132.844 0.623984
-18.4298 137.08 10.6787
-14.6043 140.177 10.4407
-16.5372 132.633 0.441148
-15.4456 133.796 0.810862
-17.1666 131.962 0.136812
-20.1989 132.678 5.61765
-17.5049 137.943 10.6718
-17.2317 131.976 0.13608
-18.9701 136.529 10.2196
9.06657 153.125 -1.64088
9.35387 153.824 -0.874628
-7.60712 137.063 -5.07505
-18.7216 131.771 1.74357
6.28165 149.373 -4.18348
-19.8699 134.626 7.80691
-10.6912 143.443 9.5668
-19.9939 134.388 7.25473
-7.08206 138.193 -4.84246
-20.2951 133.697 6.30982
-14.6793 135.458 1.3035
1.6442 147.19 -2.08798
-4.1726 142.051 -2.57575
-11.3949 143.27 9.70537
-4.97697 141.035 -3.29956
-18.8572 137.214 9.95561
-18.5359 137.627 10.1754
-19.5252 136.378 9.45989
-18.6878 137.524 10.0033
-13.1955 136.446 0.101795
5.6398 149.904 -3.95678
-20.2821 134.13 6.19835
-17.9388 132.905 0.802811
-17.9779 138.428 10.1515
-11.6772 135.853 -3.21897
-2.30538 144.927 -1.29745
7.40462 151.644 -3.7777
-18.7974 136.027 7.03719
-19.9522 134.069 5.35037
-15.0326 135.893 1.3894
-9.38366 144.76 8.14733
-13.8422 135.46 -1.33539
-19.4748 132.78 2.08104
-6.81854 139.473 -4.61253
7.47512 152.278 -3.32846
-17.7856 138.841 9.77273
2.3675 148.525 -2.60391
-18.2154 135.602 4.81635
-2.73827 144.954 -1.41212
-8.56283 144.965 6.84155
-18.1981 138.496 9.60412
-17.6852 138.994 9.70046
-18.1298 135.709 4.78768
-5.25161 145.964 3.79968
-13.2471 142.868 9.91904
-17.6194 139.071 9.72033
-2.81379 144.975 -1.4718
-14.5444 135.529 -0.818104
-16.1618 135.597 1.59085
-13.3457 137.016 -0.0889506
-17.7237 139.082 9.49564
-19.6469 133.285 2.43093
-19.6184 133.736 3.06522
-18.3489 137.629 7.78561
-2.44013 145.624 -1.34635
-13.9348 135.894 -1.52379
-3.14625 144.868 -1.7341
-14.3489 137.266 1.3367
-9.33768 145.207 7.48017
-18.2317 136.635 5.5842
-17.682 135.55 2.95912
-17.1661 136.202 3.31597
-6.41475 140.911 -4.12105
-15.592 136.542 1.40844
-17.8746 135.221 2.40984
-19.3928 133.672 1.94506
4.3869 150.477 -3.48705
-10.6474 145.042 8.62163
-14.6693 142.449 9.85435
-16.7332 136.239 2.14169
-16.2558 141.019 9.52297
-9.75285 138.359 -4.24956
-9.74031 145.497 7.68569
-11.0855 145.038 8.70071
-8.33436 146.101 6.4657
-10.0183 145.588 7.97345
-17.2113 137.509 4.53173
5.90009 152.448 -3.09619
6.71499 154.394 -1.08492
-14.1731 136.831 -1.09212
-17.7451 137.798 5.48365
1.84294 149.603 -2.43217
-5.94072 146.995 4.21574
6.19266 153.579 -2.01996
-13.8796 136.842 -1.92122
-17.5484 139.259 7.29312
-17.6541 138.136 5.42308
6.39703 154.45 -1.22843
-3.18757 146.304 -1.74592
-17.2118 138.428 4.75854
6.00396 154.313 -1.42517
-13.429 138.553 -0.4536
-10.9787 138.912 -3.33446
-13.5545 138.254 -0.938507
-3.0758 146.746 -1.75917
-15.0692 142.975 8.83758
-5.8473 143.294 -3.78301
-13.8941 140.194 2.34367
-13.4986 140.416 2.15244
-8.0983 147.269 6.00319
-8.41923 147.182 6.2329
-9.12476 140.483 -4.20359
-4.74401 144.918 -2.98709
-9.53429 140.542 -3.84473
-13.4664 138.532 -1.71718
-3.86629 146.568 -2.23546
1.96608 151.292 -2.5778
-16.0463 139.842 3.55592
-6.55934 148.429 4.48761
5.56729 155.354 -1.17595
-12.6101 139.859 -1.71403
-6.27338 148.741 4.10095
-7.16243 142.93 -4.47513
-12.8989 141.724 1.44011
-12.2983 140.432 -1.83824
-0.016663 150.701 -2.0813
-12.4707 142.743 2.16084
-16.6202 141.563 5.91777
-10.7222 147.157 6.83013
-11.0016 141.256 -2.79998
3.17129 153.608 -2.36706
-13.0247 141.553 0.0645589
-14.9106 142.15 3.61781
-9.83862 142.181 -3.62576
-4.74566 146.977 -2.91347
-13.9256 143.114 3.48454
-12.2748 144.218 2.89621
2.61293 154.012 -1.99232
-12.2919 143.554 1.44247
-14.3236 145.049 6.82683
-12.616 142.426 -0.365692
-13.6032 145.184 5.58233
-14.7459 144.66 5.99555
-11.6093 142.209 -2.60267
-5.89898 150.4 2.94647
-2.09323 151.05 -1.56625
-11.7301 143.246 -1.51092
-7.09212 145.603 -4.16333
-12.4896 143.881 0.183702
-11.5112 147.919 5.28688
-9.66469 149.046 4.21281
0.513485 153.885 -2.08919
-1.74108 152.306 -1.62906
-9.88319 144.29 -3.65335
-5.31542 148.508 -3.20413
-5.97672 147.707 -3.70528
-1.34073 153.483 -1.86695
-1.39399 153.451 -1.85417
-2.06776 153.008 -1.68629
-11.9373 147.807 3.34944
-6.93839 151.719 2.49856
-8.88837 150.397 2.75823
-9.66285 145.935 -3.80429
-11.7693 146.393 -0.101687
-2.00604 153.702 -1.81676
-11.8886 147.255 1.30501
-2.19535 153.608 -1.77495
-8.09426 150.932 1.99467
-9.94014 149.914 2.62359
-10.6706 146.464 -2.34861
-7.61828 151.392 1.1422
-11.2206 148.512 1.32893
-10.9295 149.057 1.50746
-2.42371 154.326 -1.87117
-11.3459 147.805 -0.331009
-10.4776 147.372 -2.32031
-10.9336 147.36 -1.70695
-9.50383 147.864 -3.07982
-10.8083 149.263 1.11093
-9.90442 148.041 -2.71201
-6.70961 153.804 1.05543
-10.7347 149.156 -1.39501
-4.75657 154.174 -1.45946
-10.0102 149.963 -1.45307
-5.0537 154.429 -1.09905
-10.1494 149.878 -1.58877
