ply
format ascii 1.0
comment Created by Open3D
element vertex 1921
property double x
property double y
property double z
end_header
-14.841 100.887 4.52131
-23.5662 119.578 5.14724
-23.5617 122.39 -5.91854
-24.0139 123.681 -6.97141
-28.929 133.228 -2.71042
-23.9619 123.607 -7.01777
-9.28828 93.2599 -12.2489
-26.3174 127.427 -1.90261
-28.9766 133.318 -2.48526
-9.92803 91.3823 0.784515
-3.83195 80.9149 -9.6177
-25.9534 126.526 -1.03272
-9.71943 91.0621 0.601097
-25.9139 127.433 -4.62249
-14.3788 100.249 4.56496
-31.1717 136.868 3.24185
-9.2075 89.7235 2.26499
-23.4874 122.768 -6.27948
-27.3844 128.59 3.95399
-24.8447 125.086 -3.781
-25.7395 127.222 -4.57885
-23.7243 123.339 -6.27476
-30.321 135.072 3.65908
-14.362 100.388 4.53296
-20.6349 117.808 -10.6074
-2.42478 77.7323 -7.58145
-29.2397 132.55 4.88713
-22.5767 121.726 -9.03558
-8.16502 87.9808 1.61831
-6.64897 88.204 -11.9247
-25.8661 127.265 -2.12986
-23.697 120.785 5.08066
-24.9908 123.901 3.81669
-25.1902 124.482 3.40288
-16.8536 110.209 -11.0154
-19.8597 116.691 -10.9728
-21.8149 116.595 6.09509
-29.5926 135.179 -0.398912
-7.37632 86.6951 1.62172
-12.9529 98.038 4.57321
-12.3026 96.8225 4.13051
-16.925 110.617 -10.6588
-25.973 128.602 -4.35992
-25.9414 126.973 1.84333
-6.44936 86.301 -3.0833
-5.916 85.3659 -3.91316
-14.1206 105.524 -13.4091
-10.6563 98.1902 -12.9688
-6.70161 86.1811 1.13369
-13.4424 104.535 -13.6811
-11.6521 96.2205 4.00794
-11.4248 100.591 -15.0606
-18.7849 111.223 5.89239
-2.36945 79.4719 -8.60206
-22.3422 122.465 -7.89514
-2.99875 81.1333 -9.52777
-14.1682 101.815 4.13462
-14.3605 102.265 4.06967
-23.8731 125.038 -4.67608
-7.932 89.0732 1.50694
-25.8645 129.239 -3.94697
-24.5739 126.373 -3.5012
-17.2824 112.639 -11.0096
-3.56604 82.6377 -9.41486
-8.98457 92.02 0.0356672
-18.9601 116.387 -10.7327
-23.8441 125.713 -5.58755
-18.5617 111.404 5.86548
-23.9841 125.914 -4.9006
-28.926 134.365 3.88315
-10.4534 94.8094 2.87681
-20.9166 116.507 6.44157
-5.68063 88.2933 -11.8206
-6.85381 87.4702 1.53523
-28.4044 134.785 -1.22514
-1.7146 79.0436 -8.20619
-12.271 103.405 -14.018
-30.6774 139.124 2.33954
-7.03956 88.345 1.45967
-19.914 114.936 6.37524
-24.108 126.8 -4.4739
-25.2513 129.226 -4.18942
-29.4431 136.981 0.934951
-15.0552 109.091 -11.4329
-4.36239 85.5731 -9.62224
-27.1763 131.138 5.07005
-6.03771 87.3823 -2.36842
-20.9312 117.284 6.61436
-26.0243 128.977 4.10532
-6.30787 87.1408 1.20277
-13.7885 102.66 3.84901
-9.87337 94.6489 2.17216
-1.424 79.1399 -8.24916
-16.741 108.813 5.15373
-4.88148 85.357 -2.89055
-9.76627 94.667 2.1342
-4.87467 85.2445 -2.33398
-24.3536 125.955 3.38654
-6.62995 88.8806 -0.866468
-10.5035 100.739 -14.5285
-28.0581 133.945 4.212
-20.4091 120.782 -8.88357
-28.0148 133.873 4.26138
-30.3647 139.463 2.41144
-1.09805 78.9285 -7.96589
-6.73196 92.2944 -12.6167
-26.9236 133.69 -3.80958
-21.5891 123.261 -7.94922
-6.19983 88.6042 -2.2217
-6.31927 88.2119 0.371205
-16.0086 108.127 4.69111
-7.52695 91.3577 -0.998936
-7.00674 90.0767 -0.322723
-22.1967 124.474 -6.27654
-19.4464 119.335 -9.33275
-8.09281 95.4214 -11.6073
-6.28768 89.2078 -2.24658
-13.192 102.629 3.72015
-17.4053 111.211 5.86231
-4.53983 85.3803 -1.57575
-5.47041 90.1585 -12.4489
-6.77963 90.0464 -0.510728
-4.27756 87.3275 -11.0179
-17.9071 116.693 -10.2151
-20.1317 121.099 -8.59524
-10.8319 102.514 -14.4852
-7.0883 90.3992 1.51231
-21.8628 124.294 -6.29755
-11.9922 100.328 4.15292
-8.90887 97.766 -11.6661
-18.9928 115.06 6.23887
-26.566 131.778 4.96034
-23.0315 126.924 -5.90011
-23.6558 127.772 -3.86468
-24.4061 127.597 3.2112
-6.09772 89.4921 -2.37197
-3.25344 85.1852 -9.52126
-5.84799 88.1285 1.0767
-23.5308 127.724 -4.42142
-5.36206 90.5383 -12.4825
-21.8096 121.58 5.5335
-28.588 137.423 0.971483
-23.4672 127.677 -4.07753
-3.91596 87.1926 -10.838
-27.2082 135.101 -1.40599
-6.92396 90.8594 0.387476
-11.7762 100.433 4.12447
-5.85337 88.7463 0.292038
-13.3772 104.281 3.58368
-3.34184 83.884 -1.34382
-1.40455 81.6577 -8.91226
-17.0805 115.949 -10.6153
-0.0893248 78.3501 -6.80423
-4.78939 89.8923 -12.2773
-14.8158 110.999 -10.0427
-12.4972 102.62 3.57061
-4.40391 86.2818 -0.805841
-5.56047 89.3598 -3.08411
-14.8361 111.147 -10.0018
-24.0781 127.678 3.50164
-26.1362 134.01 -3.91658
-22.8473 124.853 4.36539
-9.01021 95.5757 2.13677
-16.1722 114.353 -10.7848
-27.6246 136.343 0.0161838
-13.1702 104.294 3.52922
-14.741 107.549 4.15926
-24.7999 131.588 -4.87005
-21.918 125.842 -6.58937
-8.37163 94.6935 1.08406
-26.171 134.224 -3.19801
-6.74166 91.318 0.554233
-23.8083 127.554 3.20524
-12.29 102.676 3.52824
-5.36461 91.8241 -12.5823
-4.71552 88.0748 -3.2846
-5.81829 89.7475 -0.23638
-7.06635 95.3731 -11.7267
-27.259 136.122 -0.422221
-22.3196 124.066 5.18911
-10.543 98.9373 4.10721
-15.6809 113.78 -10.5783
-27.6703 136.189 3.24733
-7.9618 94.4449 0.439385
-6.89115 95.3042 -11.7491
-8.76561 99.7149 -12.8731
-14.926 112.295 -10.0072
-24.5594 131.832 -4.98559
-3.17305 84.6408 -0.809017
-11.6962 106.221 -13.0762
-5.35769 89.3139 -0.241762
-11.116 105.239 -13.9706
-3.96149 86.5238 -0.468443
-14.2879 107.715 4.0271
-22.464 125.252 4.50587
-24.5087 129.779 4.25243
-2.49561 83.8713 -2.14103
-4.13196 86.7909 0.399649
-21.2518 125.693 -6.74371
-5.93679 91.0099 -0.0583927
-15.181 109.835 4.42772
-17.5581 114.628 5.94855
-8.38903 99.5457 -12.4947
-21.1395 122.37 6.09787
-28.5101 138.953 3.49615
-8.19016 99.0192 -11.8786
-27.7074 137.288 3.48158
-20.0259 123.607 -7.6353
-21.3488 126.109 -5.86062
-5.63842 90.902 -0.806243
-3.38399 86.2705 -1.53697
-16.4646 112.71 5.62029
-21.0586 125.543 -5.60413
-3.72879 86.826 -0.463095
-12.3419 104.498 3.38775
-3.99252 90.4954 -12.2645
-9.66792 98.7771 3.73916
-27.8066 137.996 3.57509
-3.21794 86.1869 -1.43508
-16.5299 113.155 5.69372
1.56119 76.9827 -5.63029
-22.6021 126.74 3.93437
-5.41884 90.651 0.0704696
-4.1134 87.6994 0.970713
-26.189 135.898 -1.07751
-15.4322 111.167 4.98761
-26.3588 135.034 3.94257
-2.54479 84.8661 -0.988792
-2.66507 85.4402 -2.05315
-20.0056 120.742 6.71968
-23.6779 131.643 -4.88464
-12.1668 108.443 -11.2426
-7.31003 98.0061 -11.4229
-6.16055 92.8061 -0.648282
-13.6825 107.957 3.8523
-23.6119 129.549 3.48358
-23.3547 130.988 -4.28247
-3.39793 86.9798 -0.679778
-20.4695 125.476 -6.92561
-24.4527 131.379 3.7667
-4.12783 88.5339 -0.332549
-20.0394 121.133 6.66335
-5.11366 93.8395 -12.5875
-3.02446 86.4245 -0.937976
-9.41988 103.647 -14.2222
-0.689439 81.7094 -1.69596
-5.37231 91.565 -0.613418
-1.47894 83.5783 -2.23501
-18.1856 117.62 5.82942
-22.6923 129.87 -4.04979
-23.3697 129.508 3.13811
-2.20784 84.9533 -1.32268
-2.74971 88.7694 -11.7071
-14.4432 110.092 4.18905
-10.2377 105.589 -13.8167
-0.431707 83.2306 -9.1009
-23.0809 129.244 2.46344
-7.32109 98.7588 -11.4832
-9.38251 99.4029 3.56458
-3.14322 86.9721 -0.520229
-23.0838 129.332 2.57525
-3.24704 86.9888 0.644621
1.27792 79.216 -7.02864
-0.392307 81.6122 -2.01563
-6.77949 95.221 -1.25765
-2.21395 85.2342 -0.648697
-5.17089 91.7029 -0.748971
-19.8456 125.023 -7.17288
-2.012 84.8456 -0.48935
-15.5019 112.61 5.16582
-14.3431 110.357 4.24581
-5.30882 91.9704 -0.122041
-5.11711 91.7151 -0.737836
-2.15183 87.9274 -11.0034
-19.1828 120.219 6.89295
-1.80307 84.6828 -0.934045
-1.27828 85.764 -9.55821
-2.89337 86.7446 0.648151
-26.0744 137.051 -0.331571
-9.44281 100.132 3.6757
-3.18005 87.8531 -1.17365
-23.9261 131.474 3.7553
-4.38509 90.2269 0.0356548
-1.89623 85.1246 -0.974259
-3.98433 92.5954 -12.503
-5.92903 93.9186 -1.05058
-11.5163 104.923 3.25689
-26.7465 138.352 1.13121
-1.48682 84.6189 -2.04286
-25.2244 135.902 -1.90231
-3.48477 88.3882 0.433223
-9.06158 99.6928 3.36759
-13.7522 113.136 -9.39732
-6.47624 97.954 -11.4207
-26.7118 137.761 3.90062
-7.40775 97.1737 -0.0724293
-5.09192 91.5013 2.57324
-22.417 130.806 -4.67115
-3.37255 88.5884 -0.268329
-18.4896 123.155 -7.58539
-3.11017 88.0398 0.165591
-0.478196 83.1624 -2.99376
-9.03485 104.442 -13.8881
-5.66034 96.6795 -11.6403
-4.87499 95.1671 -12.3358
-4.32516 90.9943 -0.354732
-20.5303 124.581 5.22438
-4.70304 91.9695 -0.79922
-8.49653 103.593 -14.013
-21.9342 130.396 -5.25944
-24.7707 135.792 -2.38702
-14.2578 115.06 -9.82527
0.679425 82.6509 -9.13128
-16.9307 117.012 5.43515
-21.1315 128.875 -5.5191
-1.89886 86.2908 -1.12
-20.2361 127.143 -6.04274
-19.3873 122.097 6.96548
-3.44488 89.0231 1.98266
-15.6232 114.517 5.16107
-10.8138 108.383 -11.5613
2.22917 79.1447 -6.73375
-11.9005 110.449 -9.80427
-27.7435 141.114 4.26601
-5.00032 92.9709 0.456138
-18.6848 120.949 6.75118
-20.0055 124.183 5.40921
-4.99038 93.328 -0.75957
-25.015 137.098 -2.78419
-26.9943 140.291 1.58191
-12.6256 108.783 3.66827
2.40731 78.973 -6.5295
-23.3445 134.145 -4.54145
-7.9495 103.302 -13.9689
-16.2963 120.157 -9.07607
-20.9456 129.321 -5.41247
-8.38063 104.329 -13.7624
-2.97979 92.3518 -12.3528
-20.93 127.312 2.89689
-6.69359 100.485 -12.3388
-26.9891 141.024 1.4299
-22.0026 132.148 -5.90227
-21.3007 128.478 2.65472
0.739284 81.42 0.593594
-16.9777 118.384 5.70572
-3.24142 93.3934 -12.4536
-8.26676 100.412 2.85921
0.164451 82.5956 1.43358
-14.3982 113.265 4.66725
2.87348 78.7356 -6.18791
-4.31666 92.8971 -0.670501
-7.09667 98.8128 0.228839
-0.655828 85.1857 -0.612491
-25.3563 137.435 3.70356
-9.36117 103.043 3.20882
-26.5461 139.88 4.74975
-3.10098 93.6286 -12.4448
-9.50641 107.61 -13.0273
-6.55162 101.125 -12.548
1.68176 80.4482 -0.944697
-13.8367 112.639 4.37699
-26.536 140.949 0.901733
-21.7648 132.002 -4.4039
1.43813 83.1474 -9.32287
-0.731363 88.2916 -10.9709
4.33589 75.7856 -4.17548
-7.5183 103.952 -13.8389
-13.456 112.205 4.18516
-7.74218 100.468 1.88609
-25.5159 139.506 -0.534698
-1.2698 89.9278 -11.4641
-11.8447 112.229 -9.11847
-3.63294 92.7678 -2.16094
-27.0923 142.032 3.37518
-26.2618 139.915 4.71812
-11.7806 108.99 3.51215
-4.17892 93.153 1.517
-14.0497 117.12 -8.60788
3.68425 77.9535 -5.16378
-12.8062 114.594 -9.11355
-4.53417 97.5038 -11.5418
-3.72481 96.0201 -12.2781
-8.87643 107.441 -13.1921
-16.1824 121.974 -8.24257
-23.5861 136.91 -4.08118
-13.3567 112.719 4.21547
-9.22119 108.177 -12.6144
-8.63825 107.093 -13.2802
-0.615381 86.6016 0.219497
0.777298 83.4256 0.968481
-19.5968 126.591 4.27823
-1.35251 88.2781 0.329142
-3.36969 93.1629 -1.70647
-9.0054 108.155 -12.7731
-22.1546 134.476 -4.51889
-10.1603 106.72 2.93445
-6.56974 103.148 -13.3478
2.6441 80.1437 -0.858757
-19.452 126.551 4.67987
-3.28561 91.8947 3.70596
0.0612114 85.6262 0.10164
-22.8246 134.129 3.76826
3.52721 79.9246 -6.80174
-13.5528 117.196 -8.30207
-19.4711 126.836 4.14746
-16.1035 122.7 -8.10998
0.110176 85.6715 0.224451
-18.9415 128.472 -6.26748
-10.4184 110.92 -9.54201
2.70728 80.4224 -0.165919
-21.1191 133.073 -4.6849
-2.19661 90.4091 2.97067
-14.6244 120.16 -8.20511
-0.102829 86.5208 0.840669
-18.7193 125.505 6.19724
5.71426 75.14 -3.20745
-5.8114 102.404 -12.4051
-19.2096 127.12 4.26107
-16.3652 124.153 -7.77543
-15.7033 122.773 -7.76438
-26.1215 142.249 4.48777
-12.6571 116.407 -8.19278
-23.6138 138.717 -2.81085
-12.0047 115.129 -8.61457
-3.43631 93.5305 3.81743
-6.9749 101.735 1.84001
-18.9364 126.614 5.70343
-4.52361 99.794 -11.2407
-18.8448 126.411 5.87026
0.925844 87.9087 -10.406
-9.14575 106.336 2.7204
1.74601 83.0003 2.00684
0.374705 89.3252 -11.2162
-22.2413 134.315 3.94537
-10.1474 108.362 3.39228
-1.71574 90.3517 2.92326
3.90122 80.853 -7.16534
-21.1847 134.187 -3.86287
-4.49304 97.6642 -1.87383
-14.2764 117.003 5.28827
-21.0582 132.006 3.94791
-12.1483 112.732 4.09401
-1.53368 93.9223 -12.0027
-19.0294 127.74 3.61399
-13.4722 118.824 -8.16821
-8.36903 105.101 2.65615
-11.1634 110.878 3.67986
-1.601 90.612 3.09053
-4.8849 98.9221 -1.64981
-15.1485 119.293 5.83096
1.57566 87.282 -10.1623
-2.766 94.0715 0.122625
-25.8266 143.264 2.79101
-3.01999 94.3703 1.66854
-13.0006 118.422 -7.91326
-8.19964 105.453 2.55119
-6.61342 102.254 1.92649
-18.7216 127.983 4.04894
-17.4196 128.016 -7.14893
-2.74745 93.4469 4.2985
-16.0251 121.759 5.87569
1.57228 84.8519 1.81172
-0.895956 93.668 -11.7458
-15.0384 123 -6.98889
-6.07608 105.347 -13.5739
2.17526 83.6318 1.91002
-0.666031 93.2924 -11.6782
-2.40031 94.5874 -1.70749
-11.8817 116.573 -7.64268
-23.0705 139.343 -2.07369
-21.5992 134.607 4.22446
-24.3059 140.132 5.5334
-12.9506 119.024 -7.90454
-20.7181 135.026 -4.80699
-12.8163 115.524 5.01376
-7.60435 105.043 2.46219
-2.95923 98.693 -11.7227
6.80955 75.3209 -2.62914
-2.90033 94.689 3.85614
-8.58421 110.621 -10.4777
-3.7283 100.411 -11.3437
-4.82644 102.956 -12.0204
-25.1311 142.587 4.61103
-2.94083 95.3987 2.25592
0.928072 90.3864 -10.8814
-20.0853 132.076 3.79284
-23.902 139.893 5.51811
5.12289 80.3938 -6.69152
-3.02613 95.4941 3.34799
-14.0918 122.014 -6.68955
-21.6899 135.681 4.74797
0.0949851 89.3438 2.16244
0.476618 88.5136 2.25444
-12.0231 117.969 -7.39908
-18.7678 129.736 4.02876
-2.15368 94.9395 0.580652
-10.6916 112.542 4.01665
-14.729 120.8 5.84428
-7.81219 106.659 2.82372
-13.074 117.419 5.55343
-11.9075 118.179 -7.32519
-23.3355 139.628 5.40021
-12.3184 115.931 5.21903
-23.0826 140.715 -0.71504
-2.20123 95.9946 -2.06519
-20.5624 136.014 -3.45052
-19.1801 131.222 3.71978
-15.1506 122.025 5.72963
-17.2123 126.462 5.83972
-16.584 128.336 -6.82325
-18.9627 130.826 3.77939
-2.01418 95.6846 -1.88383
-22.8481 138.931 5.31472
-24.451 143.387 1.61939
-0.452188 91.2358 3.13956
-13.2414 121.435 -6.60838
5.00946 82.2187 -7.36963
-20.0636 135.598 -3.76807
-4.79968 101.961 -0.899524
-21.8195 139.291 -3.03287
-12.2062 116.44 5.37198
-16.4982 128.96 -7.0114
-2.44226 97.4533 -2.17934
-2.06376 95.7908 1.18991
0.93659 89.0132 2.64797
-23.8412 142.995 1.16949
-10.1289 115.606 -7.24753
-2.40443 96.5231 2.28927
-13.8531 120.405 5.86655
-23.0887 141.906 -0.240587
-15.2125 126.646 -6.75204
-5.00478 102.801 0.399062
-15.2732 126.829 -6.77502
-1.1779 97.8528 -12.3589
-11.0591 114.828 4.85592
-21.7602 139.809 -2.33285
-1.46559 95.6272 -0.668361
-23.8132 143.425 1.37915
-20.3122 135.246 4.50068
5.64949 82.1743 -7.14891
-13.0086 122.394 -6.22941
1.3374 89.1654 2.94383
-6.83305 110.55 -11.5396
-2.10313 96.2997 4.41082
-19.0662 133.204 3.47306
-19.4497 136.089 -4.21832
-16.3685 130.292 -7.21158
7.35467 77.3244 -0.323319
-4.90285 107.081 -13.0301
-20.1276 137.549 -3.48676
4.58584 82.2916 4.05489
-15.5522 128.675 -7.18559
-15.2508 128.029 -7.04785
-19.0398 135.511 -4.23192
-6.21864 109.927 -12.2074
-0.934001 94.1202 5.23055
-9.85627 116.502 -6.72416
-1.76495 97.7998 -1.85618
-1.93045 96.6054 4.34732
5.58633 80.6215 3.43522
-15.0489 127.902 -7.11956
-5.47228 108.642 -12.5544
6.13752 79.6602 2.93907
-21.9188 139.556 5.78527
-11.9004 121.086 -6.60827
-16.0792 127.182 4.94653
-1.9248 98.4146 -2.07635
-14.6257 123.771 6.14623
-9.57951 113.32 4.41408
-22.9689 142.01 5.44327
-3.63054 102.058 -1.37765
4.74526 82.5617 4.21939
-22.4029 140.823 5.75231
-23.2426 143.922 1.03526
-20.3802 138.869 -3.04765
-1.23768 97.1659 -1.34908
-2.96724 100.858 -1.13512
-4.22816 103.33 -0.0194409
0.898762 91.382 3.66452
5.43525 84.5943 -8.0868
-8.50288 111.6 4.10193
-18.5293 133.522 3.26387
-19.3121 137.185 -4.11548
-12.9104 123.889 -5.86476
0.58237 96.1289 -11.2046
-4.45477 107.439 -12.8851
6.88943 81.2112 -6.05944
-12.8394 123.988 -5.82757
-11.9404 122.192 -6.16084
-22.1448 141.3 5.63389
-1.35292 100.898 -12.0684
-9.84995 114.967 4.88729
-18.1817 133.426 3.14905
0.0711263 97.8323 -11.7819
2.0368 89.7441 3.57845
-6.52341 111.953 -11.0845
8.71235 76.9748 -2.71283
-16.2577 131.822 -6.23603
8.16203 77.2235 1.15952
1.99996 93.6153 -10.4388
-1.3787 97.6846 2.28976
10.1391 73.7527 -1.2989
-3.71925 106.636 -12.929
-16.4948 132.424 -5.79293
-12.9301 122.155 5.73315
-3.75011 103.816 -0.0713805
9.64699 75.3736 -1.79541
1.62752 91.3162 4.43522
-6.89002 113.411 -10.0979
-13.3182 126.431 -6.56224
-14.9918 130.575 -8.52212
-4.39913 108.676 -12.1862
-22.1077 142.547 5.32927
-17.3105 132.78 3.0168
-13.9178 128.058 -7.14003
-3.92108 104.5 0.79064
1.58004 91.6661 4.63833
-20.0354 138.378 4.84397
6.70723 83.7107 -7.2382
-18.4046 135.308 3.14675
-17.7525 135.947 -4.7974
-23.0386 144.981 4.64419
-7.82402 115.285 -7.76035
9.22222 77.2733 -2.96012
-18.9498 136.249 4.42944
-4.43413 109.134 -11.9674
-0.370374 97.7446 -1.08254
-15.1112 128.127 4.77386
6.17029 82.2894 4.56097
8.75505 77.5348 1.55895
4.68034 85.5139 4.95206
-15.492 132.363 -7.83302
-4.31112 109.321 -11.8432
9.31236 76.656 0.973034
-11.379 120.233 5.46317
-8.94807 115.174 4.91208
6.68322 84.5931 -7.56794
-1.2061 102.753 -11.626
-4.89507 107.251 2.2262
-21.6776 142.704 5.45328
2.41328 90.8272 4.89096
2.2904 91.0881 5.00416
-6.04851 109.571 3.2568
2.09428 91.5423 5.10256
-21.5195 142.474 5.48703
-8.66288 117.784 -6.33158
1.68141 96.5965 -10.6897
-0.820717 98.3105 3.93643
4.67588 86.3179 4.91969
4.77603 86.3622 5.04709
-18.0237 137.921 -3.89199
-20.1105 140.068 5.47967
-0.113688 98.405 -0.448197
3.03662 90.2471 4.97927
-0.262617 101.74 -12.2058
-15.6569 133.557 -6.55003
-18.1957 138.677 -4.96851
2.13152 96.206 -10.344
-6.78388 115.103 -8.92168
-16.6172 133.406 2.78829
-4.40482 110.693 -11.1925
0.707605 99.8163 -11.69
-2.40468 104.066 -1.701
-13.4288 126.071 5.68213
-13.6042 126.636 5.3854
-8.57844 115.9 5.03697
6.65699 83.0571 5.06319
-13.6023 126.736 5.37002
5.28525 86.03 5.59697
2.26665 92.534 5.83078
11.6362 74.2679 -1.77976
-0.374881 98.411 5.31661
-20.5692 141.941 5.71674
-21.8875 145.833 1.60716
-12.8118 128.373 -6.59875
7.32529 82.1501 4.72838
-20.4791 143.618 -0.888595
-3.60013 109.912 -11.3448
6.22271 87.9967 -8.43581
2.67646 92.0574 5.93704
-17.2436 137.924 -5.03789
-8.17333 118.647 -5.94459
-13.2977 130.116 -7.42867
-16.4933 136.484 -5.10084
1.07403 95.7983 6.04659
-16.0508 135.677 -5.27438
-17.277 138.326 -5.19323
-4.55183 109.093 1.76196
-4.46052 108.958 1.66688
4.1021 93.3916 -9.82569
0.758508 101.257 -11.8654
7.20749 83.0084 5.16139
-17.3477 138.387 -4.0556
-11.8095 127.031 -6.31238
-13.5705 127.956 5.1848
11.5584 75.6861 -2.23732
-2.04674 104.964 -1.83381
8.83614 82.3937 -5.42362
-13.6963 128.419 5.10952
7.92888 84.8027 -6.97494
6.06534 85.5797 5.8764
1.12886 100.711 -11.5729
-14.0364 129.305 4.82753
1.069 96.4434 5.85005
1.51947 99.9399 -11.2231
0.0659572 98.9893 5.21873
-17.6794 137.525 4.44047
7.81651 85.4345 -7.20199
-12.3909 128.92 -6.42859
-6.48104 113.522 4.11068
-17.3679 139.014 -3.67498
-3.9895 108.941 1.17039
10.3708 77.6871 2.15718
-20.726 143.97 5.72987
-6.31931 113.376 4.0677
-21.3262 145.549 5.05146
-2.22124 105.957 -1.47041
-5.36646 111.7 2.66542
0.361548 98.7675 5.72225
-9.32424 119.993 4.59578
-10.9709 123.303 5.63952
6.36103 89.569 -8.89152
1.53602 96.2315 5.93858
-6.20269 113.438 4.03662
-0.452252 105.088 -11.7116
2.49421 98.4254 -10.5108
-8.30342 120.566 -5.08331
-0.441574 102.668 -1.44286
-10.3875 122.498 5.10785
0.586696 100.107 0.0419665
-15.1581 135.661 -5.89912
-13.5323 129.38 5.17134
12.7218 74.3291 -0.829751
-8.91945 119.834 4.52678
-14.8126 135.305 -6.102
-5.09511 112.165 2.41895
2.14933 95.6833 6.11038
3.30525 97.3085 -9.94749
-17.345 140.171 -3.02435
-12.5084 127.548 5.68502
-2.70775 107.982 -0.395953
-20.7462 146.514 1.46547
-13.6031 133.531 -8.12359
8.65327 82.1337 5.04374
11.973 76.7543 -1.98445
0.687059 100.01 2.60204
-5.56806 113.35 3.3398
11.8227 77.2397 -2.28171
8.61318 85.3275 -6.73807
-17.3892 138.705 4.30159
3.86726 96.3696 -9.55201
-17.343 140.491 -2.89821
-4.40161 111.414 1.63255
7.05967 89.2341 -8.44605
-10.8292 127.246 -5.53001
-15.1451 134.706 1.95448
-13.6623 133.98 -7.62525
0.930363 100.335 1.49199
-14.5128 133.395 2.71242
4.57418 95.2999 -9.41935
9.77298 80.5608 4.57019
-8.71104 120.529 4.40485
0.749406 100.162 4.21701
0.941374 99.4206 5.69393
-1.33369 108.833 -11.8816
-7.63296 118.269 4.56134
1.10066 100.571 0.241879
-18.9835 142.592 5.89189
-13.5215 131.024 5.06894
-10.4274 124.282 5.37078
6.82899 86.7453 6.46159
10.0391 82.7641 -4.95636
-7.56156 120.882 -5.01575
5.27491 94.2455 -9.24358
-2.71481 109.273 -0.287033
-5.48539 114.287 3.55411
-0.288738 104.428 -1.76643
10.76 79.2606 3.45029
-3.74069 111.224 1.02688
10.8986 79.0357 3.35826
-18.8031 144.311 -0.981804
-11.9415 127.912 5.50865
-5.22834 117.053 -8.77424
1.31511 103.772 -12.1037
-18.4966 143.776 -1.15252
8.62481 86.812 -7.28424
1.15841 99.6028 5.90086
-12.1301 131.712 -7.4981
13.9171 73.3967 0.677846
4.49093 92.1899 6.86624
-6.15729 118.701 -6.73284
-16.4989 140.704 -5.39323
0.592577 105.501 -11.9867
10.5798 79.8738 4.02552
6.21171 92.6816 -9.14776
-14.7013 135.068 1.85895
1.03571 100.434 4.58371
12.0639 78.3894 -2.32164
-19.9711 146.818 0.873147
-2.99902 110.345 0.299981
-9.64793 126.129 -4.83109
-18.0852 141.803 5.47414
-1.72614 108.291 -1.42281
12.6888 76.0771 3.14664
0.843655 102.861 -1.44084
-12.0443 132.321 -7.64408
-7.95095 120.484 4.24708
10.048 81.3972 5.14065
-10.2226 125.144 5.24383
5.22196 95.4826 -9.1209
5.85289 90.1279 7.07116
-16.6109 141.654 -4.74624
-19.7964 147.086 1.07729
-13.8437 134.07 2.49111
-7.64026 122.478 -4.32036
-18.0679 142.591 5.67307
-11.3552 131.387 -6.82998
10.3734 81.4332 5.23989
6.12436 94.2002 -8.89959
2.40411 98.1968 7.03847
-10.0509 128.15 -4.97072
-19.4883 145.981 5.33512
-13.4146 133.258 3.87619
0.806097 104.023 -1.60227
12.1819 79.7273 -2.55564
12.4874 78.9078 -1.76899
12.2637 78.1283 3.32269
1.65149 100.926 3.80844
1.7118 100.152 6.56653
4.98993 92.9633 7.00156
-1.02274 108.308 -1.55054
6.45656 94.0207 -8.78608
2.73076 102.801 -11.0653
14.7376 73.4775 2.35616
-3.04108 114.961 -9.53573
-2.69142 111.828 -0.116954
11.352 80.2952 4.67834
1.82354 102.232 -0.226543
-3.3257 115.719 -9.34825
1.81708 101.042 4.7606
10.2809 82.574 5.65633
0.926407 106.923 -10.625
10.6661 81.8119 5.46297
-19.4374 147.704 2.06175
6.65773 90.2652 7.53692
2.06338 102.003 0.420468
-11.8224 134.195 -7.96819
12.4253 78.9224 3.89475
1.27531 106.721 -10.2256
-18.5757 145.623 5.57638
-16.1052 142.745 -4.01967
14.6737 74.953 1.39137
7.44407 93.1214 -8.61637
5.77532 92.7941 7.03044
-10.3187 128.21 4.49984
-14.2368 137.374 1.79118
-0.309739 110.329 -10.1134
-10.6218 131.701 -6.53612
10.7795 82.4053 5.62596
14.9105 74.382 2.20354
2.55535 104.312 -10.3594
-15.1504 139.343 2.66553
2.20732 101.393 4.51105
-3.04293 116.245 -9.08469
-2.41706 114.978 -9.33234
-9.9287 130.341 -5.61315
10.8877 85.273 -5.13539
-14.7071 140.756 -5.81474
13.4724 78.6622 -0.207763
-12.5674 136.763 -7.43451
-2.10769 114.675 -9.39494
-10.1688 128.648 4.16987
5.62145 93.872 6.97089
-2.52568 115.552 -9.1051
10.465 86.8094 -6.35235
10.3555 83.9836 5.8935
-13.951 137.556 1.71207
-10.6342 129.766 4.23582
7.82156 93.1699 -8.55205
-8.93612 126.105 4.28838
-10.618 129.859 4.22812
-6.76059 123.662 -4.03678
4.07509 97.2974 7.66746
1.9332 106.331 -9.68313
1.9905 106.226 -9.71184
-16.3986 142.598 3.43385
5.56428 98.6799 -10.0594
-1.08713 110.894 -1.27099
-8.79857 126.169 4.17778
-17.613 146.259 0.0822775
-13.5322 139.172 -6.48015
-7.43278 125.413 -3.88579
-13.6876 139.606 -6.49324
15.2198 74.913 2.50358
0.949557 106.794 -1.59416
-5.72081 119.721 4.25976
2.69935 105.132 -9.80777
-15.9156 143.554 -2.59791
10.3797 87.9556 -7.21082
8.00036 89.443 7.39856
-15.5072 141.342 2.92504
-10.2549 132.454 -6.58473
-2.46091 113.926 0.192714
-1.44892 112.072 -1.06927
-18.722 148.419 2.86018
2.37456 103.621 -0.00767641
4.5924 96.9005 7.72142
13.1135 80.9597 -1.64126
2.45928 103.499 0.278111
2.12287 104.587 -0.786239
-11.3334 132.512 3.74461
-4.72552 118.28 3.62864
13.6827 78.3921 4.31667
-18.4626 148.415 2.10232
8.68001 88.5164 7.19736
5.05915 100.956 -10.6634
-5.42749 122.173 -5.0097
2.52089 103.683 0.251033
5.2475 95.9975 7.38995
2.89055 102.016 3.76771
-10.8673 134.721 -7.52969
15.1415 76.1719 2.08161
-12.3559 137.918 -6.83823
-0.218305 112.067 -8.09392
-8.69262 129.651 -4.79787
-15.5834 144.3 -3.75775
-1.62683 115.27 -7.84883
-14.9659 143.327 -4.77732
-14.0432 141.755 -5.47337
-2.85023 118.194 -7.84257
-1.10096 112.725 -1.07285
-3.30159 119.279 -7.93416
-16.5075 144.523 5.12217
-7.16754 126.653 -3.78027
5.96082 95.4998 7.27777
14.8746 77.7642 1.51283
3.16867 102.873 2.30497
15.4744 76.0773 3.27001
1.8307 108.538 -8.52816
-5.53541 121.223 4.30634
-3.06048 119.103 -7.77638
-15.67 145.059 -2.71103
-11.383 137.08 -7.66895
-10.3632 131.98 3.89319
-5.88991 122.249 4.27523
-0.770157 114.202 -7.56719
10.002 87.3254 6.68915
-11.2193 134.086 3.53095
-8.90287 131.316 -5.19828
3.10381 106.343 -8.94888
11.8051 86.579 -4.9468
-15.3396 143.206 2.96023
1.7805 107.391 -1.39732
3.29514 103.354 1.74402
14.6989 78.1955 3.96081
9.61653 92.3044 -7.99624
8.66794 94.4669 -8.35083
-14.1499 141.138 1.9166
12.0976 83.6338 5.44094
8.5309 90.8645 7.6892
6.21348 95.8946 7.63011
-7.94042 127.462 3.93613
-3.28942 120.331 -7.20889
6.41931 95.6678 7.54997
-13.7855 140.968 1.0903
-16.0619 146.228 -0.0720154
14.702 79.6603 1.09814
6.4485 95.8215 7.68096
11.6402 85.0879 5.8129
-3.31524 118.289 2.38496
12.2548 83.8966 5.45134
2.10017 109.282 -8.02893
-3.86866 121.843 -6.4136
-16.2781 145.795 5.33056
-10.6917 137.059 -7.70518
-12.2969 137.819 2.95289
15.6921 77.4568 2.69395
-10.0074 135.527 -7.3968
-7.26794 126.726 4.02782
2.29289 107.373 -0.95459
-6.60612 127.298 -3.63098
-16.4709 147.437 1.13843
-5.28552 124.632 -4.13278
10.2668 88.2643 6.87711
-15.7273 146.193 -0.14052
-3.50975 119.101 2.66569
12.027 87.5691 -5.22629
11.5197 85.8213 5.99681
9.74129 93.2592 -7.98098
-7.78847 130.212 -4.37054
-0.0396978 114.164 -7.03687
-9.87516 135.533 -7.36152
-15.6933 146.307 -0.0323983
-1.43248 117.313 -6.80751
6.5383 96.327 8.10905
2.13843 109.954 -7.72715
-15.285 144.728 3.55186
12.185 87.6567 -5.09183
5.57111 103.01 -9.23809
-8.72358 132.953 -5.3892
-3.42121 119.497 2.64217
-11.5563 139.411 -6.54805
-15.4266 146.255 -0.191342
-17.0608 149.101 2.58116
-12.7745 142.034 -5.93178
-12.2494 141.172 -6.65566
8.00635 98.1013 -8.6432
15.5117 78.858 3.38011
-10.1674 137.116 -7.56211
6.05737 98.1239 8.20163
14.3679 82.3455 -0.277282
-14.6267 145.677 -3.0483
15.1236 80.2734 1.54076
-13.9814 142.988 2.30516
-1.69604 117.025 0.197558
5.69712 99.1823 7.92494
-1.91612 119.474 -7.02521
-7.6213 131.127 -4.35115
-13.6782 144.568 -5.32115
-8.00278 129.887 4.33923
11.9687 86.3451 6.0194
13.6896 82.9471 4.78178
4.83201 105.449 -8.4505
12.9452 84.4685 5.30664
-15.4527 147.101 0.179169
-5.82533 125.25 4.3602
3.91993 104.886 1.94348
-13.1852 142.108 0.935439
-9.69861 136.713 -7.40878
14.0106 84.0337 -1.46141
-1.11569 116.529 -0.460785
1.80866 111.908 -6.9043
-15.2862 146.119 4.45048
7.16378 101.375 -9.88022
7.02684 101.728 -9.701
4.17759 103.891 6.03758
2.43159 109.525 -1.12247
-13.6376 145.223 -4.98224
15.79 79.7958 2.46958
0.656703 114.713 -6.29699
-7.63629 129.93 4.34042
13.9741 83.1843 4.7113
-9.62334 137.23 -7.41676
9.054 97.1254 -7.89278
13.9201 85.1149 -1.91539
1.94392 110.877 -1.25893
-11.771 139.74 2.08252
5.12098 105.876 -8.09219
-5.11618 126.788 -3.34997
9.57266 92.2702 7.74041
7.03045 102.16 -9.45136
-12.6786 142.087 1.45845
6.89049 98.044 8.56513
-2.07811 119.356 1.13798
11.7243 88.2464 6.44463
-11.0715 138.277 3.30538
-7.48019 130.308 4.40509
5.74767 104.973 -8.19188
1.37259 112.709 -1.38937
4.32138 105.415 2.38725
-9.85011 138.516 -7.41442
5.25184 101.928 8.29674
7.76094 101.172 -9.96392
6.06414 104.472 -8.3822
-8.86931 133.809 3.17423
-1.11588 117.974 -0.170292
-8.7953 136.299 -6.97932
13.6273 86.8102 -2.51476
-14.7471 147.574 -0.276945
14.0134 85.919 -1.84077
-7.59977 131.075 4.27543
4.63264 104.395 5.4185
13.645 85.0625 5.10515
4.49148 105.464 2.67057
-11.1903 141.759 -6.67741
-5.27346 126.159 4.43907
-13.5129 146.199 -4.22701
2.68089 110.415 -1.00669
4.20999 106.402 1.81342
4.71187 104.602 4.69147
2.86974 110.005 -0.75071
4.73141 104.018 7.08348
-3.47266 124.594 -4.17118
6.13541 100.727 8.29567
3.25004 110.891 -6.87862
-5.10187 128.072 -3.28745
-5.45125 126.995 4.35189
-12.6728 145.163 -5.46411
-0.255512 117.264 -0.704185
-13.554 145.305 1.98009
-3.01865 124.213 -4.48832
15.1525 83.6766 0.872834
14.1311 84.9163 4.86423
-2.86547 122.268 2.52067
1.33462 114.202 -1.33144
1.74598 114.45 -5.79095
4.9898 104.636 5.54742
-7.06986 131.006 4.3196
-3.69003 124.01 3.29816
-8.48324 136.9 -6.69456
-9.00697 138.135 -6.93862
8.9184 95.6639 7.97747
-15.2647 148.883 4.06167
10.4739 96.2972 -7.69969
9.59654 98.3029 -7.91988
5.80536 106.433 -7.52762
12.9696 90.2657 -4.54637
-3.27761 123.445 3.01393
15.3288 83.7759 1.10283
-9.41474 139.317 -7.12057
9.35391 94.9733 8.01143
-6.50653 130.216 4.37151
-0.0924309 117.674 -0.717868
11.1535 95.1376 -7.59956
-13.9226 147.869 -1.89001
8.21238 97.5219 8.26735
-9.44179 139.527 -7.01739
-6.2481 131.89 -3.92758
-7.7507 135.718 -6.12511
3.12109 112.298 -6.21339
-3.74931 124.749 3.33554
13.6626 88.9828 -3.21346
0.886285 116.127 -1.23507
-7.72753 133.778 3.03229
4.01651 108.981 0.884593
6.17471 102.303 8.97757
12.1545 93.2496 -6.18058
9.72763 95.0555 7.91251
8.82428 101.447 -9.55877
10.4482 93.6199 7.75489
-11.8963 143.376 1.92617
-13.8012 148.361 -1.47399
-6.82477 132 3.81507
12.371 93.0344 -5.90107
8.7312 101.848 -9.6073
-10.4414 142.531 -6.60887
-14.4054 149.373 0.158353
-5.65545 131.463 -3.66157
5.00367 106.65 3.47151
-11.7631 143.532 0.84518
-7.44133 135.985 -5.97524
12.9475 91.7493 -4.96485
-13.4098 146.798 2.48077
-6.09829 130.541 4.42224
3.35131 111.439 -0.479672
5.77412 104.128 7.91069
10.7126 97.4418 -7.45584
11.7277 91.6695 7.03743
4.84474 107.586 2.89296
-11.6035 143.702 0.600522
13.6217 90.2911 -3.50117
16.2862 83.061 2.66332
-7.91081 135.38 2.53739
10.413 98.5153 -7.76669
15.0817 86.5548 -0.251693
16.3472 83.0763 2.74082
-13.2156 148.42 -3.0851
5.40889 106.067 5.45107
6.98851 106.083 -7.51573
-2.21567 125.216 -4.48025
7.97828 99.8006 8.96876
-14.6539 150.616 1.86181
5.27958 106.855 4.86827
6.15482 103.926 9.23594
-0.605522 120.865 0.0962447
-7.64724 137.64 -6.0352
-9.31559 139.124 2.31568
11.1454 93.6847 7.34972
-6.38578 132.476 3.81638
8.52219 103.52 -8.90251
-8.64172 140.115 -6.89079
-2.08938 123.726 1.99378
4.3682 111.873 -6.16492
6.80129 106.933 -7.19182
2.69871 115.35 -5.24557
-1.78264 123.341 1.62769
-6.45408 135.099 -4.79889
5.26449 107.523 4.3018
-10.2822 143.834 -6.43982
9.33838 97.8671 7.94223
14.5786 87.4913 4.78192
-10.5904 142.156 3.83969
-13.7584 150.035 0.0716046
-4.10945 130.092 -3.29762
-0.897381 123.609 -5.0118
-4.77685 129.664 4.3533
-6.3894 135.558 -4.91745
-10.4683 142.142 3.87074
-11.2922 144.348 2.20291
-5.95623 132.543 3.91023
-12.0559 148.005 -4.69693
16.4259 84.6287 2.70863
0.378426 121.197 -4.72882
-11.0083 144.011 2.41854
11.2683 94.7006 7.1937
-8.18459 140.292 -6.6458
-9.15499 142.373 -6.46216
-10.8988 143.886 2.46912
6.03386 109.595 -6.38786
14.8007 89.5239 -1.17516
6.26726 105.526 8.39987
-9.32922 142.998 -6.47343
5.58198 107.509 6.70873
-8.0425 138.141 1.94634
2.44705 116.359 -1.03595
-13.9819 151.261 1.39654
-1.44201 124.241 1.50533
14.9227 88.1242 4.59134
5.66888 107.508 7.02928
-1.56296 124.559 1.68525
-1.48871 125.949 -4.34261
6.73998 104.772 9.27729
0.989272 120.731 -4.5784
-4.13901 129.664 4.11616
1.77588 118.235 -1.10577
15.1842 87.9161 4.37887
11.6064 98.7123 -7.57169
-6.94901 138.372 -5.80942
15.9851 86.529 3.32408
4.40414 112.301 0.619134
10.1941 102.37 -9.21792
-0.822892 123.624 0.800619
2.15032 118.573 -4.45286
12.001 98.0869 -7.25031
13.2936 94.7518 -4.77138
2.05734 118.142 -1.06487
-13.2881 151.092 -0.187384
6.48289 110.139 -6.20353
13.4866 94.5276 -4.22777
15.8128 88.2326 0.832078
-10.6134 145.179 1.36157
-8.20238 139.832 1.99154
-1.9082 127.566 -3.21505
14.3596 92.2163 -2.29121
0.427264 122.817 -4.26357
-5.96431 136.892 -5.19758
4.65304 112.443 0.929796
14.6015 89.9988 4.9104
2.90568 116.813 -0.873403
16.3173 86.9014 2.95294
4.89975 113.711 -5.40399
-10.1962 144.284 2.63883
-10.4166 147.054 -5.96659
5.59943 109.96 4.5632
15.673 88.408 3.81867
1.76829 119.664 -0.912259
6.65598 110.507 -6.09385
-5.82732 137.277 -5.2809
-3.25196 131.324 -3.35808
10.7496 98.3189 7.85374
14.5821 92.524 -1.87355
5.71235 109.829 5.55613
7.8261 108.375 -6.54059
15.5849 88.9771 3.93878
-1.12687 125.705 1.47941
-11.885 148.852 1.81609
-3.81122 132.887 -3.49804
-5.07687 133.873 3.60821
14.7525 92.3783 -1.25169
3.71015 115.996 -0.355712
-10.3019 146.017 0.652393
5.49253 111.246 3.38555
-10.4748 148.08 -5.83494
9.43218 105.574 -7.57189
5.89329 109.494 7.23869
2.97113 117.846 -0.776683
-2.51952 128.678 3.29477
-10.1458 145.423 2.50762
14.8297 92.4146 -1.05071
11.844 96.8126 7.30939
6.13987 109.007 7.83246
4.2403 116.482 -5.17088
-12.2888 151.402 -1.9808
4.45181 116.121 -5.32756
-9.22 143.445 3.92681
13.0411 94.7841 6.30839
-11.0787 149.728 -4.58896
5.84678 110.368 6.56673
-8.57978 144.788 -6.26535
5.71644 111.056 5.23541
-9.65587 144.885 2.74186
5.60989 111.685 4.01116
13.3086 94.5067 6.19955
-11.1965 148.679 1.2742
-7.37978 140.267 2.06649
7.76644 109.712 -6.39868
0.850438 123.118 -0.138147
-1.97193 128.434 2.96549
8.811 103.693 8.81807
-0.0262969 124.918 0.572469
-2.78085 131.883 -3.29571
-7.08806 141.863 -5.82924
-7.74126 141.203 2.51974
-5.26179 135.759 3.18891
16.1087 90.2444 1.26244
-6.76957 139.544 2.01834
-9.4014 147.294 -5.9268
5.83076 111.375 6.12142
5.82075 111.433 6.0162
-4.68071 134.778 3.38631
11.8314 98.1134 7.62024
10.5379 104.861 -7.88325
1.92446 121.668 -0.809177
4.77758 115.232 0.556299
6.84564 108.746 8.81659
-0.145415 125.9 0.838516
5.726 112.404 4.4852
3.7979 117.882 -0.457153
-10.0917 147.551 0.879887
-3.3693 132.379 3.60486
6.48586 109.961 8.12054
11.4871 103.469 -8.41086
13.0727 99.6567 -6.71707
-5.76598 138.113 2.12917
-9.46263 148.116 -5.74288
-7.67894 144.322 -5.93629
12.5296 97.4784 7.14591
5.86991 112.237 5.73581
5.87584 112.228 5.77757
-9.50391 146.749 0.630209
-10.0237 147.842 0.876334
16.6253 89.9761 2.23964
6.86863 113.172 -5.96109
3.64622 118.824 -0.555469
14.3737 96.4916 -3.48427
-11.0584 150.15 1.48709
-11.397 151.897 -2.42427
10.6076 101.761 8.46584
-2.57603 133.157 -3.01226
-5.97557 139.258 1.96395
-4.68543 138.142 -4.55127
5.72304 116.345 -6.82983
1.75495 124.096 -3.48936
-8.84269 147.579 -5.81856
16.2702 91.449 1.67563
7.70422 112.168 -6.40093
11.5245 104.412 -8.18
16.4013 91.1537 2.97132
6.19166 115.832 -7.14029
6.49424 111.628 7.38756
0.698225 126.934 -3.39369
15.2548 94.7636 -0.307766
-1.46484 130.135 2.71242
3.74013 119.766 -0.455597
5.50894 115.434 1.69864
-4.64955 139.025 -4.64571
1.6036 125.217 -3.30948
-2.06807 133.055 -2.77624
14.0517 98.8064 -4.95813
6.68797 115.367 -7.45021
-3.83618 137.116 -3.43981
13.7971 99.6888 -5.88529
-6.30663 141.107 2.08455
-5.15241 138.784 2.02787
6.65831 111.952 7.67014
-8.55251 148.215 -5.62335
3.1161 121.774 -0.659097
15.609 93.5418 4.48885
10.4384 107.636 -7.01356
1.5766 125.052 -0.225387
7.30171 114.676 -7.83479
12.8956 102.65 -7.73325
0.801557 126.688 0.533103
6.24492 113.469 6.31683
15.3147 95.6829 -0.606595
-0.830344 131.175 -2.57842
16.2592 92.7764 3.35369
14.3045 96.3878 5.84338
-7.41621 146.262 -5.74113
11.1336 102.631 8.35157
10.2259 104.568 8.50311
-7.13101 145.641 -5.62479
-10.378 150.896 1.3692
-8.45363 148.502 -5.5011
6.70704 112.506 7.67075
-6.942 143.079 3.47479
-6.42624 142.246 2.43456
-4.94079 140.968 -5.03929
-7.82632 147.453 -5.76667
0.619457 127.562 0.877199
16.5425 92.8639 2.11985
4.69305 120.262 -4.92623
14.5054 98.8862 -4.00244
13.3615 102.33 -7.01747
-3.36385 137.532 -3.33605
-1.00403 131.036 2.33858
-10.6828 152.444 0.407957
0.748849 127.688 0.842393
-1.20285 132.739 -2.43867
16.6284 93.0902 2.24267
15.298 96.5827 0.0191892
-5.28532 140.61 1.94775
12.1361 101.53 7.86962
-5.4578 141.123 1.9954
5.22994 118.487 0.792112
14.6025 99.5109 -4.06255
5.138 120.282 -5.22942
15.0664 98.2158 -2.6832
-10.3136 152.909 -1.58695
-2.52306 134.963 3.0193
-4.28582 140.748 -4.73713
4.34655 122.001 -4.13935
10.0235 106.468 8.82388
-5.30112 143.106 -5.11215
6.46101 114.83 6.38937
8.6764 109.282 9.48454
7.6797 115.838 -7.82194
-1.37239 134.111 -2.31165
4.61706 120.804 0.0988013
9.79512 107.423 8.84384
10.2487 106.506 8.70079
3.62562 123.265 -0.554908
6.76175 114.548 7.22251
15.2586 98.7304 -2.35076
0.699244 129.286 1.63354
6.49622 115.942 5.45333
12.9191 105.567 -7.85602
-4.69071 142.888 -4.91761
15.6214 97.6361 0.597854
-8.59135 151.146 -3.95727
12.3539 106.921 -7.91131
4.23483 122.527 -0.212429
5.11036 120.505 0.457564
-3.5561 138.743 2.43198
9.23933 113.89 -8.1018
6.21198 119.988 -6.07301
16.5532 95.803 2.1032
-5.17211 142.725 2.19034
0.902115 129.816 1.7491
16.2348 96.2892 3.39675
2.32756 127.358 -0.146281
15.1446 99.9049 -0.681303
0.297225 131.353 2.10677
15.9439 97.0658 4.28207
2.32734 128.275 -2.58838
-9.00107 152.627 -2.10161
-5.43282 143.597 3.12849
4.63796 123.824 -4.61003
6.89766 116.076 6.86283
6.68381 116.976 5.23496
-7.73915 150.617 -4.55863
1.57521 130.163 -2.44918
6.4904 118.139 3.23799
-2.71482 138.272 2.55907
-0.952611 135.74 -2.32976
5.2621 123.02 -5.07104
-0.391684 134.523 -2.11868
4.32119 124.891 -4.08641
-4.81579 143.052 2.29536
12.2485 104.809 7.78783
-0.743811 134.16 2.72064
6.61863 118.025 4.02991
1.72537 129.405 0.841126
0.23264 132.276 2.25094
1.96401 129.74 -2.47972
8.76765 116.61 -8.62146
-4.85385 143.21 2.46065
14.3813 103.645 -5.23288
15.1482 101.286 -2.44372
2.20918 129.268 -2.59697
-0.225066 133.396 2.51968
4.89683 123.07 0.0163704
6.90328 117.217 6.21141
5.1212 122.591 0.254229
2.92448 127.447 -0.15706
12.9647 103.89 7.49282
13.1668 107.402 -7.86429
7.17703 120.23 -7.34323
14.593 103.54 -4.67022
1.85153 129.658 0.870255
7.61369 115.39 8.16412
4.85735 124.78 -5.3347
4.59424 125.253 -4.84595
0.668551 131.987 2.11263
1.30012 131.768 -2.33349
5.41671 122.182 0.626754
4.86793 123.551 -0.0199721
-0.918659 136.732 -2.45014
15.4871 100.678 0.304524
7.38169 116.336 7.90487
-8.38933 152.365 0.156368
5.39132 122.587 0.559035
3.74069 127.303 -3.76815
16.5058 98.2888 2.00857
10.8797 113.121 -8.36638
12.612 105.42 7.46829
-5.02263 144.49 3.90634
16.4674 98.3249 2.97697
5.29659 123.129 0.381143
15.5588 99.7983 5.06089
6.66109 119.565 2.88705
6.91321 118.432 5.2421
6.00677 121.41 1.4412
-6.13005 149.212 -4.75789
10.5857 109.823 8.70238
12.5641 109.898 -7.94113
15.791 99.7614 4.77575
7.84571 116.029 8.31289
15.7237 101.073 0.661832
9.20414 117.625 -8.96989
6.7649 120.009 3.04219
0.882091 134.126 -2.22658
2.52767 129.909 0.432407
11.2428 109.1 8.29394
-3.11031 141.776 1.81748
-2.69828 140.989 1.79333
3.68779 127.717 -0.163211
16.4411 99.6129 2.93849
14.2914 106.422 -5.1526
15.0237 102.184 5.75602
4.99123 125.359 -0.018633
5.03725 126.871 -5.97808
-4.79219 147.735 -4.43442
10.1186 116.782 -9.03654
10.2157 116.559 -8.60225
15.8357 102.203 0.273403
-7.57722 153.33 -1.64081
14.4347 103.788 6.3741
7.14069 119.974 5.07167
7.30745 119.175 6.80515
4.74747 127.886 -5.71549
14.8064 105.343 -2.06797
13.7072 108.866 -6.41285
10.4388 116.315 -7.84022
-6.57706 152.069 -3.69645
15.6551 103.229 -0.212695
10.512 116.251 -7.74068
5.39012 127.066 -6.516
16.0691 102.16 0.763845
5.6073 126.8 -6.73982
6.98503 121.298 3.39955
12.7404 107.83 7.53384
14.4 107.278 -4.15229
-7.51368 153.79 -0.951475
16.436 101.109 2.97998
0.0699024 137.902 -2.25205
0.225003 136.465 2.32585
5.99064 126.431 -7.11557
9.85517 118.665 -9.14753
-0.918599 140.397 -2.96104
11.6313 114.634 -8.01608
5.58772 127.434 -6.76287
16.3849 102.049 1.46649
-3.65189 146.817 -4.21913
13.9798 109.15 -5.59199
6.67793 123.011 1.94061
11.4714 114.037 -3.28186
4.35856 128.708 -0.120591
12.0164 113.179 -3.87759
6.59325 123.714 1.68726
10.6705 113.055 9.12335
-7.31586 154.293 -0.218974
9.39495 120.424 -8.88367
14.2005 108.97 -4.3356
6.47228 126.515 -7.55492
6.7278 123.574 1.89598
11.0592 116.409 -6.467
16.4493 102.85 1.72197
-0.476468 140.654 -2.83077
15.5009 105.771 -1.24407
3.41684 131.47 0.383363
14.5623 108.262 -2.98252
8.49898 118.466 8.72247
15.1169 105.005 5.67488
12.1139 114.274 -5.22776
2.36095 133.82 0.789071
9.56059 120.814 -8.66286
8.56664 118.864 8.72876
1.36159 136.15 2.01244
-0.456905 140.196 1.90776
12.4357 113.436 -2.32218
5.40468 129.636 -6.17073
16.0979 104.604 1.56666
0.794751 138.732 -2.24407
10.979 118.244 -8.15231
1.39351 136.47 2.07964
-1.34739 142.578 1.65583
7.38455 123.212 3.67915
16.0946 104.692 2.55212
13.6024 108.96 7.19898
8.67506 119.255 8.75119
9.71615 121.378 -8.31837
16.0839 105.061 1.89901
11.585 116.849 -5.91915
10.5629 115.276 9.018
15.253 106.158 5.41085
12.3395 114.187 -1.36856
-6.30152 154.268 -0.599528
13.9747 111.68 -5.12574
0.759432 138.393 2.11548
11.6704 116.849 -5.79553
7.32441 124.061 2.94244
2.72885 135.517 -3.07038
13.8202 111.962 -4.55422
11.0112 119.026 -8.15712
-5.77366 153.655 -1.69616
6.16767 127.261 0.704733
16.1707 105.041 3.15649
9.83676 121.606 -8.16312
13.3645 112.715 -3.12925
15.7065 107.198 -1.26555
6.24324 129.059 -6.78194
6.75428 128.255 -7.24903
11.9257 116.608 -5.32244
7.53765 123.888 3.64532
15.1943 108.904 -2.43017
13.7161 112.391 -3.50852
6.66949 126.446 1.23135
16.2853 106.144 -0.154399
-3.54807 149.928 -3.69546
13.4551 112.922 -2.06855
5.09321 131.893 -5.38646
8.22971 121.838 7.61607
0.109735 142.089 -2.61331
13.3763 112.561 1.34663
-4.20552 151.695 -3.17329
14.765 108.41 6.15531
1.50988 138.068 2.09072
10.3215 121.872 -8.25116
-4.64308 152.843 -2.75891
13.5689 112.267 2.2017
16.1788 106.758 1.96274
0.405659 140.992 1.6406
11.8893 118.044 -5.48552
11.7192 118.842 -6.91813
10.4993 121.826 -8.21613
11.4301 118.89 -4.48182
-4.10182 152.064 -3.03622
9.12961 120.563 8.7982
0.273117 141.596 1.49105
8.03159 123.432 7.23443
9.18853 120.606 8.80359
-1.80825 147.564 -3.81073
14.4044 112.092 -1.95448
14.2376 112.391 -1.55732
16.1964 108.027 -0.735089
16.202 108.033 -0.798488
8.42547 122.778 7.7705
13.3188 112.243 7.74718
11.5376 119.79 -6.56951
11.2398 116.513 8.89997
1.42194 140.594 -2.37887
16.0788 108.639 -1.15546
4.85699 133.964 -5.42061
2.08136 138.155 1.81058
10.6998 117.801 8.94032
1.36207 139.83 1.87794
11.987 118.992 -6.33357
-1.21989 146.922 -3.67656
14.4323 112.129 0.546301
4.82659 134.424 -5.4714
2.74603 138.246 -2.6474
10.3733 123.447 -8.86797
-3.25156 151.497 -3.22668
10.9041 121.732 -5.90155
5.40527 132.106 0.106162
-1.56286 148.171 -3.7184
11.6204 120.781 -7.90526
-1.48095 148.045 -3.71756
8.55419 127.585 -8.41046
2.11754 139.958 -2.29644
15.3558 110.759 0.335629
0.255647 143.102 1.56065
15.6524 110.096 0.771423
5.63137 133.382 -5.50703
8.2242 124.811 6.38664
16.4172 108.075 2.72236
9.70977 125.465 -8.67491
0.274767 144.61 -2.88997
15.6436 110.45 1.28774
-3.41214 152.654 -2.80936
-0.132584 145.692 -3.25486
5.45677 134.239 -5.67088
1.93941 139.954 1.7646
1.83979 140.273 1.7802
12.1118 119.734 -4.66988
12.1896 119.863 -4.67347
5.89651 132.231 0.17415
15.6348 109.899 5.30798
7.88932 126.963 4.60767
10.0152 125.878 -8.76717
3.92342 136.755 0.678775
7.5638 128.462 2.41783
7.80057 127.792 3.33435
13.2289 114.96 7.8012
-0.428004 147.414 -3.54118
6.03567 132.688 0.234888
8.81168 124.842 7.8483
6.86073 132.655 -5.99207
3.15954 139.904 -2.97674
10.1627 122.043 8.0341
7.74378 128.071 4.92108
0.299492 144.975 1.9269
7.10566 130.451 1.29445
7.65656 129.025 2.55939
14.656 114.718 -0.551696
14.8481 114.049 0.61165
16.4002 109.859 4.2982
4.20166 138.553 -4.26834
14.4602 114.973 1.87316
12.2958 121.347 -4.63179
13.2482 116.3 7.60646
10.9327 125.34 -8.04409
13.9039 116.181 2.88371
9.76142 124.022 7.27047
5.23423 137.111 -5.75461
5.35569 135.222 0.725555
14.3513 115.336 2.62031
3.85578 139.709 -3.83686
13.402 116.865 5.21141
0.80004 144.997 1.81974
12.5337 118.455 6.73419
12.3516 118.482 8.22291
3.97813 139.777 -3.99899
13.9104 116.651 2.67461
5.12168 136.45 0.400274
0.249965 148.008 -3.43166
12.4156 119.074 7.3121
3.89186 140.379 -3.9143
10.945 126.301 -8.06117
7.8045 130.144 3.70589
11.1329 126.086 -7.99347
12.4057 119.493 7.44584
-1.39528 151.956 -3.02875
2.66923 143.107 -2.35476
0.929026 147.149 -3.00923
7.68912 133.434 -6.36891
9.61547 129.826 -8.31288
14.3088 118.238 -2.57332
11.3361 124.809 -2.88752
-2.47268 154.475 -1.90783
3.75772 140.359 0.842468
5.5126 138.303 -5.91985
14.7492 119.484 -9.60753
14.6097 119.545 -8.60742
14.6396 119.629 -9.08266
10.7721 123.99 6.71872
13.8867 119.762 -2.81925
2.33146 144.829 -2.51699
4.2069 141.296 -4.01744
11.8139 122.072 7.00653
7.53659 132.649 1.85293
12.3092 122.753 0.379867
11.5729 125.534 -4.05253
14.2656 118.003 2.85582
12.119 123.332 0.388109
10.7434 126.896 -1.93208
8.36232 130.133 5.90412
0.152796 150.345 -3.36939
13.7869 118.859 4.7083
15.235 118.829 -7.34293
14.9971 118.083 -1.93058
7.89121 132.159 3.43184
1.41086 147.814 -3.01334
11.6074 125.008 0.167045
13.2173 122.731 -4.40655
14.99 119.36 -6.08802
11.7614 126.526 -6.77043
12.8835 123.53 -4.51115
8.43759 133.723 -6.78942
15.2534 120.28 -11.6063
14.4567 121.013 -7.69814
11.6321 125.372 0.0567457
11.8425 124.851 0.679965
1.17158 149.024 -3.19939
14.2138 122.441 -9.23481
7.71561 133.772 1.45799
12.1603 125.654 -4.26413
11.9224 126.166 -4.24811
14.307 119.194 3.57008
15.1659 121.29 -11.8441
4.19498 142.894 -3.59192
13.9898 121.931 -4.32458
13.0698 122.616 0.860595
5.28022 140.894 -4.80852
14.3885 121.987 -7.78762
16.2562 117.306 -5.10316
8.24814 132.2 4.41814
7.65461 136.254 -6.48969
15.882 116.721 0.473631
7.84989 133.73 1.95836
14.1392 121.276 -2.29623
12.1432 125.956 -3.51698
13.3183 121.067 5.92139
6.89577 138.075 -6.29862
8.63551 134.507 -6.96681
14.2049 120.955 -0.910259
12.0717 126.189 -3.06346
11.4541 125.197 6.29266
15.855 120.436 -12.3296
11.8737 127.157 -4.64316
12.433 126.296 -5.81378
12.0551 125.812 -0.524252
11.5493 128.34 -6.17904
14.5475 121.238 -3.69837
9.88461 132.294 -7.50862
8.40098 132.425 4.61423
7.38514 135.587 0.996414
15.8222 117.927 -1.05108
5.70427 139.448 0.440457
14.6045 123.151 -10.7657
15.5617 119.65 -5.07214
15.9849 117.292 0.682528
13.3347 122.997 0.878087
7.79901 134.865 1.30377
10.8646 126.9 6.7938
10.8098 130.877 -8.30024
10.1055 132.279 -7.66246
11.7703 128.254 -5.81363
13.7554 124.655 -8.49928
15.8539 118.291 -1.16357
14.1095 122.644 -3.42277
8.54169 132.613 4.80522
5.065 141.226 0.679721
14.6294 122.364 -6.23164
14.6077 122.528 -6.39652
11.5837 128.769 -4.82055
4.29845 143.01 1.09399
2.08549 148.836 -2.93067
8.03358 137.013 -6.75194
14.6892 120.001 3.77378
13.3951 123.609 0.61324
14.2508 124.532 -10.0317
6.51438 140.221 -5.89676
10.6691 128.23 6.50756
12.4685 126.43 -1.59358
12.3501 125.957 1.52322
15.9743 118.184 1.39427
11.5626 129.351 -4.75033
15.1472 119.688 2.89105
7.23314 139.204 -6.49941
13.3971 125.086 -3.10324
12.9462 126.313 -3.85613
13.295 123.194 5.48027
14.9127 121.666 -2.25271
3.4833 145.592 1.39522
13.6755 123.948 -0.00624932
13.5437 124.187 0.187996
15.34 120.784 -1.48223
13.6007 126.475 -9.09697
11.6454 129.757 -5.32892
11.6235 130.347 -7.38035
12.5452 127.539 -4.13656
15.0989 120.843 0.843909
12.9186 126.191 -1.2548
16.9012 117.891 -2.38642
3.74136 145.426 1.36446
2.5003 149.172 -2.8143
16.8351 117.94 -1.49497
13.49 127.035 -8.60795
8.85343 133.666 4.84738
9.84047 131.163 6.54165
13.8437 124.889 -2.66405
7.43739 137.77 1.08897
17.5478 117.201 -3.64559
8.97784 133.527 5.18519
10.3479 133.9 -7.6483
13.4111 127.504 -8.38458
14.426 121.994 4.77486
13.641 124.778 1.12857
8.81536 134.421 4.20828
8.89111 134.165 4.63931
16.1431 119.801 -0.329282
12.9984 128.245 -6.78707
6.24084 142.431 -4.90909
14.527 122.93 1.44522
11.7038 130.81 -5.12988
13.617 125.48 -0.267683
13.9498 124.965 -0.779141
13.228 128.262 -7.40853
12.1687 129.186 -1.82573
4.07609 146.92 -2.82075
16.2635 119.539 1.42413
10.3793 134.585 -7.70173
15.8104 121.31 -1.24585
11.5589 128.872 5.42106
13.5811 128.084 -8.54411
14.7768 123.025 1.35649
14.512 122.76 4.68354
14.0362 124.155 4.00268
12.0507 131.025 -5.83099
6.24851 143.305 -4.67447
13.4688 127.35 -2.81019
7.89858 138.294 1.48633
15.6335 121.273 3.1964
17.901 117.652 -1.77008
17.2327 118.666 0.21799
12.1941 131.123 -5.5589
4.80562 145.415 1.23839
15.4083 122.38 1.86365
7.83143 138.886 1.46564
11.16 130.686 6.02317
15.4069 122.833 1.54868
13.5625 127.219 0.298872
16.8235 120.129 0.490807
11.9003 132.01 -4.43219
13.4782 128.586 -4.02641
11.9654 131.822 -3.32987
16.7303 123.749 -11.8539
1.38111 154.411 -1.70718
12.8674 129.739 -2.05349
16.8687 120.482 0.572827
9.30056 136.04 3.71116
12.2451 131.372 -2.88821
15.8938 122.324 1.81169
11.8973 130.101 5.3838
16.9307 123.698 -11.9767
16.6384 121.123 1.28934
7.27174 141.534 1.11179
3.84835 149.95 -2.73072
12.3937 132.291 -5.35752
8.80713 138.145 2.20239
18.7846 117.865 -1.52295
15.5879 124.2 0.828845
6.22585 145.75 -4.08447
15.5295 124.42 0.869938
2.3342 153.789 -2.13101
15.9089 126.539 -10.1932
13.0807 130.9 -2.93005
19.8371 116.334 -2.904
15.6668 124.442 0.880855
