ply
format ascii 1.0
comment Created by Open3D
element vertex 1882
property double x
property double y
property double z
end_header
-29.0425 125.889 2.92744
-18.4579 96.5391 3.69439
12.0292 136.459 -3.00947
-29.194 125.26 2.98113
10.9131 97.028 -0.0536356
-16.1444 97.7344 3.29389
11.9954 108.032 -0.998371
2.24056 81.8529 2.10472
11.2534 123.736 -2.03737
-1.75431 105.578 0.860703
-13.9686 151.873 -0.923687
15.6408 137.355 -3.61258
-28.9158 127.49 2.70159
17.3693 136.585 -3.78429
-3.60151 124.357 -0.278151
12.6306 121.181 -2.1061
10.585 126.216 -2.2263
-29.0392 144.812 1.42799
-23.8729 100.638 3.93881
-20.7719 149.333 0.053221
-42.4273 136.706 3.68463
12.7941 118.793 -2.00039
-29.3828 124.781 2.87646
-18.2045 92.4968 3.78286
11.4774 132.482 -2.82426
10.4182 87.757 0.508739
8.5289 123.046 -1.80515
-7.73066 115.968 0.748496
11.7476 126.416 -2.46201
6.61104 150.316 -3.52883
-27.9315 146.1 1.11902
2.45142 150.74 -3.04014
10.8891 133.1 -2.83878
-11.8239 149.769 -1.17729
-4.17751 89.1504 2.18962
2.55384 152.15 -3.20941
-3.21791 86.2115 2.23849
11.7255 126.705 -2.55027
11.1589 142.803 -3.63705
10.5836 128.089 -2.51351
7.99405 125.586 -2.01296
4.51866 146.66 -3.10555
11.0707 144.015 -3.74202
3.24337 146.165 -2.91049
6.82248 149.365 -3.60605
10.8792 133.163 -2.97159
12.6392 137.909 -3.53526
-0.586415 125.026 -0.952485
12.5394 121.612 -2.37355
12.113 119.214 -2.15171
11.7625 103.809 -1.00639
-16.2028 148.373 -0.680063
-14.497 150.629 -1.06574
8.9632 149.954 -3.98249
10.6 92.72 -0.0853331
-0.435757 124.261 -0.958499
-0.618706 113.158 -0.154898
-1.09768 110.445 0.0843413
-37.7097 134.03 3.00341
11.7 109.163 -1.43682
-41.4203 136.8 3.2615
2.26801 147.525 -3.01582
-29.7588 130.598 2.22996
19.2118 131.392 -4.00237
-14.2621 147.816 -0.970699
-20.5113 90.8607 3.89463
11.5669 138.023 -3.53276
9.06082 149.736 -4.06999
-14.1675 151.013 -1.24071
-25.6791 146.146 0.545155
11.3014 136.112 -3.39559
-14.1546 147.849 -1.05921
9.729 129.487 -2.76258
-0.805224 122.872 -0.96349
-12.9174 149.025 -1.31393
10.8974 144.141 -3.96403
-13.5739 148.48 -1.19708
-24.2189 147.271 0.225382
1.97583 152.071 -3.43062
9.45558 113.076 -1.6007
-4.08836 122.335 -0.565057
-24.5906 101.229 3.52809
-27.7685 145.411 0.758062
-18.7794 91.449 3.49242
7.57277 149.38 -3.98064
10.9104 127.271 -2.82658
1.80054 151.668 -3.42922
-10.9641 105.589 1.47597
10.7705 140.26 -3.75434
-5.5365 153.348 -2.64954
-2.51615 123.186 -0.868377
-14.0038 145.254 -1.00831
-9.00187 111.154 0.802582
0.755174 140.969 -2.57065
-0.663858 140.88 -2.40982
-23.985 147.365 0.058848
-18.2871 88.9073 3.53117
11.0705 130.42 -3.14359
-34.0444 131.307 2.46035
-9.53177 107.855 1.054
-12.6815 103.928 1.72943
7.97831 79.8914 0.847397
-29.5551 128.753 2.06732
10.2957 128.092 -2.92467
-2.16736 153.11 -3.16477
-5.1403 120.643 -0.463164
-22.4925 95.7621 3.49998
-28.2196 113.123 2.97589
0.833007 140.264 -2.63619
12.1464 135.845 -3.7442
8.83423 149.794 -4.34469
-11.9574 153.707 -2.00823
-28.9786 122.476 2.37309
-0.982794 141.113 -2.48982
-15.0465 145.331 -1.05587
-39.6574 133.237 2.90311
-8.60194 111.573 0.535055
21.4845 128.825 -4.50376
-0.902448 118.347 -0.937546
-13.216 152.37 -1.82942
19.1823 130.345 -4.33435
0.141552 81.838 1.53536
11.0943 127.5 -3.13616
-17.8162 91.0842 3.10977
-10.7766 92.2433 2.13469
11.8208 118.49 -2.59507
0.202042 148.613 -3.2969
12.0937 134.67 -3.79644
-14.3899 147.127 -1.35533
9.20434 130.1 -3.11376
-23.5591 98.7172 3.24519
-6.43414 117.436 -0.260126
-12.5231 149.005 -1.7612
10.3611 126.138 -3.03741
-0.196993 152.103 -3.58025
-6.28106 153.339 -2.91796
-1.40633 137.864 -2.43552
-28.4009 113.462 2.71203
-1.87929 108.338 -0.27803
-5.02081 101.709 0.585934
-19.3886 89.4265 3.27379
3.70207 143.973 -3.54969
-0.923949 115.042 -0.901379
-2.83701 82.6271 1.66174
10.9145 120.578 -2.7922
-2.64696 139.026 -2.4161
21.8349 128.156 -4.72075
22.2404 122.843 -4.40102
-34.3351 133.735 1.93762
-1.08061 115.785 -0.964231
-2.92862 82.5766 1.62085
8.0674 148.302 -4.4778
-28.4609 114.744 2.5284
-3.51317 83.0163 1.64019
11.8875 130.128 -3.68961
-28.9946 121.618 2.06168
-17.5677 93.7229 2.62089
-7.37599 153.492 -2.949
-29.7145 125.76 1.85166
-32.9288 142.669 1.04312
-0.725695 147.472 -3.35963
2.33527 141.59 -3.32958
10.3563 87.8191 -0.485631
10.8271 101.795 -1.55307
-12.4524 153.308 -2.31648
4.57259 144.354 -3.81922
9.0872 128.515 -3.26224
22.177 124.664 -4.63784
-21.2787 90.9776 3.24732
17.8477 132.078 -4.64237
-29.0147 121.714 2.00068
17.3013 135.224 -4.81327
1.65239 81.0418 1.03841
12.2551 123.315 -3.33224
-30.0423 124.249 1.92153
-14.5785 146.405 -1.61501
8.72869 78.7621 0.296075
-13.6842 151.092 -2.07652
-3.0844 120.526 -1.23605
-2.07852 142.076 -2.91306
-27.4689 144.825 0.0862859
-28.2368 118.621 2.06035
-17.6305 90.1363 2.75765
-4.14191 84.3342 1.47369
-37.5103 133.126 2.17713
-20.6086 147.204 -0.973684
-15.5105 97.2604 1.95651
-34.305 133.57 1.71994
10.3647 90.386 -0.811275
10.344 144.414 -4.69776
-1.50567 112.696 -0.932288
-37.7902 132.429 2.22029
-12.4784 103.684 1.08981
-8.19169 98.7387 0.902878
8.96012 79.2337 0.136168
-10.8869 105.168 0.766378
12.866 118.376 -3.17371
-16.8929 146.751 -1.46672
-38.303 132.471 2.24799
-0.723343 135.226 -2.68832
10.5134 133.397 -3.97733
8.00053 125.861 -3.12582
-16.0066 96.9962 1.96667
11.8078 109.855 -2.46532
-10.6139 105.374 0.678224
-15.3079 88.9744 2.43352
15.6732 135.506 -4.80545
10.744 126.987 -3.57749
10.6739 101.854 -1.77098
-5.61602 88.0567 1.26871
-14.8552 99.0782 1.6402
-1.85319 144.924 -3.29002
-30.1717 124.277 1.75662
3.30711 80.6668 0.660129
10.2274 94.6993 -1.21784
-34.6272 133.307 1.65774
-0.322196 151.471 -3.97693
7.5764 78.1011 0.283278
-2.58859 152.349 -3.77963
12.3795 132.973 -4.27654
-10.8692 153.591 -2.84731
-15.7153 89.4131 2.35879
-16.5972 93.3786 2.17669
-2.82448 152.411 -3.79037
12.2725 131.478 -4.1969
8.09415 124.501 -3.17096
-7.90633 98.9836 0.672922
-1.75509 112.081 -1.04646
-2.03599 116.238 -1.31109
-1.00282 133.889 -2.71242
-8.54262 109.279 -0.00543871
-1.59753 147.458 -3.62154
11.6215 121.796 -3.44876
10.1522 93.3176 -1.22675
7.75297 77.9408 0.173841
-5.14227 152.594 -3.56385
-34.4239 141.73 0.891328
-9.76906 153.238 -3.03917
2.14106 139.132 -3.53275
-22.8325 95.8499 2.71069
-19.7462 89.1904 2.79904
-40.9437 136.193 2.09546
-30.8067 128.353 1.36858
-2.01876 146.087 -3.53572
22.0551 124.884 -5.05406
-2.67706 142.992 -3.2476
-2.29 116.759 -1.41907
-14.8586 89.5636 2.10721
10.5302 115.073 -2.94084
-18.2674 146.077 -1.53779
11.346 117.147 -3.19331
-29.2047 121.704 1.58044
-2.58954 144.015 -3.37889
17.1633 132.12 -5.01591
9.02775 147.122 -5.06975
-11.2107 104.664 0.522666
-3.37117 135.055 -2.64735
-28.8901 109.059 2.43016
9.2968 146.377 -5.05812
16.9824 134.16 -5.15175
-4.38571 137.958 -2.73324
-23.2392 96.6082 2.60469
10.2133 114.722 -2.91322
-22.1039 145.734 -1.06784
-41.3893 135.898 2.04914
-29.6142 142.394 0.0913316
-35.953 132.397 1.60409
-6.97432 89.6069 1.02153
-17.3239 87.2004 2.49609
9.65725 145.803 -5.10983
2.43988 139.719 -3.7733
9.60184 83.2565 -0.634238
-34.6427 132.849 1.37831
-37.1656 140.039 1.177
-5.05309 117.642 -1.2725
-18.455 145.748 -1.59984
-7.79817 153.046 -3.47147
9.32498 82.1289 -0.54959
-29.1488 114.436 1.97346
11.7815 123.479 -3.83019
-36.3125 131.887 1.61411
-29.2268 122.581 1.38364
-28.2146 144.459 -0.33179
-0.832507 132.676 -2.93785
-4.82607 137.466 -2.77902
-38.0307 132.987 1.70762
-3.60179 117.877 -1.54591
10.5399 127.522 -4.03245
-3.16793 143.154 -3.44178
-7.71466 91.054 0.863182
1.14835 136.008 -3.48115
-5.63845 137.499 -2.73413
-4.45439 152.137 -3.93688
-7.1893 89.5689 0.888216
-2.11838 151.051 -4.18282
16.7883 132.267 -5.22286
-4.9749 136.963 -2.82149
-21.6979 90.7556 2.58823
7.93929 77.3714 -0.191673
9.99751 91.7549 -1.49458
-2.80707 146.367 -3.79765
-19.347 87.9033 2.47386
10.9885 119.209 -3.59439
-40.2763 134.897 1.73695
-17.4385 94.5869 1.74625
21.654 124.428 -5.32183
4.53351 142.701 -4.50272
-3.37042 143.657 -3.57838
-4.6415 82.3821 0.97049
22.6146 120.899 -5.23445
-14.1137 100.553 0.824633
-20.9365 145.047 -1.51536
-2.86485 107.643 -1.12408
-10.8524 90.55 1.09131
7.60685 77.2814 -0.285164
-8.15158 109.889 -0.641018
-13.5785 91.2153 1.38009
21.8533 122.688 -5.36163
11.0436 139.608 -5.22047
13.8409 135.75 -5.29983
-13.1755 90.9356 1.31248
-5.29096 116.378 -1.51663
-13.7764 88.4694 1.55213
8.26514 124.805 -3.83212
-3.32103 114.896 -1.66398
-12.6712 151.854 -3.14118
4.34352 79.4705 -0.101819
-13.8533 91.7896 1.30577
11.6015 131.795 -4.78632
7.90411 146.024 -5.35035
-22.914 144.434 -1.35616
1.82185 80.6342 0.0927419
-7.31859 89.0076 0.640808
16.3799 132 -5.4339
-17.2291 145.834 -2.21781
-30.6294 130.528 0.547202
-3.31941 133.002 -3.07406
-29.4312 115.047 1.48896
-2.57158 149.253 -4.35207
8.31465 125.073 -3.99337
-3.14387 148.055 -4.19831
-29.7098 141.577 -0.393194
-22.2867 144.595 -1.54672
-6.40079 87.0911 0.575364
-36.7994 139.41 0.638689
10.6079 128.115 -4.5447
7.1089 145.301 -5.3398
9.8775 131.327 -4.69042
0.999941 132.422 -3.65498
-40.183 134.736 1.35799
-3.80846 146.251 -4.0528
10.6975 136.75 -5.20225
-4.57145 114.153 -1.67176
9.34195 82.3263 -1.14499
10.3545 97.3901 -2.35329
-30.8109 127.374 0.680395
-26.3636 143.656 -1.05009
-2.52252 149.813 -4.49514
-28.6652 143.134 -0.725219
-24.6638 144.039 -1.29699
-5.22671 84.1211 0.541347
-20.2316 87.9757 2.14842
-31.3042 140.959 -0.268759
-33.7283 140.366 0.0750203
-4.26909 144.132 -3.91408
-31.4301 130.707 0.465148
20.5378 127.264 -5.8392
-36.0375 131.473 0.977727
-0.00174738 129.872 -3.45387
-2.91874 150.397 -4.56403
-16.8134 85.9827 1.80364
-22.58 94.7549 1.90017
-4.11809 113.396 -1.76529
-39.3613 133.506 1.22921
-36.0578 139.281 0.394284
-8.69894 106.857 -0.731573
-12.0123 152.566 -3.60141
-31.1733 127.723 0.587297
-11.8858 103.222 -0.092375
-4.40357 113.303 -1.77785
13.1112 132.787 -5.39091
-7.15738 136.629 -3.14381
-29.5555 114.732 1.23468
10.7396 127.134 -4.73858
10.8873 131.432 -5.06781
-37.2545 133.455 0.848928
-33.1644 133.386 0.331992
17.108 129.871 -5.75105
10.4766 136.961 -5.42445
-30.7296 123.817 0.707496
-14.3441 97.7797 0.505502
6.26782 143.097 -5.34092
-3.22751 108.639 -1.67499
-3.68188 111.125 -1.80651
9.38985 82.5114 -1.40226
-27.932 104.473 1.7172
-4.19709 111.896 -1.80481
-35.4909 130.722 0.782792
5.37774 77.9933 -0.597234
-5.23647 133.88 -3.2802
8.35247 144.647 -5.76504
10.0262 85.7618 -1.75958
-17.1496 145.436 -2.62058
-4.45993 151.198 -4.63235
-17.112 145.652 -2.64184
-16.2244 147.482 -2.88925
16.1441 130.769 -5.77559
-4.12915 111.048 -1.80923
-14.855 86.4698 1.2897
-12.9346 101.597 -0.0386752
9.60565 115.125 -3.86516
15.5323 132.204 -5.83872
-3.40762 131.778 -3.43035
-33.5397 139.884 -0.221842
-4.63292 111.257 -1.81062
-12.7686 91.8564 0.60442
5.13129 141.594 -5.21696
-3.43467 110.163 -1.88974
-32.4928 140.229 -0.387157
3.04591 138.624 -4.75157
-5.16614 111.617 -1.78433
-29.9116 122.006 0.584718
-4.09979 132.398 -3.44892
5.8434 77.3135 -0.754441
-19.2535 144.1 -2.38451
-25.8458 100.563 1.56244
-4.59576 132.931 -3.43703
-16.4358 147.279 -2.97953
-15.2893 96.3719 0.52465
-23.4285 143.587 -1.84248
10.4081 140.205 -5.8646
8.54246 126.748 -4.66789
11.3979 131.124 -5.34879
9.21993 128.92 -4.93265
-3.96909 149.444 -4.75411
9.57997 77.8842 -1.34223
-8.51164 133.576 -3.06705
-30.8784 123.559 0.467292
-38.5501 133.436 0.720772
-8.36785 133.389 -3.07869
-29.3036 106.274 1.49218
4.1344 78.9931 -0.77822
-9.61388 152.168 -4.29445
8.72807 76.1018 -1.15204
-5.5218 141.023 -4.0259
-12.1866 95.1188 0.0827586
9.54946 130.126 -5.16605
-31.9972 130.721 0.0223887
14.7979 116.593 -4.8584
8.38674 76.0687 -1.14903
-5.61796 110.465 -1.85168
-31.1164 127.543 0.132
10.738 133.178 -5.55182
-19.6062 85.9409 1.65539
-4.8565 150.204 -4.81039
-5.8685 131.785 -3.36682
-35.3484 138.983 -0.171167
-16.8688 85.113 1.3618
-37.723 138.364 0.168015
-8.72267 96.8029 -0.515801
-4.38506 149.178 -4.81839
-29.4779 120.435 0.384426
-13.4802 93.7069 0.280806
-3.37629 129.835 -3.58659
-39.2722 133.755 0.649737
3.44572 139.258 -5.12523
13.6106 117.103 -4.82208
9.97395 87.1338 -2.2206
-6.86866 137.847 -3.74653
-5.53134 141.658 -4.18977
-16.3006 147.118 -3.24022
13.9633 133.892 -6.1175
-8.71625 134.791 -3.32793
8.59582 125.006 -4.80981
-15.5861 95.9204 0.318159
-13.4492 90.6099 0.429019
-15.5489 147.51 -3.38916
-19.627 85.7474 1.54193
-28.5414 143.115 -1.47104
-12.9364 90.216 0.34589
20.8526 126.284 -6.49852
-3.8574 107.11 -2.01911
-35.0297 131.859 0.131886
-10.6233 94.8784 -0.294104
2.05329 80.2579 -0.842761
-28.6613 142.331 -1.42654
-37.8671 135.253 0.239132
-4.34159 130.037 -3.62613
-21.1219 87.0075 1.55625
-39.2118 133.016 0.534826
-11.5323 89.2991 0.180785
10.8544 133.727 -5.82422
-12.2605 101.803 -0.624492
-11.3694 152.058 -4.34262
-11.5369 87.0842 0.320228
-11.8828 89.3896 0.19291
14.8546 133.344 -6.33054
21.76 122.189 -6.41794
-30.0642 113.345 0.741154
-6.11856 84.9197 -0.241693
12.6289 131.734 -5.96304
-6.25651 151.266 -4.98719
10.4131 122.654 -5.04172
-12.0795 91.9701 -0.0197532
-6.51777 84.5684 -0.19263
-22.6589 143.459 -2.39599
-6.20975 145.696 -4.6304
3.42873 138.372 -5.32722
1.6494 127.952 -4.36127
-14.1485 88.6091 0.444059
-21.5002 143.749 -2.6072
-6.3609 145.722 -4.66455
-38.5288 137.133 0.00139679
-3.19335 129.229 -3.8907
14.8857 131.476 -6.32892
-9.87338 89.4894 -0.202582
7.32733 75.8879 -1.40114
9.89826 138.529 -6.2201
-29.4326 140.668 -1.42726
9.16851 125.65 -5.21254
-34.2254 131.283 -0.151489
-5.31123 148.698 -5.05858
9.00344 75.003 -1.58719
9.8828 129.45 -5.60639
-9.6 89.5332 -0.304952
10.2149 122.198 -5.14328
-11.2777 151.717 -4.56301
-2.38321 129.356 -4.08062
-9.85905 130.54 -3.25991
-32.2456 132.569 -0.587719
-12.7879 85.0072 0.361418
-10.073 95.2997 -0.725618
-13.5737 94.0369 -0.196751
8.33976 142.955 -6.46532
-9.63012 151.653 -4.8389
10.5065 99.2501 -3.63569
-38.4137 132.202 0.160071
-8.83833 135.677 -3.81852
-11.3944 88.7724 -0.162669
14.6412 131.262 -6.48831
9.42516 129.263 -5.71064
-35.3543 138.475 -0.741516
-3.01434 81.4166 -0.723861
9.77773 85.1844 -2.60554
-5.49498 106.436 -2.22523
-1.37363 80.8271 -0.909017
-11.9607 101.493 -1.05957
-4.65331 82.3221 -0.609743
14.0366 131.981 -6.55666
-33.0837 129.332 -0.432557
-12.908 92.2279 -0.321557
22.3951 120.73 -6.81533
-10.4559 130.016 -3.34604
21.307 122.768 -6.8268
-7.01408 129.211 -3.72192
9.4953 123.398 -5.39212
-31.3487 129.498 -0.686643
-38.7891 129.877 0.212423
-15.9112 93.64 -0.0779239
-6.44778 99.8238 -1.71331
-13.0609 94.5066 -0.501223
8.26373 75.2946 -1.81242
9.68797 90.2531 -3.06726
-9.72113 134.968 -3.82951
-4.81271 82.4088 -0.681109
9.745 88.2791 -2.93835
-13.5933 85.8604 0.172726
1.82162 127.195 -4.73895
-38.1434 130.883 0.0181519
-6.63169 150.35 -5.35226
-13.2369 94.1127 -0.499629
10.3607 95.4108 -3.56734
9.35185 78.9038 -2.26802
-23.723 142.861 -2.69228
-6.86333 99.1128 -1.68175
-10.0555 129.623 -3.47294
-12.0501 92.044 -0.533725
9.77167 121.626 -5.40512
10.08 93.7281 -3.44758
-31.8415 139.499 -1.45005
-18.5174 84.2484 0.820625
-8.93703 85.3034 -0.466162
-29.9288 131.454 -1.13309
-32.3406 139.309 -1.4027
-9.24677 96.3451 -1.24322
-8.48572 143.178 -4.7018
-12.6742 92.2807 -0.529131
-15.2241 92.5341 -0.227083
8.75348 126.184 -5.6606
-4.0763 128.525 -4.21354
-13.9766 92.1032 -0.364908
-34.3501 133.056 -0.735981
-37.0974 135.755 -0.584442
-7.23575 128.782 -3.84823
-8.04414 150.68 -5.31742
-11.8587 84.9732 -0.131225
-2.73925 128.802 -4.42557
-28.592 140.549 -2.02221
8.43322 142.192 -6.80505
-7.5448 145.79 -5.06481
-11.7741 130.164 -3.41371
12.1731 120.237 -5.71916
12.5834 117.259 -5.56031
0.675174 80.2399 -1.41733
2.30019 134.002 -5.47827
10.6955 130.253 -6.27386
-28.0929 131.765 -1.49751
-19.2329 142.069 -3.35275
-29.0179 131.874 -1.39348
-12.4589 91.9675 -0.619744
-3.49011 81.6712 -1.01172
-30.8566 139.689 -1.73058
-10.7194 88.3662 -0.608237
10.2037 94.7174 -3.69914
18.0079 126.497 -6.96388
-8.41773 102.057 -1.88867
-25.6133 97.8072 0.578339
-29.1139 119.258 -0.518905
-30.8541 123.859 -0.630084
-27.2511 101.382 0.525295
-12.0361 86.332 -0.32054
-20.5992 141.659 -3.21256
8.6804 74.0189 -2.05156
-8.06854 142.068 -4.82318
-7.78332 145.59 -5.11166
-30.7176 124.889 -0.752754
8.4607 141.9 -6.90892
11.1011 111.133 -5.03598
-23.3976 93.4571 0.570609
8.74721 125.868 -5.81159
-17.1321 144.905 -3.92436
-30.6589 124.717 -0.783007
-7.85104 145.634 -5.15527
8.96692 119.062 -5.37105
-11.696 101.091 -1.48146
-26.5332 142.403 -2.57762
12.6248 131.479 -6.72985
-7.2948 105.686 -2.38176
-14.1547 87.198 -0.212861
8.2989 73.3817 -2.05612
-30.7522 124.162 -0.781163
-25.942 98.1722 0.465362
-9.77541 128.647 -3.75687
8.04457 141.546 -6.93156
-12.1562 91.5263 -0.801716
-26.3241 142.39 -2.66816
-21.452 85.8391 0.763012
-8.99457 104.394 -2.13876
-13.664 97.7307 -1.07423
-14.0986 86.8203 -0.240755
0.0788112 80.2859 -1.56249
-8.40152 137.684 -4.62182
-11.6721 88.2632 -0.672079
-11.9169 95.1393 -1.13741
-37.0459 136.234 -0.923991
7.90744 117.696 -5.26027
-11.8209 91.3157 -0.885039
-6.72148 101.978 -2.29215
-12.9851 91.9966 -0.790178
-26.983 142.275 -2.64657
9.59859 84.1355 -3.09722
-7.47103 147.411 -5.4986
-9.41232 128.297 -3.90027
-7.54454 147.305 -5.50149
4.5507 138.616 -6.40342
-20.8025 84.7322 0.642224
8.28596 75.0883 -2.34428
20.5782 124.692 -7.45678
11.4363 121.16 -6.05742
1.59333 124.267 -5.04443
-21.2267 141.037 -3.3734
-29.5773 115.587 -0.497598
21.8296 121.033 -7.36576
-33.4402 133.586 -1.31815
-11.805 95.6522 -1.33006
-11.9754 131.554 -3.88653
11.3782 130.23 -6.73455
5.57439 139.451 -6.66507
-12.4661 92.2047 -1.00836
11.6513 120.247 -6.05864
-35.6505 130.313 -0.824879
-24.7326 96.5061 0.220869
7.54931 140.428 -6.99662
9.81457 127.58 -6.36126
-33.5709 138.278 -1.66477
-1.06419 80.4757 -1.62018
-12.6497 89.4102 -0.808452
-0.0274132 125.54 -4.99213
-31.3069 126.634 -1.13568
2.8473 133.983 -5.97496
-19.3521 141.332 -3.7148
9.47637 127.261 -6.33932
18.2849 125.69 -7.34595
-27.821 101.56 0.189884
-10.6665 135.019 -4.37881
-10.5194 85.7728 -0.867332
5.95344 137.243 -6.64156
-30.053 114.174 -0.454459
-3.99155 81.9405 -1.43656
-29.5047 118.952 -0.882439
-28.6814 132.9 -2.00146
-8.76136 149.668 -5.71295
-28.1132 131.738 -1.99053
7.97662 73.4272 -2.35655
-13.0606 97.391 -1.42716
-13.1986 85.8965 -0.587205
-12.1134 85.3056 -0.682866
10.4249 125.064 -6.39211
-31.0643 127.663 -1.35427
-22.4544 141.594 -3.44592
-13.5361 129.756 -3.72797
-11.2745 133.983 -4.33374
-7.6067 148.368 -5.82974
-32.2601 131.107 -1.49065
-27.796 142.021 -2.84283
-27.6948 101.12 0.0728607
-32.7456 128.997 -1.29711
-7.93542 147.634 -5.76958
-11.5552 96.5363 -1.65128
9.01745 120.645 -5.98594
-9.60458 143.619 -5.29394
-11.6934 94.487 -1.51576
-0.128912 125.137 -5.17006
10.773 111.324 -5.55274
-35.9553 135.527 -1.40526
-28.2601 132.555 -2.19049
-32.502 128.92 -1.40201
-13.3132 89.7288 -1.01263
-9.11369 140.199 -5.17372
-13.0244 94.2449 -1.39004
10.4813 122.378 -6.38084
9.10651 112.776 -5.52552
-8.82423 138.314 -5.10065
-2.0225 80.901 -1.84111
13.5741 129.651 -7.30437
-1.79877 127.47 -5.21945
-11.5353 95.508 -1.70251
4.98702 76.5619 -2.42842
-28.2912 140.819 -2.85187
8.59408 76.0013 -2.85208
6.53279 135.872 -6.8894
-28.9871 132.244 -2.16435
11.7458 118.082 -6.28123
-9.89661 95.6573 -1.95015
-12.2099 128.116 -3.99874
-12.0911 92.6748 -1.47608
-13.4058 93.9613 -1.40292
13.8117 129.281 -7.3692
-26.9915 141.979 -3.14105
-36.6084 130.84 -1.13503
-24.0956 142.257 -3.54077
-35.2114 136.981 -1.76663
9.85683 94.644 -4.40933
-37.1937 130.114 -1.03431
-11.7341 93.3004 -1.62644
15.335 127.518 -7.50709
-19.9286 140.367 -3.99133
-32.6339 128.662 -1.55373
10.6549 101.855 -5.08738
-11.3043 86.3342 -1.21059
-14.1326 94.1223 -1.41354
-28.1771 140.624 -2.99622
-16.0112 145.928 -4.9119
5.92543 133.326 -6.77464
9.60641 129.929 -7.00595
-23.6676 89.9981 0.0462456
17.8205 124.832 -7.68439
10.0591 130.845 -7.13995
-13.9953 147.076 -5.27849
-13.113 86.9586 -1.08364
-23.6004 140.62 -3.61375
-12.5398 88.6792 -1.284
-12.6865 94.6067 -1.69397
-17.1211 82.6146 -0.27581
-14.6467 88.3069 -0.995975
9.95498 112.157 -5.80706
8.78518 122.805 -6.42906
8.54631 78.4604 -3.2283
10.0404 126.887 -6.92072
-24.3197 135.959 -3.25009
-16.9413 144.71 -4.8212
-13.7705 131.667 -4.29289
-14.5183 129.482 -4.05397
-1.90312 126.769 -5.44986
2.79075 131.314 -6.38349
-10.712 140.346 -5.33983
2.52218 129.731 -6.24909
-32.7303 131.329 -1.92455
-4.05215 127.352 -5.2634
-12.6944 91.8452 -1.63624
-10.1078 95.4274 -2.22232
-14.962 128.649 -3.99399
11.1602 122.062 -6.81882
-12.2147 86.0156 -1.2946
-15.4782 82.7567 -0.651368
12.195 119.453 -6.77016
-32.6794 132.435 -2.061
-10.3707 99.4691 -2.50799
-21.1767 139.646 -4.03838
-14.7507 90.1698 -1.30696
-4.48791 127.184 -5.25969
-21.1125 138.17 -3.95575
-6.93652 127.195 -4.95848
11.3986 122.172 -6.90761
-11.8876 140.805 -5.31582
8.30137 77.5082 -3.33222
8.36922 78.1382 -3.38845
12.8134 129.537 -7.63793
-7.75522 82.7892 -1.69774
-23.9313 136.757 -3.53209
-9.93773 99.4436 -2.6203
-24.3456 93.7327 -0.398927
-16.8205 144.226 -4.97307
9.39509 84.0659 -3.96292
-9.51772 99.607 -2.69613
-11.2522 88.3964 -1.68279
-12.8761 145.003 -5.54611
-11.9887 87.7125 -1.55661
-10.7743 148.598 -6.08336
-32.6065 132.392 -2.17766
-14.1958 146.291 -5.49585
-22.7828 138.152 -3.8309
-12.1976 141.934 -5.44279
17.4517 124.37 -7.92
7.97962 119.419 -6.38035
-9.45278 99.2961 -2.74552
8.22684 137.31 -7.70049
-10.7536 98.5512 -2.53537
-17.7647 137.581 -4.47757
-15.7242 129.519 -4.16169
-10.7081 146.041 -5.97836
7.9312 135.715 -7.59472
-9.07694 96.6526 -2.67269
-19.4985 136.318 -4.20529
-32.5426 132.4 -2.28226
2.78391 124.189 -6.14375
-7.56024 82.7421 -1.88062
19.1974 123.257 -8.15622
-13.0672 93.0864 -1.93296
0.431493 123.777 -5.83655
-13.934 146.039 -5.62362
17.0504 124.739 -7.99962
-10.0403 96.2147 -2.54326
9.47085 93.5663 -4.81222
-12.0697 127.372 -4.53191
13.0136 128.737 -7.79379
15.3114 126.777 -7.95482
-29.9454 115.301 -1.43422
-16.1717 129.449 -4.18432
-24.2004 90.3916 -0.394524
-3.88853 81.9009 -2.34479
-1.00243 80.2856 -2.60036
9.54284 94.3463 -4.93866
7.68294 74.7953 -3.30427
7.58534 74.5763 -3.27699
-19.0529 139.074 -4.54849
-18.0348 143.142 -4.9736
3.77028 77.2218 -2.99811
-24.6177 93.6536 -0.607089
-16.4547 128.821 -4.16092
-13.3508 143.539 -5.63127
2.8835 78.1651 -2.99653
-12.4177 89.7172 -1.89797
-3.08882 127.137 -5.75917
10.5965 102.989 -5.75176
-13.0973 140.064 -5.42685
10.6157 105.642 -5.95101
-12.7744 127.369 -4.56756
9.23903 135.542 -7.9401
-11.3929 88.3428 -1.96148
7.96963 124.75 -7.01639
-28.7849 129.243 -2.71835
-14.5624 84.2434 -1.28324
1.84607 120.93 -5.98332
9.17544 84.2998 -4.3047
12.7847 128.31 -7.91647
9.54275 135.316 -8.02738
-23.9298 88.5008 -0.464375
-17.713 139.112 -4.87634
8.48763 125.313 -7.22063
7.66418 123.972 -7.02715
0.804805 123.132 -6.12413
3.42926 123.176 -6.46196
-36.95 128.616 -1.77483
-28.8672 126.645 -2.65313
-32.8363 136.562 -2.86917
3.01812 129.922 -6.91003
-21.1629 137.117 -4.40156
-32.5256 129.05 -2.40058
-32.1783 132.348 -2.68849
7.49368 123.451 -7.05966
18.825 122.08 -8.39529
-0.432328 79.9286 -2.95012
-33.415 128.924 -2.31281
-24.7409 92.5488 -0.800313
-32.0685 132.44 -2.73988
10.0679 134.238 -8.17774
-31.5965 134.248 -2.95117
-32.0862 131.138 -2.68253
-30.6635 129.395 -2.73794
-12.6203 86.0469 -1.90343
-16.9351 82.0018 -1.07088
-32.4214 129.274 -2.52124
-21.2475 140.251 -4.73278
-22.4353 84.9388 -0.636323
-32.2176 131.79 -2.78252
-26.6711 141.123 -4.16533
16.0212 125.236 -8.40356
-11.1303 138.285 -5.93121
-25.9621 141.493 -4.29413
-31.4019 130.134 -2.79746
-21.5005 136.859 -4.52715
-3.3177 81.5356 -2.86801
-13.5257 139.278 -5.72538
8.25292 79.1886 -4.16701
11.9647 126.99 -8.06185
0.134931 120.898 -6.13878
17.8352 122.507 -8.48564
-31.2978 133.13 -3.08686
-24.7833 133.219 -3.92281
-27.5144 131.572 -3.46964
-13.9569 141.58 -5.90071
-30.9734 118.304 -2.11028
-32.5842 135.002 -3.10852
9.87942 132.787 -8.31226
-19.3056 134.017 -4.73218
18.9424 121.195 -8.64211
-25.8061 132.071 -3.80986
-13.4354 92.5198 -2.53714
-9.41206 84.1033 -2.4565
-3.07947 126.376 -6.29673
-2.07971 124.321 -6.27799
-30.1093 137.391 -3.68884
-3.77937 126.314 -6.21681
15.5566 125.433 -8.59761
-28.1471 97.8907 -1.14206
-24.3378 132.624 -4.13029
-27.7735 130.265 -3.53974
-13.2647 91.6524 -2.59999
-22.778 134.34 -4.46667
-13.4921 91.1999 -2.54963
-0.129892 120.898 -6.37437
-11.9002 86.2468 -2.40805
-17.1654 129.964 -4.88286
10.5027 125.38 -8.04849
9.62727 129.386 -8.23113
-2.86262 125.716 -6.39651
-30.9559 132.151 -3.33793
-13.4131 92.026 -2.67848
-9.09371 84.2025 -2.66173
7.72541 77.0998 -4.27564
-28.5204 131.71 -3.62734
3.10454 77.2595 -3.71066
-16.3198 140.893 -5.83165
-28.5426 131.329 -3.61093
-12.054 89.1364 -2.66262
11.9001 119.356 -7.84913
-30.6361 134.288 -3.56315
-28.3861 131.372 -3.64424
-12.2924 126.203 -5.30407
-27.8892 132.119 -3.77389
-9.84253 125.833 -5.60111
-31.6451 131.732 -3.27892
-31.7572 112.247 -1.87162
-25.7398 140.51 -4.65591
-25.2639 91.8445 -1.23169
-25.9022 131.488 -3.99856
-22.0075 133.8 -4.65621
-30.015 130.439 -3.40753
18.8516 120.598 -8.85697
-16.6384 141.467 -5.8849
-11.8722 126.043 -5.37941
-31.0702 134.629 -3.58268
-13.0297 138.551 -6.13628
-7.67528 82.7597 -2.81425
-17.0893 130.156 -5.05437
7.73594 131.397 -8.27019
9.52524 131.88 -8.53131
5.20898 130.381 -7.89786
-6.72679 82.7203 -2.9788
9.073 89.2796 -5.45184
-23.7838 133.577 -4.49573
-3.77551 125.985 -6.48861
-26.3838 130.965 -4.00912
-30.8852 116.629 -2.43124
5.22097 130.227 -7.95562
3.27524 127.098 -7.50034
-29.4813 132.607 -3.7843
-18.3497 128.79 -4.91592
9.45691 130.411 -8.5404
-32.0758 127.79 -3.1262
-28.5218 97.8194 -1.43687
-11.7466 85.3818 -2.66194
4.1585 121.045 -7.22931
-32.1786 127.647 -3.14679
10.3888 106.372 -6.98771
-27.0389 133.814 -4.26887
-17.9114 128.098 -5.01194
-16.6103 130.974 -5.38332
-30.7126 125.607 -3.23687
-9.81692 84.8828 -2.95756
-23.2548 84.549 -1.24699
-8.73327 84.581 -3.08907
10.9027 119.169 -8.04222
-24.5596 136.901 -4.84764
-32.2449 122.598 -2.85477
5.10222 129.674 -8.07594
9.11637 94.5844 -6.07108
-30.9893 116.542 -2.5973
-28.7108 97.911 -1.54878
-30.4071 115.497 -2.60421
-32.1812 110.227 -2.00598
9.30352 128.631 -8.55669
8.70017 86.6943 -5.47823
10.5555 119.153 -8.03969
9.17333 129.52 -8.61184
4.45298 128.925 -7.97522
-36.7582 127.985 -2.71858
10.8841 119.135 -8.08887
-24.9513 138.217 -4.94829
-23.9342 86.7631 -1.39353
-27.7156 131.034 -4.09375
-20.0766 131.922 -5.12133
9.69149 113.538 -7.5658
-26.8158 131.16 -4.23595
-20.4018 132.334 -5.13697
8.98333 89.8203 -5.79097
-20.1621 131.182 -5.08805
-35.6383 127.582 -2.89208
-13.0607 137.299 -6.43748
-30.7626 136.798 -4.17277
-3.56595 125.683 -6.80725
-27.3656 133.747 -4.39269
-9.95945 125.314 -5.98085
-26.9377 130.432 -4.21765
-11.3725 84.4716 -2.88456
8.71471 87.1535 -5.62793
-30.8531 116.096 -2.72745
-16.3516 126.391 -5.30066
-25.7292 91.7828 -1.64723
8.91642 127.634 -8.58388
-35.6166 127.32 -2.95415
-30.9798 135.322 -4.11696
10.3401 107.266 -7.31347
3.97328 128.052 -8.00917
8.0199 80.3524 -5.10289
-14.2774 133.987 -6.14149
-17.8931 134.185 -5.70622
-31.8229 119.64 -2.90982
8.54507 85.8326 -5.58451
-1.30482 80.3114 -3.96268
-10.818 125.182 -6.00707
-28.1655 130.328 -4.19846
-35.9646 127.759 -3.03963
-21.8683 130.105 -4.98981
-11.7729 85.2945 -3.04894
10.2638 104.648 -7.21233
4.47973 120.376 -7.61318
6.39895 130.242 -8.56606
7.72155 79.073 -5.06525
8.30372 114.765 -7.71422
-28.0748 137.769 -4.79564
4.18266 122.219 -7.74965
1.3848 117.135 -7.03409
8.61041 117.774 -7.99832
10.3087 110.502 -7.69142
-8.70253 85.0741 -3.48451
-15.2711 132.667 -6.07591
-26.5102 137.238 -4.9913
10.2202 119.859 -8.37168
-29.4209 127.787 -3.94878
-28.7307 131.287 -4.28768
-29.835 127.755 -3.90031
13.881 119.207 -8.80083
-27.3891 134.81 -4.72732
-32.0703 104.691 -1.98464
-31.446 102.115 -1.88509
-23.8236 129.53 -4.81078
-23.7387 136.706 -5.3413
13.9875 120.071 -8.91566
10.2914 119.641 -8.42708
-6.22709 124.683 -6.71044
-14.8689 133.465 -6.25463
-22.189 130.278 -5.1112
-25.212 132.104 -4.867
-10.3133 124.95 -6.23292
10.2628 111.395 -7.86562
13.7742 119.228 -8.88306
-14.7325 85.6503 -2.89305
-24.119 134.789 -5.25478
7.98178 83.2552 -5.60321
10.0076 101.028 -7.13302
-9.8602 124.817 -6.34485
7.36526 75.7741 -5.00247
-30.4259 135.155 -4.51089
10.2575 107.397 -7.66641
1.9596 116 -7.24217
10.5783 122.244 -8.7942
7.71686 80.9113 -5.47213
-10.5925 85.5363 -3.49964
-26.8833 127.123 -4.43123
-19.5556 81.958 -2.11915
9.66225 113.698 -8.07845
9.83976 99.7535 -7.10894
-32.4514 127.397 -3.76821
0.123632 79.4142 -4.44076
-7.82658 83.8647 -3.7643
-13.1385 87.3327 -3.35598
8.85463 90.0054 -6.31994
14.3906 120.535 -9.22105
-28.0308 96.3714 -2.14933
-14.1854 125.206 -5.96267
-32.2678 119.637 -3.28925
14.4595 120.591 -9.25268
-24.903 87.7547 -1.97443
5.70126 128.528 -8.76531
7.17326 74.5034 -5.08404
-31.9572 117.827 -3.26955
-14.887 85.0117 -3.08086
-29.6605 129.995 -4.45917
-29.931 99.0023 -2.2049
7.54937 81.998 -5.70649
11.7223 123.577 -9.21366
-26.3888 136.676 -5.38797
7.79044 83.2917 -5.8791
2.43488 115.238 -7.5002
-32.432 119.554 -3.44253
-14.261 83.4918 -3.1455
-31.7707 116.965 -3.35345
0.138171 116.169 -7.3341
-15.1665 82.6111 -3.0075
-14.3033 83.5676 -3.19115
-14.0946 84.3642 -3.2779
-13.9852 82.6287 -3.17437
-31.6058 123.086 -3.85734
-24.2212 130.96 -5.35649
-17.1851 133.386 -6.42081
-29.3524 136.789 -5.13658
-26.1162 131.512 -5.16862
-19.6612 128.808 -5.79226
-23.5704 83.3748 -2.04362
-13.2419 124.229 -6.28276
3.22941 114.435 -7.67016
-12.5817 123.982 -6.36383
-21.7167 129.827 -5.6363
-31.0412 115.452 -3.43318
3.48473 114.639 -7.72854
-14.3734 124.601 -6.20334
-24.9157 135.343 -5.64791
4.69689 119.032 -8.21591
-17.2681 125.592 -5.92158
-32.5682 111.601 -3.01604
0.84381 115.001 -7.47138
3.99778 123.89 -8.52176
2.30616 117.814 -7.87311
2.89825 113.396 -7.63775
-29.9205 134.723 -5.07143
-10.6666 123.607 -6.70877
-27.4888 127.966 -4.92398
0.504824 115.085 -7.53389
-15.0404 83.4573 -3.33276
9.02094 114.017 -8.55734
8.59054 122.963 -9.16335
-32.5372 104.458 -2.65835
7.30815 80.2552 -5.94326
-8.16859 123.79 -7.12632
-29.0995 126.083 -4.66229
-29.2514 134.531 -5.25637
10.0292 112.036 -8.59472
-28.9632 125.116 -4.62275
8.70612 122.104 -9.1512
7.29269 128.46 -9.43698
8.01664 121.754 -9.06639
-23.688 130.016 -5.67602
-1.22372 118.107 -7.66155
-26.5567 92.3067 -2.62489
-14.8827 85.7408 -3.62738
-21.6953 81.7265 -2.484
-15.6147 124.625 -6.332
-27.7811 95.4412 -2.71678
-4.35677 124.239 -7.73402
-25.7738 131.255 -5.54408
-11.3149 122.938 -6.78274
-24.7429 128.805 -5.5167
-15.0242 84.5732 -3.56971
-31.6 113.776 -3.57637
3.42008 115.624 -8.12809
-34.0927 126.952 -4.21737
11.4683 118.382 -9.34274
-2.67824 121.86 -7.81356
-23.0992 129.503 -5.80722
14.7986 121.552 -10.0154
9.3841 98.8537 -7.70869
-22.21 129.656 -5.93929
12.8768 120.467 -9.70284
-24.5481 127.958 -5.53763
7.40207 127.991 -9.58575
2.9875 112.047 -7.90258
6.6162 74.3883 -5.67268
4.75392 125.406 -9.10384
3.9447 111.985 -8.04057
15.2492 121.948 -10.2015
-28.247 126.279 -5.03964
12.7521 122.647 -9.95165
12.9621 122.664 -9.98024
-6.13461 82.237 -4.7055
-25.4213 130.153 -5.71839
6.57956 75.1726 -5.80948
-32.7714 104.626 -2.986
3.06647 117.626 -8.469
-32.2517 120.321 -4.22302
-17.8571 81.427 -3.2616
-12.0714 122.518 -6.93737
6.84596 126.582 -9.61309
5.12358 125.774 -9.36829
-22.3391 81.1579 -2.71114
6.06707 125.362 -9.46566
3.37568 116.148 -8.47351
-31.0317 100.032 -3.01293
8.69111 94.8708 -7.6516
5.19752 125.058 -9.42076
9.52032 101.661 -8.30476
8.26155 120.883 -9.54203
-28.16 125.661 -5.30813
-2.37122 120.489 -8.19493
7.03814 82.7162 -6.67245
5.01863 111.003 -8.45065
-26.1682 89.0739 -2.95377
5.18051 124.047 -9.4136
-16.4365 123.81 -6.68945
8.00884 89.068 -7.30188
7.75785 121.173 -9.5724
8.78221 111.907 -9.03818
9.43162 101.647 -8.40403
9.26599 100.824 -8.32797
11.9389 119.445 -10.0041
6.23519 74.1338 -6.04162
9.64428 105.071 -8.70892
0.836619 113.115 -8.19466
-32.9581 103.869 -3.30807
12.9373 121.41 -10.3584
-8.39088 122.915 -7.78152
8.19097 117.885 -9.51313
6.56801 108.395 -8.6486
7.93313 89.593 -7.47711
8.17616 115.896 -9.40852
-9.02507 122.606 -7.72774
-30.1539 122.657 -5.07204
-9.94373 122.345 -7.60315
-34.2329 127.087 -4.88507
-26.537 128.89 -5.98466
6.42875 121.524 -9.61269
7.30984 123.983 -9.90533
5.87226 77.1504 -6.37857
-21.7802 128.683 -6.60026
3.29318 109.6 -8.41257
11.9712 120.961 -10.322
-33.1613 106.112 -3.58952
-31.3881 114.372 -4.40627
6.9323 123.862 -9.93953
5.89983 76.3694 -6.40509
3.88553 108.97 -8.48906
-27.1439 92.2395 -3.38358
8.17764 118.193 -9.71747
1.49676 111.943 -8.43162
-33.2079 108.508 -3.83116
9.17258 110.726 -9.33774
-22.9441 80.9357 -3.15966
7.80957 89.6518 -7.65855
6.28064 119.391 -9.61075
-21.2286 81.1585 -3.41044
-27.7912 126.886 -5.86493
6.97468 83.8836 -7.17343
-20.6754 127.798 -6.84369
4.67852 114.566 -9.09408
7.9385 90.8335 -7.80348
5.72996 110.842 -8.96491
5.4481 121.745 -9.76325
-33.283 106.524 -3.79565
6.3052 107.512 -8.85526
-24.9814 128.542 -6.44563
5.95029 78.2188 -6.73697
5.80801 77.9752 -6.7121
-33.2777 104.881 -3.72105
6.08897 107.467 -8.88229
-2.75022 119.498 -8.6555
-27.3208 128.388 -6.22052
-0.0451238 112.983 -8.56382
-33.3224 108.327 -4.04424
-26.9653 126.073 -6.13115
7.72971 116.992 -9.85531
6.38787 118.181 -9.77349
8.50528 110.663 -9.51466
6.54255 118.833 -9.87065
6.08804 117.371 -9.71332
-30.9854 99.1707 -3.74267
-31.5176 114.327 -4.79609
1.55964 110.494 -8.69028
-24.4739 82.3528 -3.39975
-32.469 116.805 -4.8855
4.85805 114.697 -9.44973
7.8481 117.406 -10.0306
6.85172 86.4493 -7.68733
4.56124 115.568 -9.51625
5.61791 74.0126 -6.67585
8.1615 96.0417 -8.57706
9.22867 104.79 -9.34281
-22.2721 126.926 -6.98368
-24.5397 127.677 -6.78981
-28.6413 127.326 -6.2643
0.0707891 112.385 -8.8238
-28.122 93.7387 -3.93965
-18.1007 123.791 -7.36393
7.93977 115.089 -10.0589
-18.2147 123.818 -7.39815
7.75352 115.219 -10.0689
-31.618 99.3682 -3.99015
-28.5411 94.1743 -4.01617
-33.5022 110.649 -4.62777
-27.1681 89.0444 -3.88786
-7.85174 121.998 -8.69866
-19.2007 124.958 -7.48205
-15.0316 122.136 -7.82908
-18.2458 123.632 -7.53925
-19.0647 81.3999 -4.41066
-33.516 105.109 -4.30281
7.62077 92.9058 -8.60925
8.02773 98.2879 -9.07625
-11.4545 120.475 -8.22764
-33.6093 107.206 -4.50034
7.76725 96.1014 -8.94212
-22.8305 126.337 -7.2712
-3.08029 116.998 -9.0892
-32.349 112.988 -5.11931
7.3047 105.518 -9.58487
-32.5163 119.173 -5.5498
-25.6057 82.7851 -3.83584
7.74992 96.2464 -9.00436
-22.2993 125.885 -7.34725
2.56622 107.92 -9.19481
7.80909 97.1262 -9.08522
-10.7553 120.376 -8.45223
7.1379 118.568 -10.5812
5.90769 84.9577 -8.0186
-27.5991 89.4793 -4.13865
6.8198 116.037 -10.3903
-23.5309 126.654 -7.33089
-3.6237 119.185 -9.32521
-32.337 99.5377 -4.33313
7.3937 97.4066 -9.2057
7.3273 97.3187 -9.23736
-32.087 120.103 -5.91988
-33.6614 106.461 -4.76542
-33.5675 104.711 -4.68001
4.21106 77.6228 -7.53349
-27.3075 87.9507 -4.35626
4.39741 78.3987 -7.68215
4.90226 79.2775 -7.81859
-21.9027 125.135 -7.73842
-33.2509 103.014 -4.73217
-31.6903 98.2884 -4.60446
-33.6942 105.768 -4.89601
4.52404 73.4101 -7.41812
-18.9639 123.21 -8.06766
-29.215 123.617 -6.8366
4.33019 78.6186 -7.84096
4.62867 79.0762 -7.91309
-3.19134 116.022 -9.65513
-19.9096 123.912 -8.14039
-6.24782 121.074 -9.66018
3.35773 106.075 -9.81068
-26.6978 83.9262 -4.47997
-31.9316 98.1386 -4.84972
-22.1188 124.751 -7.99918
4.03237 75.4749 -7.78099
-33.9414 108.134 -5.38597
-24.9004 126.164 -7.84154
-6.44688 120.833 -9.80088
7.16358 100.419 -10.0532
-2.51959 113.826 -9.81418
-12.3173 118.665 -9.00223
-33.2425 103.069 -5.286
-10.3999 118.937 -9.33401
-27.7688 86.4745 -4.82491
-33.1929 100.003 -5.12019
-0.161488 109.997 -10.0114
-32.2895 117.808 -6.5288
-28.7181 122.892 -7.35949
-33.342 111.647 -5.99998
6.12043 94.575 -9.75103
-17.1318 121.595 -8.77786
3.0021 77.174 -8.18302
3.21498 78.4168 -8.30094
5.86227 94.7183 -9.81895
-32.911 113.846 -6.3551
5.25081 97.123 -9.99715
7.09352 102.655 -10.6299
-33.267 103.461 -5.65411
6.07545 100.409 -10.4021
3.20091 79.0474 -8.5251
5.89104 92.9456 -9.86067
1.24211 107.065 -10.2883
-22.1563 80.2721 -5.44306
-29.0258 122.204 -7.59299
-4.80146 117.685 -10.3693
-28.8313 122.519 -7.7312
-7.08067 119.804 -10.2778
-19.9053 122.205 -8.86549
-23.1676 123.902 -8.60233
-32.9703 109.144 -6.34205
-5.63499 119.122 -10.5034
-30.0227 90.6503 -5.39691
-19.3456 121.723 -8.98601
-33.8636 105.947 -6.10272
-29.1873 87.8579 -5.43023
5.14602 91.7985 -10.099
2.52511 73.8406 -8.48972
-33.7005 106.874 -6.32373
4.71917 87.5544 -9.80223
-1.02685 109.82 -10.6784
-9.32049 118.515 -10.2588
-33.3187 98.8951 -5.83144
-10.8338 117.421 -10.0118
4.96431 91.9333 -10.1826
-2.77665 112.472 -10.6923
-30.8882 94.0872 -5.83508
4.88093 87.916 -9.89946
-30.9346 91.2612 -5.65883
-20.4238 121.592 -9.17835
-7.38435 118.871 -10.6627
-30.5352 90.2935 -5.70944
-30.9149 93.5658 -5.90128
4.29431 103.349 -11.0376
1.68932 76.8797 -8.81466
4.55104 89.9144 -10.1558
4.21613 87.8759 -10.0079
-30.6964 90.3975 -5.80775
-18.4117 120.69 -9.52809
-25.4552 81.3918 -5.83691
4.36986 89.9831 -10.2114
4.13527 88.0743 -10.0632
-16.763 119.69 -9.72577
4.09783 88.2872 -10.1137
4.20719 90.4524 -10.2835
-31.3602 117.654 -7.75801
4.46444 100.05 -11.0316
-32.9173 108.763 -6.95319
5.34422 102.518 -11.3287
-11.055 116.79 -10.3123
3.91018 93.5415 -10.5539
2.2228 79.7318 -9.37188
-29.3606 121.449 -8.40852
-25.6178 81.3664 -6.01371
-27.5183 124.03 -8.83325
-29.9201 87.7661 -5.97
-30.7198 119.92 -8.1754
-18.5758 120.356 -9.78112
3.34558 94.1776 -10.6913
-31.6236 93.7059 -6.26875
3.61434 90.9801 -10.5613
3.66106 91.7109 -10.649
-30.9269 118.224 -8.22781
-31.7676 93.5073 -6.36399
-1.96741 110.012 -11.3029
-12.7259 115.993 -10.3799
2.79044 87.1221 -10.2948
-4.66405 115.526 -11.401
0.146341 106.184 -11.3643
-28.3779 84.8873 -6.24788
-32.0312 94.0979 -6.45192
-31.9121 113.658 -7.87154
3.22948 93.2285 -10.8406
2.26081 82.4129 -9.94546
-27.069 123.727 -9.23535
-19.6523 120.56 -9.94391
-28.2886 122.422 -9.00352
-32.5395 109.432 -7.54001
-27.73 122.929 -9.13754
-32.3347 95.2621 -6.59621
-10.4187 116.458 -10.8996
-30.8852 117.632 -8.41391
-31.023 117.158 -8.37123
3.31759 92.1908 -10.9143
-25.1647 123.825 -9.59643
-30.0958 119.291 -8.66756
2.42226 86.1264 -10.3949
-33.7198 101.839 -6.99664
-32.1455 91.8381 -6.5438
-29.6778 119.591 -8.84789
-8.8467 117.175 -11.3103
-18.2407 119.426 -10.3213
-29.5997 119.439 -8.91946
-15.6211 117.483 -10.5589
2.62577 90.6188 -10.9966
1.6385 81.4307 -10.2526
-28.236 82.3189 -6.57893
3.16227 98.7271 -11.7193
1.74866 85.0953 -10.6083
-33.8131 105.658 -7.61324
-26.4512 122.414 -9.79232
2.53756 92.2303 -11.3299
-17.7742 118.657 -10.6857
-24.0948 122.081 -10.1725
-12.7858 114.911 -11.0949
2.63675 97.4829 -11.794
-24.4211 122.254 -10.2171
-26.165 121.954 -9.99562
-29.0389 84.2499 -6.9617
-9.59419 115.903 -11.7544
1.91097 90.7959 -11.4225
2.18904 97.819 -11.9664
1.53536 89.1721 -11.3116
1.49364 102.367 -12.256
-4.41546 112.929 -12.2732
-1.64463 107.581 -12.2392
0.337856 82.8619 -10.7195
-32.9203 107.519 -8.30617
-29.344 84.3622 -7.11497
-0.486951 78.2804 -10.3779
-9.53867 115.525 -11.9849
-33.8185 105.484 -8.21886
-14.4184 114.458 -11.3594
0.949698 95.4571 -11.9554
0.503734 86.7671 -11.3113
-33.3957 92.4651 -7.4747
0.790633 95.3248 -11.9973
0.359317 85.6403 -11.2526
-33.7764 104.374 -8.30217
0.154023 84.9713 -11.2374
-27.9259 118.564 -10.121
-2.15431 107.803 -12.6143
0.39209 96.3316 -12.1183
1.32428 98.6133 -12.4105
-0.929534 81.6158 -10.9225
-2.28377 76.632 -10.4641
-27.9668 118.175 -10.2147
-0.696565 82.7304 -11.1132
-2.75013 109.004 -12.7421
-13.9783 113.474 -11.6582
-0.844778 82.8013 -11.2229
-18.6626 117.587 -11.5092
-0.561053 96.7573 -12.3196
-34.0676 99.5536 -8.31476
-7.31201 112.989 -12.6646
0.269726 98.2958 -12.5828
-33.9069 100.118 -8.41689
-34.9026 98.0027 -8.18885
-13.2624 113.079 -12.0058
0.466867 91.1774 -12.1871
-24.1252 120.013 -11.158
-3.32742 75.7627 -10.6146
0.017783 102.623 -12.9654
-0.690289 84.6042 -11.5871
-0.436067 103.193 -12.9623
-34.5632 97.435 -8.25645
-34.8529 97.8784 -8.25601
-13.1381 112.97 -12.0865
0.280618 98.7788 -12.7772
-3.63303 109.675 -13.0741
-24.2373 119.807 -11.2081
-32.2742 109.241 -9.44985
-3.17329 77.4646 -10.8488
-28.3875 114.184 -10.3389
-30.9229 83.706 -7.84584
-2.54228 79.5658 -11.1534
-5.18648 111.442 -13.1393
-22.3377 118.662 -11.5038
-28.0301 114.931 -10.5222
-0.546572 93.5552 -12.4726
-24.5475 119.34 -11.3056
-0.233693 88.8186 -12.2577
-1.0703 97.5918 -12.8427
-32.4916 87.7429 -8.18112
-32.4545 107.909 -9.7446
-33.987 104.299 -9.31659
-1.70407 94.2911 -12.6877
-16.9354 113.933 -12.2115
-1.2287 93.0973 -12.7087
-19.6943 116.576 -12.08
-8.27829 112.193 -13.205
-33.1126 105.702 -9.63129
-11.5756 86.0046 -10.9722
-2.00779 97.0023 -12.9801
-12.1262 87.5673 -11.0453
-33.8643 99.5481 -9.17071
-12.999 87.698 -10.9674
-10.9674 85.679 -11.0952
-32.9872 87.9255 -8.48688
-0.968338 91.4925 -12.7773
-1.87345 93.5063 -12.8159
-22.9787 118.176 -11.9562
-17.2595 87.6685 -10.4927
-7.40924 111.309 -13.4425
-22.1179 117.79 -12.0637
-3.80557 79.8564 -11.6742
-4.97172 105.923 -13.4031
-34.5128 98.8584 -9.18713
-4.77019 105.97 -13.4566
-1.12346 101.642 -13.6148
-4.27957 107.266 -13.6368
-4.44193 104.613 -13.4361
-4.24734 106.989 -13.641
-4.28877 104.629 -13.4797
-35.0744 98.2503 -9.16438
-4.0934 104.806 -13.5398
-6.73161 87.3344 -11.9594
-9.77697 100.837 -12.552
-8.64218 102.065 -12.7884
-33.4442 104.971 -9.88387
-10.1247 100.615 -12.5367
-18.3083 88.2056 -10.6183
-1.35714 88.1625 -12.7556
-5.4345 76.6538 -11.4213
-34.9356 92.6169 -8.85826
-5.06931 109.184 -13.8211
-7.4223 86.4737 -11.9051
-10.3153 100.061 -12.5332
-17.3458 87.3786 -10.7413
-3.84522 86.8601 -12.4276
-7.76023 110.882 -13.6571
-8.86569 85.5082 -11.7042
-28.3953 110.891 -11.0696
-10.373 84.0403 -11.4142
-14.3989 87.464 -11.1534
-2.36128 98.4902 -13.4648
-10.815 98.768 -12.4412
-14.8713 93.5681 -11.559
-10.6472 98.5048 -12.449
-4.75596 79.0223 -11.7967
-15.1678 94.6574 -11.6097
-3.54287 96.2724 -13.1902
-34.8442 94.4691 -9.12661
-4.44493 86.0644 -12.3609
-6.50237 101.854 -13.235
-4.97159 87.9248 -12.4346
-2.60036 104.458 -13.9225
-9.47412 98.9921 -12.67
-7.24971 85.3072 -11.9747
-3.29635 85.8631 -12.5297
-2.62439 101.363 -13.7467
-5.45541 84.2039 -12.1628
-4.45559 103.268 -13.6641
-2.91434 88.3458 -12.7948
-2.47334 103.027 -13.9199
-32.5893 84.1817 -8.78333
-12.1683 97.1817 -12.2876
-31.6085 109.003 -10.6923
-34.8195 95.0681 -9.28966
-27.2773 112.927 -11.5257
-35.2143 93.3624 -9.12835
-21.3988 116.157 -12.5106
-33.2149 86.8195 -8.92003
-12.0185 88.5228 -11.7157
-4.12246 83.4996 -12.351
-28.1153 111.179 -11.3157
-4.03293 84.0348 -12.405
-14.782 94.4801 -11.801
-5.21473 102.544 -13.6019
-7.30075 106.326 -13.6161
-29.4457 109.642 -11.07
-7.44651 99.8182 -13.1489
-3.80674 88.7316 -12.8193
-3.4275 101.57 -13.793
-7.57424 109.825 -13.8785
-3.4671 101.321 -13.7903
-14.4836 94.1111 -11.8877
-11.1349 101.024 -12.8294
-4.90644 79.7701 -12.0947
-17.6632 112.86 -12.8623
-9.1309 83.8054 -11.8588
-7.77175 84.0853 -12.0531
-35.3422 93.4641 -9.26227
-15.6628 87.9428 -11.3481
-30.1371 80.8243 -9.01894
-5.71665 101.327 -13.5692
-7.37533 109.493 -13.9462
-23.0064 116.067 -12.4531
-33.7618 87.3804 -9.04443
-4.64292 102.441 -13.8055
-14.1119 110.901 -13.2334
-31.2955 109.176 -10.9765
-12.4454 96.2315 -12.4346
-9.62583 110.52 -13.8441
-24.9933 115.471 -12.2638
-8.18715 83.505 -12.113
-22.1367 115.515 -12.6543
-6.57389 81.964 -12.2694
-13.2884 83.8072 -11.5833
-31.6925 82.1426 -9.15661
-23.1251 115.012 -12.5962
-8.94953 88.4784 -12.4856
-14.1156 92.3737 -12.1226
-14.153 92.1774 -12.1062
-6.71079 78.8949 -12.1288
-6.27662 81.0515 -12.3443
-23.6433 114.024 -12.5337
-9.86173 96.8335 -13.0444
-35.4075 96.2587 -9.80946
-7.69034 76.0417 -11.8522
-9.72364 109.66 -14.0101
-35.4632 90.1266 -9.37566
-8.86509 105.682 -13.8503
-6.19083 79.9504 -12.3607
-4.52998 97.9554 -13.8643
-31.7183 107.769 -11.177
-24.5403 114.466 -12.5653
-4.86191 92.2195 -13.4572
-16.0122 110.976 -13.4042
-15.4503 85.748 -11.6705
-34.9729 88.3389 -9.40006
-8.45958 106.699 -14.0797
-13.9335 80.4583 -11.5321
-5.79993 94.99 -13.6121
-9.84895 109.104 -14.1268
-7.66377 78.9719 -12.2449
-35.9691 92.3266 -9.64389
-13.4226 93.3189 -12.5919
-9.78061 108.806 -14.1651
-14.6475 80.6162 -11.5718
-25.4405 113.992 -12.6066
-15.4939 98.3701 -12.7401
-18.5191 86.5523 -11.5176
-9.8313 90.327 -12.8878
-8.13944 90.4723 -13.1232
-8.94097 90.3914 -13.0169
-10.0312 95.4123 -13.2408
-6.12496 91.5753 -13.4587
-7.17346 97.2171 -13.7321
-8.58264 77.1762 -12.1229
-9.37008 108.278 -14.2544
-15.3876 81.0063 -11.5617
-26.234 112.489 -12.4564
-26.9821 111.873 -12.3315
-13.5468 110.134 -13.9023
-30.0591 80.2813 -9.68552
-11.3542 90.4177 -12.7698
-34.1044 86.2279 -9.62686
-12.9837 90.11 -12.571
-19.7137 89.4217 -11.675
-8.78978 77.6211 -12.2056
-6.4659 92.0851 -13.5394
-30.0193 108.146 -11.7273
-8.7084 95.9126 -13.5489
-10.3722 90.8001 -12.9808
-25.2866 112.247 -12.6416
-18.4907 91.0534 -11.9824
-14.2955 85.1851 -12.1054
-35.8816 95.0021 -10.093
-16.49 81.2735 -11.5837
-11.6291 93.3675 -13.0667
-6.66316 95.9528 -13.8796
-11.3657 93.5005 -13.1375
-35.9779 94.8927 -10.1411
-20.7964 113.045 -13.3582
-7.75025 94.9995 -13.7182
-7.30078 93.3893 -13.6768
-7.69207 94.8285 -13.7351
-11.6321 79.8051 -12.174
-7.76503 93.8776 -13.6916
-8.06219 93.4518 -13.6242
-8.41533 93.9157 -13.6208
-10.7181 79.9516 -12.3405
-15.0231 81.9009 -11.9478
-33.6658 83.9497 -9.75798
-10.66 79.1899 -12.3516
-24.5717 86.8531 -11.2089
-32.469 82.4673 -9.90604
-24.8035 88.5925 -11.3155
-11.0596 104.457 -14.1909
-17.446 81.5697 -11.7787
-18.601 94.2633 -12.6193
-16.8006 80.7757 -11.8862
-18.1268 82.0437 -11.8181
-36.5565 92.1116 -10.2687
-24.0571 111.222 -13.2203
-23.2606 111.531 -13.3433
-21.9711 112.085 -13.5483
-17.1762 85.9835 -12.2821
-26.5061 88.2337 -11.291
-22.7623 111.658 -13.473
-15.736 83.2927 -12.3367
-10.9374 106.035 -14.5921
-19.3848 82.8188 -11.879
-13.2849 109.187 -14.573
-18.6416 82.0792 -11.9701
-20.8443 83.1324 -11.7998
-13.2125 108.607 -14.6387
-32.9263 103.466 -11.7928
-34.8419 98.8832 -11.2233
-16.44 98.3525 -13.5167
-32.0907 104.732 -12.0425
-14.5457 108.719 -14.5525
-17.2534 109.264 -14.2559
-29.3547 107.345 -12.5962
-19.5266 110.685 -14.0769
-26.5153 110.038 -13.1761
-21.4177 110.342 -13.8685
-20.7167 108.851 -13.8697
-19.239 110.225 -14.1656
-34.2616 99.7475 -11.531
-12.7379 103.752 -14.538
-13.3077 107.496 -14.7703
-16.867 79.6996 -12.3918
-18.8563 81.4668 -12.2718
-32.6007 82.0579 -10.6221
-14.9681 108.004 -14.7119
-13.2134 105.65 -14.7867
-15.5572 78.5638 -12.5739
-25.5928 86.4125 -11.8959
-13.4683 105.721 -14.826
-18.8323 106.603 -14.2562
-20.839 90.9234 -12.8845
-21.6073 108.396 -14.0423
-28.9262 105.893 -13.0011
-26.0655 109.251 -13.6262
-15.1807 107.265 -14.8873
-27.5621 88.262 -11.9876
-16.6722 105.091 -14.6027
-18.7083 105.697 -14.3904
-21.9042 84.2382 -12.4561
-18.5013 99.175 -13.9654
-18.373 96.5309 -13.7936
-19.8016 94.3495 -13.4668
-16.0404 105.279 -14.7426
-23.2033 90.08 -12.7641
-19.9541 84.888 -12.86
-15.6357 106.29 -14.9591
-17.0185 103.357 -14.5988
-19.0451 105.51 -14.5098
-30.8162 87.9283 -11.7813
-14.8787 102.985 -14.8744
-21.0554 85.7563 -12.8735
-23.6566 90.534 -12.9251
-19.797 105.734 -14.5094
-20.8551 92.4262 -13.4392
-23.8549 90.6481 -12.9642
-19.5341 100.297 -14.2002
-24.3782 85.2654 -12.5674
-27.9159 87.3968 -12.2915
-30.3169 87.3706 -12.0001
-28.9298 87.4005 -12.179
-26.147 105.816 -13.9216
-24.9114 86.3981 -12.7053
-20.2624 101.124 -14.3958
-21.2895 85.3074 -13.1712
-22.3112 85.6444 -13.0799
-35.1578 96.9439 -12.3007
-19.275 96.3199 -14.2627
-27.8387 86.8836 -12.5192
-28.3506 102.983 -13.6681
-35.4498 84.9342 -11.4845
-20.5231 101.87 -14.6043
-25.1432 91.3391 -13.2969
-24.9784 105.031 -14.3023
-22.0074 106.166 -14.8046
-27.0301 102.128 -13.9462
-28.7741 102.224 -13.7674
-35.5981 89.0602 -11.9686
-20.1966 104.367 -15.0159
-33.5123 99.546 -13.0057
-24.2332 86.5643 -13.2455
-22.2194 100.366 -14.5028
-29.7955 102.374 -13.7044
-21.8288 98.7542 -14.463
-21.5362 104.897 -14.9993
-23.5819 92.4401 -13.849
-34.4455 90.0673 -12.3127
-28.7279 87.5226 -12.852
-31.5843 95.84 -13.1055
-27.3185 86.1345 -12.9614
-26.2307 102.313 -14.2997
-28.8885 101.245 -13.8916
-25.332 91.4201 -13.6632
-21.5694 102.139 -14.9147
-32.8567 87.0973 -12.4177
-29.8713 101.373 -13.8173
-24.9501 86.4323 -13.3725
-35.4842 91.5268 -12.4129
-25.0143 103.529 -14.593
-32.9531 98.9893 -13.2718
-33.3411 87.4035 -12.4373
-24.5041 104.326 -14.7762
