ply
format ascii 1.0
comment Created by Open3D
element vertex 1911
property double x
property double y
property double z
end_header
11.5347 127.449 1.4815
18.0546 146.703 1.93924
11.3663 126.592 0.377214
10.1142 122.153 -1.35281
-4.42954 82.5445 4.04074
6.99111 121.567 16.5658
15.3415 137.513 -0.97084
-2.09055 88.6101 2.48448
15.9702 139.416 -0.840897
-3.67017 89.7031 14.4293
2.63087 100.753 -0.917046
-5.50008 81.1922 7.59323
4.60507 106.249 -1.49132
9.92302 127.464 10.7759
11.2 126.563 0.961495
5.0146 112.749 9.61489
8.36757 121.026 6.52182
-4.9983 81.0187 3.80935
11.6102 130.552 6.74361
10.7948 124.888 -0.49447
12.5574 131.463 2.57033
11.8061 127.568 -1.10783
10.8056 130.312 10.8038
9.10533 123.274 6.25716
7.28102 118.437 7.20767
15.062 141.418 8.00974
11.3366 125.791 -2.24401
14.8468 140.9 8.13227
13.6506 133.124 -1.0756
13.8041 133.904 -0.37497
-0.717141 92.7548 1.62799
9.76754 122.415 -0.0666848
1.49488 105.202 14.2707
9.97721 123.021 -0.150943
11.038 129.407 6.8599
3.92269 111.5 12.6037
10.2314 127.544 7.81941
10.8787 129.455 7.66804
-2.91809 92.0599 13.131
16.9198 145.967 5.38212
10.4715 127.419 5.68322
15.1919 142.101 7.75938
16.2919 141.546 -0.203883
-5.70645 79.9462 4.38747
-5.65148 82.0451 8.46052
4.33646 112.675 11.9006
9.18734 126.862 12.1395
13.3321 133.157 -0.00532698
9.9634 123.729 0.697026
11.8242 133.444 9.68499
3.63278 111.309 13.0976
10.2839 124.262 -0.343626
16.792 145.913 5.52352
14.0788 135.083 -1.04109
17.6777 147.167 2.36887
8.88957 123.498 6.10465
14.7663 137.26 -0.855776
13.3031 133.403 -0.131709
6.71611 113.793 -1.55277
9.46123 122.626 0.256625
11.2516 129.087 2.93753
5.65601 119.124 16.1283
8.01128 121.4 6.45933
6.31192 119.832 13.5768
0.751353 104.24 14.6854
14.2029 135.893 -0.986507
-1.66062 97.498 15.0921
14.0087 139.833 8.45852
10.2239 127.375 5.26166
12.3777 135.637 9.47907
11.3977 128.841 1.04658
6.30776 112.965 -1.60872
17.172 145.874 1.39145
9.68498 126.125 5.52778
-7.68235 76.6709 7.12927
-4.27697 90.0659 14.5297
11.0149 130.253 5.71063
-3.93504 91.2849 14.9499
9.36979 127.367 9.64225
2.81621 110.408 13.8436
-1.08082 93.3961 1.55566
14.2014 136.547 -1.00138
11.1328 131.448 6.86388
4.53247 114.574 11.6558
11.5106 130.818 3.1875
1.38209 106.686 14.2877
-3.87985 91.9029 15.2051
-7.06511 78.8315 7.03869
4.66515 114.79 11.1837
1.10793 105.98 14.1539
14.132 136.668 -0.873754
7.01818 115.903 -1.25884
8.39888 120.534 0.0390417
13.2281 134.244 -0.788264
9.645 126.674 5.16266
6.18813 118.032 8.02062
15.3407 140.868 0.123067
-5.75988 85.3315 12.0314
-7.54683 77.62 6.64326
-1.38581 93.2078 1.76352
10.1685 128.215 4.9622
-7.74763 77.2177 6.88641
13.6468 136.172 0.361085
3.73194 106.237 -2.31274
4.06806 107.706 -1.40977
2.24644 102.457 -1.35118
16.3777 144.86 1.55246
-1.22731 100.23 15.1317
-5.81273 81.7746 4.00891
3.19686 104.734 -2.72352
-6.75714 80.3343 6.60738
11.4644 131.469 3.0234
11.0931 130.193 2.55896
16.2319 146.483 5.40752
-7.38262 78.3313 6.01903
12.2662 132.734 0.546794
-6.67947 81.1257 7.5015
3.62236 106.358 -2.35965
2.43883 103.251 -1.81424
9.21122 126.184 5.15328
11.6174 129.621 -2.41249
8.06498 125.175 9.97669
6.37024 114.906 -1.4653
12.626 133.668 -0.144743
13.1378 134.86 -0.827746
13.1693 135.861 0.962358
10.051 126.695 0.642886
11.7477 130.71 -1.34861
11.3336 133.133 6.23052
16.1414 144.921 1.59096
-0.194513 103.879 14.955
15.3948 142.158 0.196578
5.72181 120.814 14.3892
0.353656 98.624 0.137861
-7.39576 79.3567 6.54656
-0.072282 104.481 14.8014
5.76374 121.089 14.1303
13.2674 140.145 8.38036
0.977229 100.424 -0.337808
-7.10671 80.1975 6.45515
12.8221 138.935 8.42904
10.0776 131.017 8.40895
13.0095 134.244 -2.79471
8.45148 124.986 5.5643
9.59119 126.657 2.01383
6.06803 119.308 8.06314
4.06145 115.638 12.4827
-5.93126 82.8185 4.23863
-6.38752 81.4091 4.00177
-1.56636 94.2783 1.63825
10.2707 128.942 2.33885
15.5693 143.713 0.909438
11.2305 133.229 5.30136
-8.04837 77.9826 6.60103
10.979 132.31 4.73348
1.87749 110.533 14.491
13.1376 136.227 -0.506171
4.4731 110.854 -1.08688
8.45714 125.68 5.85398
-6.62859 84.3873 10.9889
9.25387 128.018 5.75332
-6.91193 82.7654 8.982
-4.03889 88.4116 3.21661
11.1024 134.212 6.98833
10.9326 134.835 9.24555
16.6749 147.699 1.20069
-8.04412 78.3685 6.03923
1.80354 110.968 14.5508
11.5558 135.028 5.5876
7.61892 125.816 10.1127
5.96358 122.311 12.8354
9.96096 126.471 -2.99755
12.0009 136.27 5.23799
1.34007 109.845 14.744
12.4319 133.446 -3.45137
4.59828 118.028 11.9125
7.82782 126.509 9.97639
2.13362 112.078 14.3432
7.41456 126.605 12.6551
11.6759 137.121 8.69918
8.4737 126.809 6.43324
5.9576 120.713 8.6787
8.13305 126.077 6.60735
-1.14149 96.5987 1.03382
6.93965 126.092 13.6649
3.59332 109.535 -0.948509
9.98649 127.111 -3.07538
5.33078 119.912 10.1911
0.437378 107.878 14.6358
16.3821 148.502 2.72769
10.6376 129.096 -3.18325
9.13609 128.781 5.26943
-6.41298 88.0608 14.2789
6.96716 123.769 7.61722
-5.82443 90.4681 15.5201
-0.0686203 106.667 14.3757
13.5008 142.627 7.1156
12.5718 134.997 -3.39086
8.57498 123.872 -2.44389
16.2848 148.241 1.83346
6.71133 126.06 13.6263
6.50163 122.908 8.11473
-2.52472 100.344 15.6582
11.5273 131.968 -3.84267
10.4433 131.723 2.29051
-2.10793 101.555 15.4501
3.72363 117.323 12.8556
10.3274 132.35 4.0955
10.056 131.646 4.22175
-6.4275 89.063 15.0378
9.70276 128.72 -0.0560022
8.5296 124.174 -2.50542
7.89476 128.263 10.0471
4.89124 120.158 11.2969
-6.35657 89.6292 15.2688
-0.789576 98.7711 0.373465
-5.44142 92.4966 15.5375
10.7964 132.774 1.11045
6.64761 120.554 0.6614
-2.51438 94.5785 1.81414
12.4071 135.822 -2.46543
-2.46964 101.187 15.5498
5.06169 115.109 -1.31334
6.03114 122.702 8.77024
12.8269 137.837 -0.944698
-2.00173 95.9989 1.33775
3.13156 116.625 13.4482
9.29777 130.543 5.02177
11.2809 135.926 4.17359
13.3655 143.179 6.72262
10.2937 135.373 8.96824
-4.96737 94.3431 15.7078
10.4744 136.093 9.13223
11.9623 138.126 4.27857
14.2661 145.702 6.13352
3.16631 117.186 13.4307
-8.37008 80.8076 7.16166
-7.61912 85.4712 12.3322
12.988 138.847 -1.29011
12.3465 139.673 4.16858
-2.1728 96.2678 1.31659
8.92282 129.721 3.9874
3.7208 118.811 12.8187
-5.03844 94.9804 16.1001
4.75271 121.285 11.6349
4.45119 120.659 12.1599
15.4925 148.894 4.09579
8.79756 128.73 2.38153
8.68262 132.052 10.0679
8.79688 128.617 2.05974
8.7488 128.008 1.00651
11.9356 139.197 5.12051
8.17269 129.013 6.58514
7.6303 128.351 8.35218
8.02656 128.921 7.05601
15.5376 149.167 3.78111
9.8829 131.893 1.84878
-2.294 102.862 14.9901
-7.07778 88.8785 14.7031
-5.96394 92.7558 15.999
8.97362 128.673 0.321159
-0.373304 108.404 14.8079
7.05262 122.236 -1.53161
-8.04003 84.8158 11.8389
10.2837 135.53 6.63005
2.83412 117.305 13.745
11.2293 139.07 8.10044
-9.67955 77.8603 6.6758
-3.45434 100.195 15.7374
12.3228 138.866 0.661847
9.92611 132.013 0.819878
-0.342268 101.497 -0.971464
8.99494 131.405 5.04199
-5.97967 93.2012 16.0134
7.48136 129.172 9.43343
-4.87105 96.4197 15.858
13.1464 141.705 1.04202
7.95733 130.994 10.2259
10.2367 131.248 -3.3007
0.76548 104.338 -2.18515
8.80983 127.561 -2.40302
6.22282 127.012 12.3379
8.78428 127.516 -2.36433
-8.39322 83.4075 9.69907
12.0701 140.827 5.50736
-8.37173 84.3074 11.2457
12.2719 138.938 0.120511
12.2681 139.053 0.18659
11.0333 138.204 5.89638
-6.59913 91.9235 15.9638
0.739606 112.777 15.0152
10.9149 133.265 -4.15962
0.604953 112.429 14.9959
8.10353 131.763 9.7161
8.66658 132.69 8.10202
6.17338 127.322 12.0055
-0.572116 101.626 -1.08428
15.4513 149.186 1.22097
7.68302 130.242 8.70479
-1.06425 107.741 14.6882
12.0003 141.123 4.90625
8.59041 133.319 9.25052
0.69185 104.977 -2.53112
-0.57472 109.589 15.0023
8.28266 131.225 6.40367
11.3573 135.019 -4.54479
7.12772 129.331 9.3638
12.4697 140.07 -0.722442
13.9831 145.502 1.47596
5.78808 125.969 10.4168
-7.54847 84.3566 3.95568
2.25524 110.053 -1.9219
14.9847 149.595 3.57137
4.51257 117.165 -0.941464
10.3172 137.406 6.20701
-8.08253 87.5778 13.6395
4.46517 123.289 12.0951
12.4967 139.614 -2.82186
2.20977 110.337 -1.83899
-6.46285 93.9117 16.442
11.9293 141.402 3.91323
9.01309 134.684 7.5582
8.33601 132.956 8.04748
-3.12455 103.006 14.9246
-2.63523 104.472 14.9214
-10.2868 78.3367 6.46843
-2.13523 105.922 14.7575
9.28858 135.987 8.2781
12.0152 138.631 -3.11349
11.5853 140.453 3.11542
5.45073 121.859 1.3147
13.791 145.779 0.747321
-6.33629 88.6967 3.26992
-10.7031 77.8988 7.05981
6.02455 128.229 10.867
0.135595 104.854 -2.61621
9.17341 134.868 5.42359
-10.1577 79.1888 6.14214
-3.04194 103.981 14.8729
13.1728 143.312 -1.51634
12.0229 142.135 2.96464
-7.06043 87.0189 3.37612
11.8118 141.931 3.65099
11.7062 142.191 4.72103
8.12831 128.548 -2.30454
8.35834 134.26 8.37632
12.1882 140.741 -1.73184
2.03953 118.883 14.1536
9.73588 132.908 -3.48719
5.41621 122.618 1.20231
8.55389 129.806 -2.89419
13.6796 146.307 0.564079
10.9453 136.124 -4.33394
5.22754 122.421 1.54401
14.242 149.541 3.6137
-1.91039 100.551 -0.98964
10.6171 135.175 -4.58772
8.3119 134.522 8.17294
-7.5842 91.7623 15.1957
-7.22306 93.2122 15.9835
1.66605 118.28 14.3591
-5.00478 99.712 15.7883
11.5402 142.569 4.84448
11.3844 141.315 3.13454
13.3813 145.583 -0.25457
-10.9437 78.4264 6.81565
-6.52042 95.6619 16.052
10.3724 138.903 3.53241
6.76966 131.11 9.12869
5.66693 123.605 -0.0176453
-3.03646 105.467 14.9444
0.44611 115.623 14.9765
-7.29177 87.7289 3.35628
9.67042 133.571 -3.71761
-7.71973 92.1761 15.3917
7.72085 133.028 7.06959
13.6304 148.907 4.09949
0.0591544 106.362 -2.88014
-8.90905 88.1132 13.3334
5.07959 127.617 11.0218
-8.13641 85.6073 3.1269
-8.35482 85.1419 3.38503
5.11826 127.807 10.9981
-6.89977 95.4485 16.148
9.3741 136.799 3.7682
-8.78588 88.9758 13.8289
-9.02087 88.0059 13.1513
-3.26556 105.687 14.9107
-4.05854 97.044 1.43803
12.5747 143.328 -2.78992
-9.12864 87.9525 13.0002
5.54462 129.345 10.5079
11.9153 145.289 5.08808
3.68858 124.994 12.2335
5.53068 124.655 0.0129427
-5.18163 101.003 15.5671
13.2001 146.767 -0.529876
4.01356 120.974 0.998276
9.4635 134.499 -3.94369
-10.9809 80.2831 6.71978
13.2505 147.218 -0.345993
10.4761 141.076 3.68497
12.6478 145.119 -1.13465
7.06134 128.773 -1.61046
-8.46718 86.0005 3.00933
9.89966 139.701 3.93337
-3.52616 99.1498 0.221225
2.05663 114.938 -0.900029
-6.05792 93.097 2.66997
10.1337 136.508 -4.823
13.6689 150.543 3.13778
-9.20784 89.1721 13.5258
-4.42752 103.657 14.7545
0.201915 117.197 14.9936
6.62011 127.988 -1.60585
11.7599 144.926 2.36958
12.4644 148.017 4.47356
2.31159 122.774 13.3614
-11.1745 81.3549 8.18558
-9.31938 89.2999 13.4618
3.41335 119.863 -0.0149914
-0.752359 106.585 -2.63121
11.8584 146.574 4.54552
-11.2543 81.2064 8.01421
5.50085 126.099 0.0376903
-4.05399 105.431 14.7496
9.97631 136.872 -4.84858
8.84781 137.909 4.23954
-2.93867 101.162 -1.40613
2.87592 118.029 -1.52049
-3.28379 108.013 15.0188
-7.53506 96.1686 15.9653
13.5132 151.029 2.89238
3.69163 126.852 11.9938
-9.07008 90.7323 13.6648
6.37784 133.597 9.56385
13.5847 151.184 2.49254
-0.969289 106.67 -2.56131
0.02081 109.543 -2.81663
4.44848 129.066 11.3303
8.53496 137.706 4.44374
-13.0332 76.6427 7.53867
10.8553 140.723 -3.56709
1.85936 115.84 -1.06831
-7.84172 89.6707 3.00595
5.12462 130.723 10.3557
11.4314 145.267 2.32301
-4.83103 97.6489 1.23089
12.8896 150.03 3.36097
-9.53358 84.8806 3.01633
2.51408 117.587 -1.70528
0.998401 113.068 -2.04664
-2.06474 112.224 14.9382
7.67877 136.166 5.71978
-8.43235 94.2196 15.7963
3.31866 126.573 12.1307
11.6183 145.95 2.18034
-11.3953 83.1078 10.0326
0.558944 119.714 14.083
12.5675 149.482 3.35927
5.86474 133.093 9.76421
9.69639 141.502 3.88196
-9.40983 90.6901 13.5107
7.76841 136.7 5.43476
-4.1589 106.55 14.7793
5.54418 132.362 9.80219
12.5598 149.609 3.22139
4.27113 124.867 1.51646
1.87435 116.64 -1.27052
13.1867 151.327 2.50706
3.97053 124.244 1.47295
7.08248 131.659 -2.02047
-11.0422 82.0766 4.1942
2.11631 117.577 -1.52775
-4.30502 106.679 14.7572
8.85708 140.135 4.59682
-12.1049 80.8959 7.75861
4.41962 130.422 11.0191
4.27865 130.185 11.2155
9.50722 137.86 -4.68496
11.631 144.7 -3.30705
13.3727 151.674 0.648395
11.7878 148.197 2.55154
-3.3253 102.234 -2.09703
-9.41697 86.9242 2.83359
-11.6593 84.3748 11.1501
2.48238 119.639 -1.24021
5.57335 133.946 10.0685
-1.69578 115.459 15.1931
7.09796 132.931 -1.91033
-1.82124 106.875 -2.4088
-4.40512 100.214 -0.7803
-7.70349 98.4673 15.7328
-1.11321 109.003 -2.4972
3.75359 129.79 11.5856
-0.500888 118.835 14.3872
-6.61251 101.628 15.3779
6.56489 131.862 -1.62568
11.763 147.025 -1.71418
8.85182 141.402 4.20286
7.14143 138.137 7.67337
7.47264 138.103 5.34552
4.1134 131.125 11.0671
-10.3821 85.1135 2.50391
4.24425 131.495 10.8477
-10.7045 84.7481 2.69995
7.52479 139.48 6.65519
-7.60885 93.6535 2.48299
-10.0744 86.58 2.53307
5.30515 129.463 -1.13868
-8.46416 97.6595 15.982
9.97161 141.797 -3.91269
-7.12294 95.1364 2.15213
9.73815 141.054 -4.16372
2.8158 123.349 0.800425
10.6112 143.943 -3.63783
-6.29522 97.387 1.54521
-10.4293 90.6706 12.7165
-6.18611 104.087 14.844
-12.205 84.9872 11.3307
8.86318 138.645 -4.43998
-0.0595747 113.467 -3.07321
0.341802 114.901 -2.54002
-3.69775 103.274 -2.58345
0.704617 116.497 -1.95324
-13.1899 80.5662 7.12042
3.75611 127.219 1.75747
12.0595 151.512 2.21845
6.19161 132.738 -1.658
-12.7728 80.5974 4.32566
-5.9493 105.223 14.5963
-4.46959 101.928 -1.71398
-2.22488 108.024 -2.62592
0.642308 123.629 12.7564
-5.03273 108.057 14.6183
7.75104 136.727 -3.42709
-8.40391 98.9976 15.8345
-13.8464 78.4768 5.6805
-12.4233 81.7248 3.71689
5.92384 136.884 7.72374
7.35345 140.413 6.35825
-11.9511 83.0112 3.25375
-12.1366 82.5835 3.30499
4.75677 129.724 -0.875985
-11.3456 89.204 11.9579
11.768 151.579 2.06739
1.93081 127.93 12.318
-7.40832 102.365 15.1468
-11.2008 85.3061 2.25369
-12.3659 86.8291 11.8675
-11.5029 84.8856 2.40064
9.43216 145.662 2.5134
6.76047 140.101 7.05989
-9.72169 96.3389 15.494
-13.6561 80.0208 5.04855
0.406201 124.365 12.5023
2.75412 126.075 1.31511
-3.34629 106.69 -2.64292
7.33509 142.1 6.69312
-14.875 77.9607 7.091
0.174879 124.135 12.449
-4.0296 113.11 14.7883
-7.41072 97.2875 1.67136
6.68889 140.596 6.71317
0.948023 126.805 12.2538
-3.84219 114.166 14.8938
-11.4328 86.0488 1.84788
11.0104 150.24 0.00106183
-12.4694 87.6911 11.703
-8.36558 95.0998 2.1118
-12.1174 88.8405 11.6933
-0.617628 122.78 12.8154
7.58818 138.605 -4.10938
-5.4956 109.494 14.5842
-2.99664 117.105 15.3146
-5.15468 110.654 14.7409
-4.14203 105.444 -2.70407
-15.002 78.3794 6.66464
6.84308 137.028 -3.31052
9.19136 143.561 -3.93494
7.35241 143.189 6.44533
9.6834 145.062 -4.0272
-14.2813 80.1982 5.69135
8.07864 140.425 -4.14378
-7.21353 98.3977 0.728051
3.73835 130.263 0.962216
7.82607 143.453 3.70791
0.289145 118.829 -2.28056
-0.478516 123.567 12.4453
-6.89898 99.1485 0.0559586
8.89393 142.994 -4.09876
4.41201 131.516 -0.97712
-9.11062 100.547 15.8684
7.49304 143.793 5.4639
-2.817 118.501 15.1627
-1.06003 115.117 -2.92311
-5.21659 103.406 -2.24034
6.11225 140.491 6.54243
-0.686496 123.608 12.5132
1.47456 123.864 -0.27931
7.2558 143.833 6.41555
8.06309 141.397 -4.08475
1.53424 129.975 11.7977
-1.197 123.046 12.9437
-13.0795 87.9548 11.4724
4.0937 132.281 -0.323358
-7.84864 104.863 14.8801
-9.60862 100.295 16.0096
-6.16601 102.141 -1.30631
6.24874 141.698 6.21879
0.773661 122.249 -1.51921
10.9354 152.585 0.339971
-14.4366 80.7254 3.85483
-3.33301 109.878 -2.60655
0.208507 120.429 -2.18768
9.29616 146.042 -3.92258
-4.33246 107.025 -2.93918
-14.8913 81.7286 8.17979
-4.66849 114.679 14.9189
-11.2525 89.3476 1.54549
-10.4269 91.9338 1.90014
-3.11184 119.259 14.8866
-9.2929 101.823 15.8657
-4.28282 107.681 -2.99124
5.48434 136.178 -2.76096
-5.99178 103.369 -2.11299
1.3084 130.989 11.5864
-1.1686 124.33 12.601
-0.223575 126.778 11.7956
-13.1969 84.8737 2.52323
-1.37921 116.673 -2.71249
-2.34082 113.859 -2.77489
-6.96637 101.429 -0.726505
8.48472 144.796 -4.02432
-3.68057 110.283 -2.53653
-10.0866 93.8415 1.95294
-3.91045 109.58 -2.71033
-2.3871 121.767 13.7407
1.57816 127.178 0.728086
9.86927 150.014 -1.86409
-16.0987 78.6798 6.47878
4.09967 134.212 -0.338374
4.21482 134.528 -0.679527
2.58788 130.804 1.37461
-14.5036 82.3509 3.59531
-9.71483 102.137 15.9923
-7.61025 107.781 14.9994
1.59914 127.853 0.935495
-8.42353 105.61 15.0541
-4.19265 109.52 -2.7414
-16.9121 77.1638 6.82972
-16.1805 78.1922 4.34425
-13.6154 88.8569 11.1714
9.64801 150.15 -1.93222
-16.2462 78.4811 5.21372
0.976983 125.944 -0.182736
-5.03037 107.305 -2.82191
-11.4414 91.0136 1.6385
-3.46576 112.23 -2.55402
9.32744 149.238 -3.00036
-10.807 99.7605 15.8387
4.75758 136.451 -2.06769
9.78258 151.916 -0.369902
-5.30739 107.088 -2.79739
7.219 143.049 -3.62907
5.85589 142.696 3.96432
1.30418 127.982 0.68392
7.89301 145.023 -3.94448
-12.7189 87.9306 1.2606
-14.0938 88.5681 11.0495
9.97385 153.09 -0.181948
3.62851 134.777 -0.0746331
1.10596 127.722 0.415144
-0.484278 128.33 11.3815
4.3557 140.01 6.29697
2.15651 131.325 1.26647
-9.31092 98.0551 0.990726
-16.0602 82.0568 8.49783
-16.7138 78.3247 4.58151
1.09599 128.035 0.494403
-14.6387 87.3148 10.8757
8.71531 150.683 1.61179
-13.8345 89.9987 11.1967
1.92065 134.743 9.18137
-7.44026 110.261 14.7605
7.83862 145.828 -3.82497
-4.2738 111.339 -2.55623
2.3488 135.855 8.66174
-6.35643 113.551 14.8669
-13.5928 86.6862 2.26856
-4.47136 111.048 -2.53488
4.51821 137.617 -1.76841
-13.043 93.3965 12.3568
-1.14666 127.464 11.3727
-8.95087 106.657 15.2162
-9.73219 97.7768 1.15046
5.17955 142.658 4.58584
-6.2002 106.317 -2.71464
-6.5184 105.481 -2.88886
3.89797 136.825 -0.774099
-4.92855 110.6 -2.22629
8.84918 152.304 1.50252
-0.923208 122.614 -1.57582
-2.38644 118.094 -2.28116
-9.30389 106.503 15.2936
-11.8196 92.8268 1.67134
8.46936 151.79 1.76887
9.05285 152.11 -1.14719
-11.2565 94.6555 1.78524
-13.8403 91.6945 11.365
6.86393 144.827 -3.25701
-9.89177 98.232 0.925666
5.83428 142.271 -2.79237
-6.11625 116.013 14.9545
9.03723 153.643 1.50984
7.62744 147.291 -3.34147
-4.1643 121.654 14.7786
-5.42518 110.251 -1.8928
-5.42589 110.274 -1.88743
4.29698 141.748 5.05726
-14.1387 87.1269 1.87669
-5.49994 118.626 15.4404
8.39076 150.194 -3.07038
3.47834 139.975 5.43144
-6.57268 107.356 -2.02623
-15.6034 83.8555 3.64538
-14.0316 87.5023 1.63089
-12.7526 91.074 1.30896
8.14479 152.325 2.7247
-14.4232 90.8574 11.107
-3.88498 115.162 -2.21139
0.767365 134.064 9.16629
8.96011 153.056 -0.96021
-10.0779 105.753 15.698
4.78299 140.303 -2.46853
-10.6683 104.172 15.9152
7.95878 149.218 -3.35659
6.89491 146.297 -3.17489
-5.82624 110.244 -1.57273
-2.52638 119.764 -1.83437
-3.74783 116.201 -1.97052
7.16689 147.458 -3.00841
-2.30154 120.672 -1.62585
-7.96758 103.887 -2.39131
-7.58579 104.822 -2.87665
6.17156 144.839 -2.69033
-18.009 78.4877 5.17949
-4.16532 115.324 -1.88675
-8.34025 111.256 15.162
-7.1697 114.685 15.1884
-13.5334 95.2458 13.0139
-3.20251 125.524 13.6294
-14.1365 92.7664 11.3242
-1.75664 122.889 -0.917513
3.78865 138.83 -1.26465
-0.586112 131.827 10.718
2.27585 137.955 6.06154
-2.08019 127.949 11.5054
-5.15875 112.944 -1.43525
-10.0139 106.909 15.5211
-6.36079 117.328 15.0736
-17.0817 81.1948 3.98416
6.02579 145.294 -2.54153
-2.18754 128.13 11.4933
4.61048 141.483 -2.48462
-6.08116 111.139 -1.22393
8.43533 154.701 1.63497
7.1287 148.793 -2.92363
-7.97512 113.747 15.3366
-16.5313 86.9116 10.8933
-16.8658 82.7187 3.51872
-4.36671 116.724 -1.24332
-18.3534 78.6126 3.71882
-15.7022 89.6283 10.7301
3.65067 139.984 -1.66506
-14.8846 92.2772 11.0568
-16.5336 84.1126 3.74828
4.50101 142.243 -2.44451
-9.10216 111.38 15.5303
5.98775 146.69 -2.42053
-18.401 79.1808 4.27537
-1.95536 130.153 11.2325
-15.4315 90.9449 10.811
-2.40708 128.86 11.1282
8.13259 153.822 -0.838711
4.69043 143.119 -2.38794
-4.432 124.581 14.188
-19.3138 77.3131 5.27593
-10.0892 109.045 15.6261
-6.36256 119.769 15.2788
-13.0075 94.0524 1.51646
-8.1582 106.57 -1.80797
-14.8783 88.4352 0.71389
-4.73336 117.176 -0.738076
-13.5162 92.7007 1.27923
-0.802388 133.42 9.40899
-1.44397 126.944 -0.489774
-11.6936 97.7521 0.440805
-1.5819 131.899 10.5917
-19.122 78.5063 5.135
-11.5714 98.1147 0.26833
-1.54621 126.902 -0.494517
-1.3141 127.652 -0.420007
-19.1837 79.6593 7.42318
5.35145 146.282 -2.28925
-0.664957 130.269 0.596937
-3.66773 121.14 -0.556442
-3.39016 122.251 -0.264278
-14.2538 91.2934 0.796114
-1.56039 132.574 10.1354
-1.03855 129.43 0.0570118
-14.5281 90.5335 0.486592
-8.34881 107.773 -1.18629
7.34511 153.179 -1.48212
5.70264 148.071 -2.21975
-2.11946 126.249 -0.45175
-2.35392 131.048 11.069
-0.401327 135.358 8.03941
-2.22696 126.252 -0.391228
-9.98548 111.503 15.9063
-14.6065 96.6271 12.7395
-5.73797 116.314 -0.108403
-18.0791 85.6204 10.4692
-17.6688 86.9702 10.808
-10.0466 111.54 15.9184
-14.8833 90.2442 0.275308
-3.9942 121.678 -0.0933186
-18.8705 80.8999 4.80841
-20.0487 77.5817 4.99067
-19.8231 78.6157 5.77463
2.3807 140.28 -0.00041347
-17.7124 87.3514 10.8345
-16.2282 91.8138 11.1323
1.59078 138.553 0.572205
-13.9507 100.317 14.8834
-5.91617 116.627 -0.0507326
-1.48974 129.467 -0.0963718
-4.53859 120.682 0.0159814
-17.5768 87.9552 10.7753
0.958721 137.132 1.10222
-19.3036 81.719 8.0355
-7.3335 112.617 -0.423951
-14.5505 98.4591 13.8755
-16.2011 87.9443 1.52008
-12.7617 104.817 15.9969
-8.28281 117.682 15.4114
-7.72783 119.293 15.3656
-0.526404 133.773 1.72997
-13.2998 103.48 15.6517
-16.1301 88.6601 1.4706
-15.3633 95.8311 11.9261
-17.1089 86.1719 2.13603
-19.7963 79.1055 3.60582
-19.4588 82.3389 8.37478
-7.13219 114.006 -0.361818
0.722746 137.558 1.0628
-4.32006 128.51 12.5646
-9.31555 107.553 -1.32855
6.50095 153.268 -1.63332
-1.07012 135.894 7.64291
0.331826 137.011 1.14828
-1.54991 131.311 0.550238
-9.8575 106.093 -1.89899
-18.5358 83.3664 3.24063
-11.7825 101.287 -0.311347
-18.7659 86.167 10.5249
2.85741 143.422 -1.01367
-9.35747 107.919 -1.33828
-11.0427 111.209 16.0013
-19.939 81.8035 8.27156
-4.42695 123.075 0.358244
-4.46537 122.983 0.385684
-1.24255 132.661 1.08112
6.38523 153.649 -1.40763
-15.3793 97.1372 12.5617
-0.175597 138.414 6.15613
-0.654693 137.447 6.80495
6.10402 153.078 -1.67431
-20.948 78.8126 6.85559
-18.8696 83.2522 3.4648
-11.0454 111.834 15.8547
-1.53675 135.674 7.92492
-4.02048 124.991 0.187649
-20.6402 80.5869 8.02947
-0.971543 137.103 6.91667
-17.3734 87.0899 1.34654
1.47361 141.324 0.0691042
-3.77486 126.328 0.467311
-6.35384 125.515 14.5064
-8.72731 111.345 -0.983129
-6.90141 117.15 0.0423297
-7.70492 114.762 -0.173034
-1.7082 132.779 1.077
-7.48559 115.51 -0.0969617
0.00986541 139.686 4.82491
-20.6966 78.7175 2.75991
-12.7266 108.096 16.0441
0.608668 139.542 0.609284
-18.2925 89.481 10.6147
-6.20217 126.196 14.0525
-21.1518 78.1514 4.02079
-7.26766 116.549 -0.0142819
-20.2966 80.7416 4.13436
-9.81689 108.472 -1.58047
-8.57383 112.519 -0.748118
-10.9008 113.525 15.4705
-8.91758 111.564 -1.06376
-4.16728 130.83 10.4804
-8.48128 113.121 -0.611551
-6.84951 118.271 0.225847
-10.2103 115.659 15.2874
-12.1427 102.66 -0.760536
-9.6764 109.489 -1.65965
-1.48625 134.793 1.38415
-9.06747 111.717 -1.12911
-20.4839 81.0695 3.90062
-0.862951 136.691 1.0525
-4.56558 130.58 10.6092
-14.9196 95.6995 0.154263
5.38533 153.973 -1.13432
-6.64363 119.972 0.452768
-12.2585 111.124 16.0583
-6.26255 127.162 13.1476
-3.18251 134.259 9.23015
-15.4312 101.231 14.3119
-22.0316 77.7945 5.06926
-14.4201 104.736 15.3054
-8.93909 120.507 14.975
-20.2463 82.5698 3.82802
-8.9338 113.233 -0.805655
-20.2767 85.552 10.156
-21.9314 78.6747 5.56358
2.16968 145.465 -0.969938
-7.16743 119.041 0.375268
4.45264 151.819 -1.56305
-9.25714 119.96 14.9778
-1.85987 134.956 1.28358
-2.03217 137.053 6.69663
-12.6278 110.826 16.1445
4.72233 152.892 -1.32777
-19.8996 83.869 3.5456
-4.39688 131.888 9.96842
-4.30368 127.801 0.694302
-5.07408 125.791 0.769891
-16.388 92.841 0.363823
1.14587 143.584 -0.12795
-4.00176 133.317 9.70648
-13.0871 102.101 -0.728038
-16.5291 98.5171 12.8059
-14.498 98.0375 -0.860792
-18.587 91.7506 10.7437
-21.1436 83.6866 9.14244
-0.907355 140.326 4.73811
5.11897 155.043 -1.18269
-12.0767 113.251 15.5231
4.20849 152.481 -1.41549
-22.6576 77.3147 4.34612
-5.30351 130.935 11.3678
-11.707 106.201 -1.90907
-16.9796 97.4255 11.8941
-21.8684 78.7359 2.17809
-21.8041 79.2392 2.54726
-13.723 101.081 -0.920111
-13.9973 108.147 15.6241
-3.97345 130.217 0.765785
-11.1509 116.318 15.313
-7.48865 119.939 0.391807
-11.675 114.968 15.4785
-4.43557 129.087 0.672214
-21.899 79.8295 3.54135
-17.8847 90.3274 1.02772
-6.77422 128.137 12.5012
-9.37993 114.359 -0.835997
-15.2601 97.5824 -0.646153
0.969149 144.881 -0.332736
-20.7182 86.8446 9.9108
-22.7127 77.8096 2.92539
-5.26393 131.839 10.1053
-18.9121 92.4308 10.4201
-10.5718 118.817 15.0412
-5.32298 131.788 10.2674
-2.62083 137.702 6.15994
-23.1618 77.6423 5.00468
-11.3536 108.618 -1.97887
-4.30016 130.425 0.824993
-2.07506 137.021 0.744569
3.86527 153.475 -1.13492
-15.697 104.22 14.6146
-6.59918 123.901 0.264135
-9.95593 121.068 14.8059
-6.98958 128.495 12.2571
-20.6721 87.7921 10.0032
-2.28785 136.846 0.749384
-7.67422 120.95 -0.106317
-13.3977 103.825 -1.30592
-18.645 90.0923 1.82247
-19.0195 89.1782 2.01067
-23.4806 77.8561 5.42687
-15.1702 106.466 14.7734
-11.0037 110.566 -2.21471
-12.0211 116.094 15.666
-21.6344 82.3876 3.20374
-8.73047 118.197 -0.269398
-22.3186 80.5631 3.35976
-4.01844 132.589 0.982561
-15.2819 106.4 14.6509
-17.7801 92.238 -0.0984025
-19.6376 91.7723 10.3228
-14.8761 107.985 15.2913
-17.0054 94.5278 -0.427433
2.18981 149.67 -1.5028
-19.4024 92.7158 10.1448
-7.39276 122.687 -0.252968
-8.42687 119.842 -0.127263
-10.6986 112.474 -1.94991
2.88568 152.287 -1.06424
-22.132 84.5725 9.14308
-7.968 127.509 13.0008
-18.6918 95.5539 10.9668
-13.4642 113.093 15.8751
-15.3209 107.155 14.622
-17.9392 92.6626 -0.173986
-14.3512 102.684 -1.32741
-20.18 91.2698 10.1862
-23.8914 78.1716 5.21374
-13.4246 105.205 -2.05696
-9.00429 125.824 14.4975
-23.5485 77.9548 2.35564
-12.5047 116.39 15.8685
-3.65489 134.894 0.671195
-24.1889 76.7357 3.55492
-12.3061 108.711 -1.83663
-18.1519 92.6148 -0.0829561
-15.161 108.422 14.9542
-7.3126 129.628 11.5765
-13.2288 114.585 15.9339
-13.3639 114.238 15.8991
-20.3794 91.2351 10.0975
-12.183 117.772 15.7483
-2.09 139.792 0.154522
-18.8736 91.3551 0.598364
-20.3665 87.6948 1.96848
-15.2412 108.741 14.9662
-2.01052 142.458 5.12114
-7.83917 122.843 -0.705571
-9.05163 126.55 14.4325
-12.2592 109.546 -2.13882
-13.6832 105.455 -2.16568
-7.88657 129.001 12.0716
-0.135227 145.546 -0.530947
-23.2473 82.6574 8.19238
-18.2068 93.3738 -0.310374
-23.6849 80.9712 7.0702
-3.67958 135.894 0.422649
-0.261226 145.408 -0.516512
-17.1752 96.5295 -0.521292
-13.0639 116.138 15.7369
-22.0665 86.9439 8.9669
-15.4508 101.331 -1.59075
-16.0858 106.659 13.6005
-23.6793 79.0232 1.6464
-19.0069 92.0072 0.412673
-4.67901 133.478 0.156393
-0.612584 145.027 -0.449126
-5.3654 131.509 0.0105064
-6.23565 133.442 9.34441
-24.8325 76.7672 3.4399
-10.4719 116.19 -1.24928
-3.89892 139.147 6.98559
-9.48991 126.574 14.3741
-13.3103 108.099 -1.63688
-5.88871 134.531 8.78677
-21.1485 90.7164 9.58692
-24.497 78.0992 3.33117
1.19041 150.51 -1.18411
-3.37383 140.807 6.29125
-14.7996 104.086 -1.53833
-22.6396 86.2472 8.70024
-8.20898 123.443 -1.17668
-19.5202 96.1558 10.4833
-16.0962 100.442 -1.51914
-12.6143 118.775 15.7804
-13.6259 107.503 -1.95619
-0.306308 146.898 -0.526121
-4.7396 137.92 7.41187
-24.7768 78.9052 5.3538
-13.4016 108.595 -1.82624
-5.87741 131.047 -0.469095
-6.0047 130.664 -0.524723
-16.0923 108.282 13.9366
-17.0147 105.33 12.9078
-8.70088 122.716 -1.36856
-13.9254 115.466 15.3362
-13.4965 116.75 15.4097
-11.1514 123.49 15.1944
-24.0789 79.6855 1.67015
-17.7511 97.139 -0.373545
-9.68496 127.063 13.4697
-1.88407 143.297 -0.518951
-23.4606 82.4344 2.96274
0.0883837 149.014 -0.723951
-21.4828 91.1428 9.00945
-17.5768 104.138 12.4776
-19.0496 93.8671 -0.280591
-24.2682 79.7 1.59756
-6.31987 134.906 8.28739
-5.04323 134.68 -0.310276
-23.9418 83.8263 8.01015
-20.0079 96.2287 10.0314
-14.2105 107.331 -2.12696
-6.67034 134.372 8.70791
-24.0686 83.564 7.89265
-18.7101 95.2489 -0.387182
-4.35638 136.912 -0.606432
-18.8855 100.377 11.2094
-17.9732 97.6534 -0.402443
-10.4451 119.072 -1.29706
-18.0627 103.24 11.8413
-11.4193 124.05 15.1208
-8.47675 124.898 -1.31176
-7.55286 133.006 9.77766
-16.2657 109.882 14.1442
-16.5714 108.788 13.5871
-18.6465 101.524 10.6904
-24.6762 79.8144 1.60894
-5.92133 133.101 -0.88039
-2.73543 142.392 -0.775303
-25.3427 78.9429 3.61009
-13.628 118.561 15.3555
-19.774 93.5793 0.00886634
-25.5278 79.2795 5.00809
-25.7298 77.7699 3.03602
-14.0434 109.217 -2.1483
-20.1823 92.7663 0.496288
-1.75125 145.587 -0.929475
-7.07192 129.969 -1.39661
-13.7015 118.652 15.3149
-25.2768 78.8505 2.03437
-19.4702 94.586 -0.305793
-17.8449 104.928 11.6189
-20.2144 92.8231 0.484695
-24.2157 82.3475 2.59484
-15.4561 112.982 13.6558
-21.1349 94.5645 9.41915
-10.7935 119.518 -1.28449
-19.2628 100.575 10.5543
-5.33207 139.352 6.96289
-4.02779 142.682 5.95643
-16.0582 104.081 -2.02306
-4.29691 138.687 -1.09261
-5.02109 136.566 -1.29399
-7.29069 134.671 8.55771
-10.2738 128.038 12.819
-1.63812 146.601 -1.11038
-21.9385 92.2718 8.45242
-5.42829 139.43 6.90427
-17.2186 108.076 12.8759
-16.3045 111.094 13.5861
-19.3354 100.777 10.272
-8.38809 127.069 -1.30391
-22.1412 91.6241 8.07642
-15.5079 105.868 -2.52781
-22.0929 89.4237 3.03875
-20.2109 98.3308 10.3435
-4.61805 138.068 -1.42092
-7.89143 133.706 9.45662
-20.4895 92.9864 0.520457
-5.13236 140.477 6.66448
-5.67402 139.175 6.95919
-3.22365 145.416 5.10831
-14.8469 116.284 14.6287
-5.29323 136.373 -1.5281
-14.7688 108.795 -1.77725
-24.5252 83.2819 4.03441
-7.97147 133.917 9.43601
-6.01404 138.614 7.34435
-24.8299 82.89 4.6285
-25.0436 81.4992 2.95258
-18.004 99.8848 -1.35388
-13.8671 111.26 -2.75246
-22.5862 90.7439 7.33326
-19.4201 101.201 9.77467
-10.1429 122.677 -1.73959
-17.1677 109.509 13.1378
-8.29654 133.747 9.69002
-15.7648 113.609 12.8366
-4.10781 140.85 -1.39841
-0.746388 150.831 -1.39472
-12.1483 124.912 13.6239
-16.5576 111.683 12.6166
-20.3909 99.1106 9.44745
-14.8787 117.294 14.073
-20.0718 99.9305 9.12524
-7.15818 137.113 8.498
-10.6213 129.03 12.4168
-15.1036 109.272 -2.0561
-22.9939 88.8821 3.13671
-21.7121 91.997 1.80852
-15.0101 109.53 -2.25251
-23.1472 90.1704 6.66095
-24.568 84.6339 3.56455
-26.4733 78.6141 2.44488
-25.9847 80.7527 3.78296
-6.96802 137.864 7.91635
-1.6437 148.89 -1.61871
-18.335 106.665 11.4318
-10.5509 129.556 12.0481
-19.0637 103.861 9.87437
-4.17177 144.89 5.10731
-19.044 104.072 9.93145
-15.0161 117.462 13.5115
-22.5521 90.5045 2.61536
-15.3153 116.1 12.3954
-21.5267 96.5577 9.04143
-20.0985 100.389 8.38443
-1.57882 149.349 -1.66835
-5.25941 138.492 -2.07861
-26.6082 79.1339 3.19942
-9.68811 125.515 -2.48921
-26.6533 79.2412 3.67931
-20.0693 100.579 8.44678
-6.33051 139.587 6.68949
-12.5302 124.767 13.3707
-15.8387 114.818 12.4549
-20.2614 100.017 8.18356
-22.3858 93.8502 8.0457
-26.3307 80.3401 3.47301
-20.4084 99.6866 8.069
-18.0775 101.718 -1.9645
-17.4026 103.645 -2.23802
-7.22289 138.075 7.73079
-1.95835 148.891 -1.77237
-7.7583 136.979 8.60418
-5.5752 142.389 6.5191
-17.7011 109.779 11.8445
-24.6669 85.4555 2.91474
-14.1892 113.069 -3.06127
-4.70543 144.601 5.46136
-13.872 114.057 -2.99664
-17.2199 111.159 11.3241
-21.3745 97.7161 8.34961
-25.545 84.419 5.41954
-2.47525 147.978 -1.78598
-10.0996 125.608 -2.72201
-3.85074 144.195 -1.75419
-20.9906 98.8682 7.47416
-15.0947 118.964 13.8499
-25.4106 85.5114 6.30316
-4.45559 145.745 5.09457
-8.38678 130.786 -2.68801
-23.8596 88.6555 3.0353
-5.64624 143.054 6.33251
-4.49458 145.819 5.10157
-10.6525 130.809 10.9582
-22.4591 95.1399 7.3936
-9.55646 128.166 -2.42056
-20.2328 102.551 8.84045
-7.99254 132.664 -2.6724
-7.41425 134.162 -3.05561
-16.2004 109.214 -2.01126
-6.07308 138.307 -2.70675
-20.8856 100.414 7.84964
-11.2733 130.062 11.2689
-25.5658 85.3206 4.09621
-7.03064 135.669 -3.12625
-12.5714 126.533 11.4033
-9.62676 134.597 10.2671
-3.31232 147.199 -1.95265
-13.7456 116.619 -3.16815
-9.98164 134.054 10.5204
-2.27733 150.603 -2.07299
-23.5016 92.9848 6.0943
-17.5169 112.138 9.86558
-23.0212 94.5073 6.28801
-5.21728 145.734 5.27857
-23.7677 90.6453 2.35148
-23.9766 90.1633 2.4128
-16.6836 115.197 10.3674
-7.56925 140.082 7.04505
-14.285 115.871 -3.39721
-25.4409 86.8774 3.55882
-18.9065 108.96 10.2177
-12.0443 123.122 -2.07373
-15.5488 112.356 -3.37793
-16.0866 118.397 12.6047
-15.7166 120.144 13.8561
-16.0189 111.36 -3.1484
-10.8007 133.162 10.9524
-8.42596 133.182 -3.74848
-18.3046 110.674 8.90632
-10.9006 133.103 10.9543
-21.6926 100.304 7.35166
-21.0881 102.488 8.17632
-21.9656 96.0752 -0.15431
-16.1551 119.13 12.9236
-22.9495 95.6927 4.84167
-7.73225 135.594 -4.15385
-7.25852 137.274 -3.72998
-17.2349 114.525 9.34406
-24.5047 91.3597 4.86868
-24.121 91.2949 2.26382
-13.3182 120.192 -2.89284
-5.42665 146.977 4.97784
-23.5833 93.8525 3.89708
-6.0515 145.509 5.45407
-21.6366 101.317 7.54747
-19.5418 103.097 -1.73664
-14.0491 118.285 -3.30023
-16.5416 118.475 12.3873
-2.97793 150.937 -2.22936
-20.7609 104.756 9.02431
-24.0787 92.6947 3.59339
-7.84148 136.012 -4.3809
-8.88943 139.06 8.41478
-16.3008 112.115 -3.35091
-16.6106 111.713 -3.24137
-14.4108 125.552 12.3915
-13.774 126.854 10.8397
-25.2745 89.7576 2.67124
-24.6081 91.4824 2.18369
-22.0925 101.192 7.22926
-11.5979 126.625 -3.42742
-14.0801 126.406 11.266
-16.9632 111.368 -3.14426
-22.4275 100.252 6.84009
-14.6875 117.899 -3.3926
-11.4144 127.502 -3.47964
-7.27802 143.967 5.92505
-25.0597 90.9558 2.73108
-21.1308 105.078 8.35933
-19.9641 108.548 8.51367
-17.9501 109.341 -2.22034
-15.8142 122.717 12.7585
-22.0355 102.152 7.36231
-17.9878 109.397 -2.22893
-4.56212 148.166 -2.61316
-13.0132 123.744 -2.46468
-7.02911 140.398 -4.23472
-24.1096 94.5461 3.52141
-17.386 117.715 11.3274
-5.30507 145.908 -3.17729
-13.1004 123.856 -2.56263
-9.75793 138.949 8.85016
-6.40439 146.984 5.17927
-17.9857 115.089 8.724
-13.9533 127.621 10.2744
-24.4255 93.893 3.09265
-18.2572 114.406 8.57715
-15.8006 123.576 12.8955
-11.2621 135.47 10.2032
-6.52659 146.925 5.23478
-6.01177 148.279 4.92565
-3.7433 151.44 -2.34084
-25.3391 91.0597 2.25933
-5.32637 146.543 -3.26534
-4.53118 149.22 -2.60762
-20.008 104.931 -1.434
-17.8927 116.83 10.3926
-15.5793 124.783 12.8071
-21.2346 106.355 7.85867
-20.4252 108.449 7.31034
-17.08 120.596 12.3973
-16.0761 123.615 12.548
-19.7159 110.628 7.1542
-22.7874 101.329 6.24353
-16.9967 113.802 -3.34533
-5.87749 145.902 -3.73333
-3.43031 153.934 -1.87982
-4.9086 149.387 -2.92476
-20.8664 103.905 -1.29023
-17.436 120.191 11.996
-21.3193 106.721 7.10733
-17.0528 121.417 11.922
-14.7264 121 -3.58263
-14.7219 121.037 -3.58712
-23.2111 98.2099 0.0846425
-13.8413 130.144 10.0847
-24.152 95.9552 0.957879
-20.1062 110.626 6.8708
-16.3724 124.055 12.346
-18.5542 116.452 9.5127
-21.5322 106.551 6.74123
-19.9587 107.252 -1.80007
-6.45024 145.335 -4.17816
-20.0872 106.955 -1.80448
-11.6362 137.418 10.8362
-16.9749 115.512 -3.09242
-20.5845 109.39 5.79253
-14.1888 130.074 10.2844
-6.31885 146.083 -4.16217
-11.565 138.065 10.5419
-22.1762 105.15 5.71844
-18.1023 119.015 10.0022
-9.36417 143.259 7.69126
-9.62225 142.668 7.98595
-15.7307 126.436 11.0394
-22.2059 105.059 5.39865
-12.0076 137.337 10.9652
-23.8182 100.436 4.89843
-5.30187 150.509 -2.94432
-10.9943 132.72 -5.70312
-24.4622 98.2308 3.87126
-10.0084 135.961 -5.09628
-14.6699 123.394 -3.1426
-14.6426 129.931 10.4477
-7.16449 149.308 5.35082
-24.7564 97.2477 2.92665
-10.8304 133.678 -5.47682
-14.925 129.891 11.5991
-10.6375 134.407 -5.37261
-18.4027 119.058 9.79701
-24.3723 97.8778 1.47779
-16.3228 125.88 11.2919
-17.7466 121.599 10.9486
-22.4471 104.967 4.49337
-11.4235 132.427 -5.19957
-19.9844 109.132 -2.13897
-12.8125 136.285 11.2933
-19.3561 115.843 8.09364
-6.09996 148.645 -3.9374
-15.0129 129.526 10.204
-23.6033 101.996 4.61147
-15.0878 129.432 10.3641
-11.0278 140.572 8.97028
-9.72797 143.846 7.76968
-19.4213 110.808 -2.78772
-22.865 102.564 0.595353
-15.8649 128.303 11.9439
-16.8627 118.587 -2.99876
-22.2154 106.514 4.30787
-22.3048 106.045 3.75277
-23.308 101.615 0.42908
-8.45309 142.15 -5.00324
-13.4532 135.564 11.56
-10.085 137.733 -4.60209
-7.44436 150.104 5.25481
-15.2198 123.512 -3.46406
-5.41932 152.364 -2.66794
-24.4243 99.4761 1.94757
-10.665 136.406 -4.59103
-18.4854 120.866 10.5279
-19.7543 111.003 -2.67433
-12.2647 139.184 11.0123
-10.0845 144.074 7.92984
-22.012 108.002 4.37421
-8.71869 142.201 -5.02687
-9.64034 139.621 -4.94943
-14.0085 127.337 -4.27881
-21.2941 111.295 6.39697
-20.3221 110.03 -2.293
-6.02225 151.204 -3.04903
-13.111 129.745 -5.19
-18.5107 121.385 10.127
-11.3148 141.795 8.94524
-16.4726 121.387 -2.98685
-24.0803 101.88 2.15199
-16.7722 128.144 12.5768
-15.2464 125.035 -3.44912
-7.76265 150.442 4.42668
-12.0132 134.177 -4.0584
-11.9508 141.139 9.63055
-24.1973 102.465 2.63192
-11.9237 141.323 9.56883
-7.11236 149.008 -3.73932
-17.0791 127.397 11.6399
-23.2189 105.634 3.05494
-10.1712 139.824 -4.70122
-9.1791 143.231 -3.91267
-17.5588 119.529 -2.72188
-16.937 127.612 10.5337
-17.365 127.073 11.8403
-24.1635 102.939 2.404
-16.0702 130.716 11.2918
-18.4428 123.077 9.58958
-10.212 140.503 -4.53176
-7.81493 151.2 3.36335
-17.5898 126.949 11.9493
-8.17872 146.593 -4.26515
-14.6995 128.326 -3.29214
-8.16249 146.866 -4.18153
-8.84737 144.845 -4.31201
-22.8341 108.055 3.64215
-17.6226 127.545 12.7308
-15.235 126.819 -3.51364
-18.4817 123.642 9.7214
-8.04278 150.947 3.40045
-13.3303 132.816 -2.5892
-22.8273 108.331 3.73061
-18.4556 123.911 9.89652
-21.7685 112.589 6.15034
-9.26016 144.173 -3.80381
-15.0495 127.628 -3.49874
-13.6665 131.375 -4.06917
-17.7542 126.992 11.5496
-8.61898 146.108 -4.33958
-16.3205 131.352 11.7054
-14.7593 128.227 -4.70484
-22.4592 110.498 5.03768
-14.1562 137.512 10.998
-20.252 118.6 8.1167
-14.4593 129.146 -5.22534
-22.503 110.81 5.08669
-16.3576 124.385 -3.93712
-22.8421 107.771 0.489712
-23.4638 107.135 2.6518
-7.73344 152.19 1.34835
-19.8252 120.206 7.80086
-9.92721 148.633 6.81156
-13.9027 133.063 -1.77966
-11.1354 140.148 -3.78144
-16.136 126.151 -3.04178
-13.2096 134.727 -2.88796
-18.3036 126.757 11.2789
-23.627 107.186 2.49172
-23.2004 109.049 3.64953
-8.12691 149.363 -3.53056
-8.91679 150.331 3.17524
-18.6545 126.276 11.9179
-18.385 126.73 11.1782
-23.8465 106.586 2.01324
-7.44866 152.053 -2.52566
-18.4631 126.622 11.2652
-9.30201 149.859 4.12985
-10.2811 148.429 6.9653
-19.9102 116.035 -2.62796
-17.9638 122.494 -0.947748
-18.8456 122.197 3.62554
-15.5833 135.491 11.6866
-19.3274 123.621 9.38732
-15.5864 128.011 -4.3699
-16.2178 127.039 -2.78887
-23.2511 108.806 1.6851
-13.5985 134.831 -2.48929
-19.0557 125.237 10.6617
-17.9084 124.499 2.02905
-19.2035 121.915 4.39824
-13.2291 135.881 -2.75503
-21.2604 117.127 6.76013
-17.0395 124.556 -3.49334
-10.7612 143.162 -2.65424
-9.42703 150.024 3.51636
-16.6779 126.229 -2.44393
-7.91919 152.31 -1.11131
-7.77563 152.565 -1.50781
-17.7223 130.507 12.8449
-17.8357 123.756 -0.874832
-19.3886 123.778 8.58537
-19.354 121.863 4.15748
-17.9918 123.39 -1.05022
-19.1344 126.412 12.353
-22.8176 111.821 3.98845
-14.6143 133.222 -1.09116
-21.5073 116.64 6.05204
-18.9502 126.401 10.7483
-23.3198 109.727 2.06195
-17.1534 125.459 -2.537
-19.3626 120.657 0.847753
-18.2886 124.058 1.30727
-18.926 123.023 2.98316
-22.9071 111.868 3.60379
-19.5197 122.256 4.78121
-19.1875 121.917 1.93738
-19.6367 122.203 5.27668
-16.8375 133.127 11.1854
-19.1125 126.159 10.3791
-11.7472 146.561 8.30651
-19.4308 122.176 3.76066
-19.4739 119.091 -2.57852
-12.9723 137.729 -3.03022
-19.6436 124.245 9.3883
-16.869 133.154 11.1722
-17.5147 125.451 -1.27547
-19.5682 125.914 12.2347
-19.343 121.669 1.8106
-8.87959 151.125 -0.0532716
-17.8287 124.488 -1.64654
-19.8754 123.41 8.64924
-22.5451 111.596 -0.0357758
-23.2483 110.305 1.30347
-17.8351 124.48 -1.94984
-19.9462 121.152 3.89044
-15.9388 136.571 11.6287
-12.4083 140.294 -2.28251
-8.6391 151.17 -2.57466
-18.9809 123.352 1.94606
-20.0275 119.252 -0.335024
-18.8458 121.55 -2.88464
-10.6639 149.318 5.6818
-22.517 112.263 -0.0928187
-20.2419 123.041 8.77739
-21.6588 117.602 5.85683
-20.3635 119.311 1.4488
-21.7138 115.856 2.3932
-19.1771 123.046 1.96702
-20.0019 122.316 5.46798
-17.0705 127.417 -1.74944
-17.42 126.317 -1.94734
-18.6429 123.337 -0.811282
-19.3234 124.014 4.77965
-19.4808 122.963 3.36563
-17.923 124.978 -1.96851
-20.0975 121.29 3.4844
-21.0233 118.39 3.02233
-19.3979 123.887 4.60206
-18.3997 125.516 1.91453
-19.3976 123.632 4.03805
-19.0368 129.074 13.356
-20.7309 120.336 5.198
-20.1455 121.846 4.76992
-13.3188 138.054 -2.84074
-18.833 122.159 -2.69498
-21.7193 117.798 5.79318
-13.2082 138.431 -2.91536
-21.6617 118.367 6.47425
-21.0137 119.834 5.55492
-20.2275 123.345 8.06054
-17.3012 127.755 -0.627797
-19.4925 122.957 2.59349
-9.98122 147.739 -3.36246
-20.7218 120.654 5.2119
-22.177 113.701 -0.640397
-17.5077 132.944 11.4632
-18.7817 123.443 -0.885778
-21.4986 116.947 2.03467
-20.3644 123.364 8.63842
-23.0479 112.114 1.1561
-19.6111 123.009 3.09924
-18.6559 125.193 1.80102
-19.6131 120.54 -2.19501
-13.403 138.272 -2.86978
-17.2382 128.565 0.0208954
-20.5358 122.26 6.86785
-13.404 138.37 -2.85516
-19.8786 125.656 9.87939
-20.2523 121.1 2.44624
-19.6633 123.246 3.35525
-21.4701 117.348 1.87761
-20.5889 123.342 9.13476
-21.8849 115.963 1.44039
-17.7648 127.006 -0.47299
-19.5018 128.426 13.1785
-20.5141 123.033 7.81212
-20.2812 122.448 5.0725
-21.7029 115.455 -1.10919
-18.9209 123.647 -0.842003
-21.116 120.775 6.47759
-19.5537 127.868 11.7796
-14.5365 141.888 10.4817
-15.189 140.14 10.7185
-9.32187 151.162 -1.98849
-20.1808 121.797 2.27995
-9.89075 149.311 -2.65517
-20.4614 123.403 7.35641
-20.7542 123.234 8.7246
-20.7058 122.105 5.8666
-19.649 123.197 1.68082
-20.688 122.454 6.27268
-13.4508 139.46 -2.18849
-17.1246 129.939 0.0762312
-21.0774 117.632 -1.7357
-20.0837 122.038 1.49778
-18.2132 127.156 0.805752
-20.6986 125.228 11.9166
-19.8946 122.676 1.54667
-20.1655 122.104 1.92453
-20.701 124.24 9.65546
-18.507 126.938 1.86897
-20.5128 123.067 5.92413
-14.1331 143.681 10.3866
-20.8153 121.903 5.26893
-16.3644 132.347 -0.00995597
-20.5326 123.143 5.89085
-18.141 128.393 2.26906
-20.6806 125.221 11.0423
-18.9467 125.07 -0.238884
-23.0866 114.568 2.9107
-11.4869 146.186 -1.39701
-20.9685 125.173 12.2331
-10.523 148.471 -2.72672
-17.563 134.351 10.6175
-17.207 135.454 10.6412
-12.8196 142.828 -0.78829
-20.3697 122.152 1.49227
-11.3851 149.71 4.57467
-12.6651 144.018 0.159329
-21.3401 123.082 9.03053
-19.2475 125.811 1.7372
-21.3225 124.806 12.2645
-19.0754 131.379 12.3722
-20.6638 124.355 7.18946
-12.6711 147.851 7.7451
-14.6428 138.688 0.345285
-15.3261 136.904 0.746167
-16.0603 134.745 0.657686
-20.9057 122.434 4.20137
-18.2763 128.614 1.04418
-17.1231 136.748 11.1689
-13.6434 141.092 -1.23342
-13.7 140.921 -1.2689
-13.6042 141.9 0.166195
-14.857 143.282 10.4465
-20.9985 121.406 1.76274
-21.6963 121.768 6.74018
-20.7772 122.842 3.21933
-17.0212 132.614 0.822944
-17.0928 132.528 1.03239
-18.4829 129.243 2.50001
-13.6145 142.315 0.281004
-13.1887 144.276 1.60468
-18.4236 129.519 2.39987
-21.537 123.368 8.35974
-10.9156 149.273 -2.10001
-13.749 142.742 1.14536
-14.8256 138.59 -1.0925
-11.0592 150.454 0.697177
-13.8006 142.973 1.53407
-21.3022 126.782 13.2181
-16.9421 138.685 11.4454
-21.0457 123.232 3.87662
-21.445 124.052 8.01744
-15.3777 137.548 -0.922348
-21.9776 124.152 11.1395
-12.3582 146.918 0.0167562
-11.2167 149.508 -1.62265
-20.2121 124.542 0.690505
-20.5794 129.116 12.5733
-21.8917 123.541 8.78922
-15.7877 136.807 -0.635368
-12.2336 149.736 4.64912
-18.3073 129.91 -0.0900153
-21.5325 126.134 11.3695
-21.4343 126.134 10.7624
-21.2866 122.106 1.23243
-20.8931 123.376 1.29091
-13.5757 147.741 7.8519
-22.3181 124.158 11.5564
-16.9045 134.766 0.72454
-11.6782 149.413 -0.515823
-16.8434 139.921 10.9457
-21.875 123.059 5.6063
-21.9071 124.411 8.00297
-21.377 128.125 12.5038
-22.1715 121.432 3.07988
-21.5889 121.825 0.286999
-22.4083 123.513 8.86946
-22.3028 121.487 3.67995
-18.0049 132.497 0.567792
-21.536 124.859 5.6408
-12.7464 148.904 2.54767
-21.6705 122.848 1.96555
-20.1636 126.93 1.2571
-12.9376 148.174 1.43569
-19.4128 133.908 10.5601
-23.3231 122.807 10.2368
-18.6353 131.74 0.327288
-22.0053 121.974 0.253984
-14.6293 147.185 8.28583
-22.2286 127.544 13.1367
-15.0632 146.404 8.97989
-23.0003 123.999 10.1042
-14.0834 147.106 3.9379
-14.25 148.114 7.01953
-19.5145 134.572 10.5782
-20.3273 132.542 11.0323
-21.4707 129.613 11.7434
-20.1508 133.032 10.7886
-24.6967 120.241 11.4251
-18.236 133.708 0.118198
-22.7718 126.726 13.136
-22.6631 124.61 7.93926
-20.7067 131.861 11.1981
-17.1013 141.87 10.2359
-14.579 146.718 4.65798
-18.2509 134.174 0.446436
-15.0253 145.065 3.51199
-21.0836 126.128 0.488909
-18.6943 138.244 11.2479
-14.7909 146.412 4.46536
-19.637 135.522 10.5368
-23.9299 121.981 7.91854
-18.8726 132.951 -0.112492
-17.8329 140.912 10.3167
-17.5974 141.524 10.1409
-20.8726 132.496 10.7715
-18.2665 135.913 1.44718
-15.2012 147.021 5.10486
-23.9071 124.221 9.52896
-19.3052 133.236 0.0767551
-22.9059 122.995 0.43588
-19.1305 133.645 -0.226129
-21.0117 128.768 0.904239
-18.0307 141.672 9.94972
-16.8934 141.538 2.5997
-24.0678 123.738 8.83703
-20.0913 131.711 0.817914
-20.4108 130.438 -0.21465
-23.7413 127.291 13.5853
-19.5509 133.297 0.257939
-23.8247 122.384 2.56717
-24.4858 124.75 11.6561
-21.2159 128.943 0.344153
-19.1009 140.099 10.7868
-19.2836 135.501 1.25334
-16.9202 143.316 3.24053
-22.966 129.877 11.8112
-22.7398 125.948 1.81621
-20.8255 130.869 0.1249
-24.183 122.332 2.61589
-18.9279 137.579 1.89447
-20.1904 138.933 10.9653
-20.4188 133.861 0.765022
-18.6379 140.23 3.12838
-26.3774 122.601 13.2712
-19.6193 137.446 2.56405
-24.637 122.987 2.64396
-24.0756 124.792 2.83667
-25.7677 124.321 12.1276
-26.6938 122.433 13.7531
-17.6732 144.275 4.24376
-23.3008 127.139 2.25924
-19.9817 137.524 3.18733
-22.3442 129.196 -0.0374341
-25.4134 123.089 5.39773
-23.3086 127.477 1.66442
-17.8132 145.199 5.41961
-23.2389 127.569 1.23558
-27.0634 121.865 12.4469
-21.5281 132.659 1.17944
-25.5467 123.214 5.80519
-26.4066 124.275 13.0497
-20.9657 138.918 10.6466
-26.4916 124.372 13.3259
-24.7641 124.131 1.83591
-26.7063 124.311 14.0907
-23.5078 127.849 1.61759
-19.4921 141.04 4.1644
-27.4581 122.451 13.0183
-26.8078 125.052 14.4315
-20.7491 140.473 9.76254
-22.7885 134.794 10.2444
-22.7349 130.326 0.427205
-22.661 131.684 2.34858
-26.7247 122.37 7.42618
-24.4049 127.159 2.7346
-20.2102 140.396 4.85848
-21.4525 139.355 10.1428
-25.1348 129.887 12.5912
-26.4167 122.18 4.07974
-26.7031 123.129 7.7122
-20.342 140.632 5.65121
-20.3279 140.709 5.69311
-20.8705 139.268 5.4918
-27.6326 123.656 13.8201
-23.4218 130.494 2.26673
-23.1504 132.069 3.23889
-27.0817 123.491 8.82448
-20.9068 140.222 6.23191
-21.4785 140.346 9.1396
-24.7045 131.995 11.2503
-26.3317 123.908 3.86798
-22.3185 134.79 2.08017
-23.7341 131.517 3.83727
-22.465 138.429 10.0129
-21.88 138.227 5.87386
-23.965 131.638 4.18696
-22.8708 134.77 3.55782
-24.4492 130.865 4.77493
-22.1006 138.506 6.49737
-22.5888 135.804 3.36705
-27.223 127.097 12.9557
-23.3335 137.29 10.1378
-28.6758 123.232 13.1548
-23.9324 133.545 5.71677
-23.506 135.582 7.03187
-23.0395 136.742 6.3754
-27.4227 123.775 5.47949
-23.0706 137.499 7.48007
-25.6522 128.783 4.68876
-25.9309 131.162 11.2399
-24.1413 134.349 6.883
-23.2683 137.699 8.46607
-26.8224 129.17 11.9856
-28.1299 124.473 9.77698
-25.7818 129.984 6.43487
-29.0202 121.995 9.21716
-24.3303 135.396 8.65359
-29.1668 122.834 11.6819
-28.566 125.282 12.9701
-24.3886 135.727 9.37721
-27.6119 124.673 5.69362
-25.0012 133.621 7.64112
-26.4788 129.689 8.27964
-27.5144 128.272 11.3798
-28.738 124.569 10.9042
-27.6594 127.979 11.4551
-25.4814 133.851 10.0027
-28.8998 124.753 11.2927
-27.5487 128.56 11.0052
-25.3414 133.673 8.25621
-28.8408 124.899 11.0946
-29.4914 123.06 11.0798
-26.9121 130.039 9.40967
-26.6983 130.82 9.61151
-25.493 134.343 9.61339
-27.3227 129.206 9.61034
-28.2559 127.106 10.549
-28.0579 126.347 7.0541
-28.3512 126.655 9.30611
-28.1829 127.536 10.0658
-28.0295 127.28 8.09305
-27.9383 127.192 7.27571
