ply
format ascii 1.0
comment Created by Open3D
element vertex 1513
property double x
property double y
property double z
end_header
7.19611 77.5702 -8.94252
9.32143 124.897 -15.6551
6.84931 127.053 -13.7404
21.4787 83.952 -21.9101
0.208091 132.814 -8.57216
-15.5486 136.938 4.61236
20.2844 88.3695 -21.3072
-11.8741 100.101 5.25041
-8.55074 90.1255 3.41736
-2.67409 84.9583 -1.10323
-15.5323 143.721 3.96673
11.6842 120.962 -17.1773
3.01222 130.413 -10.651
-9.75953 90.514 4.49693
-1.65322 133.677 -6.94559
12.0188 124.344 -17.7828
7.62077 131.19 -14.6693
5.41483 78.5831 -7.3258
-14.7403 129.133 4.86304
22.564 80.0091 -22.2767
19.3499 90.4856 -20.5773
-14.7968 114.108 6.50248
10.904 121.017 -16.3958
-9.37662 91.7033 4.16571
16.1949 110.179 -19.8177
7.23817 131.636 -14.2832
6.05711 130.106 -13.0773
13.3035 118.281 -18.0957
11.2952 125.106 -17.0549
-2.61662 85.1056 -0.910362
3.94673 129.526 -11.1527
-14.2505 135.1 3.98578
2.55328 81.0913 -4.90324
11.4292 122.903 -16.871
-13.8858 138.266 3.41881
9.44834 130.215 -15.8786
-10.9904 95.8619 5.32319
-10.2152 92.8637 4.96334
-7.09486 90.1922 2.54584
-14.0139 134.02 4.00639
-13.0304 151.49 1.35954
2.27879 81.3937 -4.61296
12.0924 124.558 -17.5401
-7.42238 88.3353 3.05748
-12.2128 108.912 5.07558
3.9944 129.675 -11.0336
10.8414 128.692 -16.8258
-13.0441 151.475 1.4529
-13.1412 111.133 5.7001
-11.4125 105.476 4.79171
6.64156 126.938 -12.9973
-14.4054 142.246 3.61446
-11.0545 104.315 4.63867
22.8499 79.4233 -22.0549
5.54566 133.495 -12.684
-6.53462 90.103 2.22842
7.93151 77.9428 -8.99416
1.0085 132.924 -8.63575
-14.8458 146.852 3.62557
11.2078 128.491 -16.949
-10.8885 103.938 4.68068
21.2805 85.2856 -21.1692
-10.983 102.445 4.93568
-15.6239 124.945 6.62167
-14.382 127.641 5.2735
-14.4623 118.114 6.34709
-4.34418 85.486 0.997184
23.0197 79.0093 -21.9584
-5.3402 148.693 -4.65667
-4.74084 87.9753 1.09963
5.44629 133.326 -12.3695
-11.7564 108.404 5.07205
-7.4581 91.5647 3.10001
7.71875 78.2739 -8.61031
5.26715 133.96 -12.2312
2.50603 131.933 -9.63685
-10.5093 95.8341 5.329
10.5698 130.106 -16.3941
-10.5646 96.2695 5.38038
-10.8044 97.7522 5.48975
-12.4194 111.115 5.50911
-13.5062 135.803 3.90964
-14.1554 117.176 6.40297
-13.3405 135.145 3.85002
12.9979 124.065 -17.7277
15.1879 115.563 -18.7166
13.155 122.13 -17.6272
-5.8765 90.7623 2.04483
5.79287 131.355 -12.1794
11.1749 77.2076 -11.2195
-13.9376 144.634 3.51807
-12.3729 134.273 3.27891
-11.4425 108.836 5.10874
-6.22097 151.412 -3.78041
-13.0064 140.498 3.2204
9.63472 77.6083 -9.82741
-11.9149 134.584 2.90193
9.43585 131.478 -15.2044
-10.5044 100.13 5.26756
20.704 87.8557 -20.3726
4.89938 133.897 -11.4692
-9.131 93.7276 4.79775
1.44103 133.365 -8.41418
-13.3522 142.465 3.42173
-4.04436 90.9696 0.732483
-13.8906 118.573 6.40165
-6.98091 92.3188 3.1485
16.5874 111.788 -19.2005
-13.3588 150.463 2.67632
16.0099 113.541 -18.8611
-9.87446 152.849 -0.561621
19.7691 92.9277 -19.9663
-13.3466 143.746 3.38985
-13.6692 149.473 3.11326
14.0304 119.858 -17.7275
1.93012 133.594 -8.68663
-13.2514 150.402 2.69477
11.2168 130.626 -16.386
4.67512 133.745 -11.0232
-2.1215 138.419 -5.60036
10.9835 130.926 -16.1291
-12.306 133.339 3.74671
4.74978 134.431 -11.0668
16.2679 113.864 -18.8505
-12.8391 130.996 4.59767
-1.92508 138.131 -5.55823
2.36842 134.515 -8.88498
12.396 126.327 -16.6979
-12.1147 136.972 3.36907
4.88737 135.994 -11.1954
-12.0749 132.975 3.77677
-11.3575 140.623 2.37925
-3.0698 91.3105 0.334317
-3.24518 143.594 -4.90827
-12.6415 144.941 3.09413
-12.6343 145.362 3.05066
-14.5403 123.577 6.94978
-11.8908 143.819 2.60035
13.3643 121.69 -16.9205
-12.075 143.934 2.76183
16.5505 113.588 -18.8193
12.3109 77.7822 -11.4604
-12.5214 145.4 3.00484
-4.10192 92.5114 1.26485
-10.7108 109.174 5.26311
-2.61113 88.3414 0.422055
-2.9608 92.1715 0.328841
2.7244 82.7852 -3.61144
12.1528 129.704 -16.5884
-7.4531 93.9987 4.02773
12.5594 126.055 -16.5554
-12.769 147.966 3.05939
5.00777 81.2131 -5.38844
13.3086 119.958 -16.5517
4.32121 81.5869 -4.81916
-11.9736 136.602 3.58002
4.97314 137.39 -11.1248
10.5099 132.84 -15.4024
4.61281 137.867 -10.8285
23.2758 80.4051 -21.0021
3.9089 135.394 -9.9124
1.2261 134.703 -7.50843
-2.78158 92.5918 0.333823
13.4348 124.328 -16.9217
-9.57606 104.988 4.95207
-1.20579 138.462 -5.7241
-2.94166 92.822 0.491114
13.4478 121.923 -16.6607
16.967 112.097 -18.6039
-11.943 115.305 6.04192
-11.7963 151.393 2.19209
2.02056 135.394 -8.08277
-4.88448 93.3209 2.289
3.21855 137.417 -9.22504
-1.66265 140.198 -5.28914
11.2307 133.234 -15.6533
1.57694 135.57 -7.54783
5.5401 137.971 -11.1783
15.7076 117.18 -17.762
-13.1495 122.292 6.63889
-5.37321 94.3393 2.80991
-3.88827 93.8483 1.58089
2.14081 83.859 -2.58771
-1.87935 88.2069 0.448644
-4.33437 93.9452 2.00429
2.86571 139.14 -8.8684
0.761189 85.7773 -1.51787
-8.38374 101.679 4.74241
-7.31269 95.4051 4.48721
-0.740597 139.226 -5.69253
2.40667 138.882 -8.34994
-5.26154 95.2295 2.79335
-2.45447 143.933 -4.65104
10.1465 134.226 -14.4922
4.16347 139.051 -9.79847
-5.32415 95.7077 2.87603
-6.18019 95.7546 3.62624
-1.16026 92.7105 -0.389155
-5.63323 152.723 -2.70968
-1.7021 87.8055 0.598258
5.86455 81.951 -5.32714
6.06589 138.772 -11.3621
11.5007 78.6926 -9.82891
12.9121 127.209 -16.0434
20.0681 98.5552 -19.237
-11.6315 131.383 4.75512
-6.73819 95.9666 4.1858
-10.2682 140.444 2.67075
-6.21066 96.1754 3.73619
13.6596 122.2 -16.1055
-10.4751 133.748 3.54782
2.35267 139.952 -8.15398
-10.4941 141.162 2.82673
16.5107 114.852 -17.7734
-3.13915 95.826 1.21005
-12.7354 125.912 6.39183
11.7612 78.7463 -9.89316
18.6943 103.638 -18.4462
8.61902 80.7097 -7.3763
-10.0011 111.218 5.56437
-2.43356 95.8895 0.633436
6.58381 137.652 -11.4262
0.722939 86.5678 -1.06109
-9.9314 111.435 5.57663
1.76381 85.2021 -1.81433
-10.3175 140.977 2.86307
-7.97742 102.419 4.82376
-12.9742 125.236 6.81435
20.1943 95.1088 -18.6979
-11.8671 117.338 6.70131
-5.86658 96.9782 3.63206
0.23206 141.162 -6.18075
14.8436 118.591 -16.4647
-9.77256 111.137 5.56935
-10.2114 133.008 3.69206
11.0427 134.461 -14.7544
-7.71532 100.898 4.91039
-3.07462 147.689 -3.9187
15.0934 118.415 -16.5843
-0.000356859 141.417 -5.92407
-10.1664 147.353 2.2615
20.2265 97.4527 -18.8236
-1.02295 87.2039 0.590613
16.6035 115.281 -17.5012
17.0189 112.812 -17.5678
20.2831 95.6262 -18.6042
-0.551364 93.8663 -0.430916
20.3189 99.4275 -19.0102
5.00065 82.8622 -4.06242
-11.1531 130.084 5.03292
9.85006 80.7149 -7.98605
17.4692 110.906 -17.6791
-3.00125 97.4235 1.44423
-4.76871 152.23 -2.6736
-0.487309 89.6099 0.136275
0.00246602 92.8765 -0.602045
13.9099 123.27 -15.7434
-12.2408 125.268 6.68675
-9.84331 133.645 3.76788
12.9943 126.69 -15.2159
8.6215 136.251 -12.4217
12.5191 79.1214 -9.89051
0.278126 92.3679 -0.637013
10.363 80.9261 -8.11285
17.5221 110.328 -17.2918
-10.1198 152.135 2.26845
11.8571 134.739 -14.8902
-0.366228 143.582 -5.23342
11.9573 126.419 -14.0796
-11.0849 119.628 6.51754
1.17172 87.1031 -0.685044
-1.20225 97.9742 0.248593
-0.189154 87.7168 0.446722
11.739 80.363 -9.09004
-9.87843 152.613 2.14725
-1.21162 98.166 0.282149
-0.433872 143.854 -5.08349
0.0306951 95.0796 -0.436405
-8.00443 106.434 5.34641
-2.66174 148.699 -3.59088
-9.67097 130.79 4.321
-9.30844 147.078 2.34182
-5.59664 153.605 -1.53329
-7.66295 106.097 5.16648
5.5576 83.295 -3.89335
-10.5141 116.616 6.54834
14.1433 125.006 -15.5884
14.6956 118.39 -15.3463
2.40921 85.995 -1.39205
8.08825 138.061 -11.6619
-3.49815 98.5892 2.42122
12.5626 123.762 -13.9754
12.5317 123.704 -13.9361
4.13969 141.127 -8.46327
19.855 102.107 -17.9918
2.89873 141.583 -7.42316
-2.59529 149.174 -3.4443
0.730034 94.4582 -0.66832
-6.92432 105.212 4.83535
1.05081 91.1788 -0.58293
-9.78873 149.935 2.72358
-9.04246 113.177 5.90186
-3.50273 99.0774 2.59619
-9.15598 133.01 3.99095
19.7768 102.43 -17.8336
2.33915 142.26 -6.86686
17.4985 78.3701 -13.3577
-9.78192 130.297 4.84586
-2.46666 149.208 -3.41898
-10.6228 117.959 6.86143
4.37999 84.4823 -2.62968
7.85322 83.1976 -5.46991
5.6534 141.727 -9.60411
-8.68096 112.56 5.80163
-10.5087 128.027 5.78694
-9.50819 151.975 2.46156
-0.505461 145.001 -4.58873
20.8126 99.3792 -18.2149
-6.42751 104.413 4.79677
-8.84641 129.269 4.32234
24.0062 78.7613 -18.8234
-10.3551 119.814 6.61333
9.33934 138.034 -12.2459
10.0772 82.2645 -7.0787
-2.3341 99.9616 1.83776
23.7692 78.2982 -18.4357
-1.19725 147.178 -3.96616
-5.61863 100.714 4.6976
17.2466 111.562 -16.1617
-1.02523 147.041 -4.04211
16.4747 79.4879 -12.173
13.003 123.431 -13.7006
12.3587 126.654 -13.4581
20.4868 100.89 -17.8079
-0.253775 99.2379 0.271667
-9.62629 116.161 6.67312
1.63207 87.8883 -0.115959
13.1513 130.509 -14.4495
12.9749 133.246 -14.5692
-10.0222 119.658 6.69374
-7.7666 131.596 3.5781
-9.34301 144.779 3.59589
21.7717 92.1325 -17.7775
13.9066 121.433 -13.9799
13.2018 130.99 -14.3541
13.2138 123.539 -13.5835
-6.06799 106.133 4.89262
9.79674 139.308 -12.2017
9.07041 83.5024 -5.8163
3.24916 86.5346 -1.09009
23.4589 78.3059 -17.6912
-10.2867 124.956 6.66286
-1.7177 149.478 -3.26516
-8.77222 138.298 3.9837
-7.94167 132.757 3.8453
11.5279 137.583 -13.463
12.7581 136.001 -14.2919
15.8577 80.1276 -11.1938
24.2893 82.6246 -18.7258
1.4641 97.9271 -0.574933
14.2548 125.154 -14.4223
-7.76611 130.645 4.02994
5.92737 142.917 -9.05637
-5.10416 102.78 4.62345
-8.09191 137.508 3.66609
14.2134 80.2884 -9.67287
0.374141 99.8842 0.255133
-0.732401 102.314 0.982658
-8.49385 114.663 6.41278
23.2168 85.9119 -17.9977
1.99313 90.4042 -0.134467
20.671 100.992 -17.3495
-0.459195 148.421 -3.99783
13.6222 121.844 -13.4129
17.3892 112.645 -15.7105
13.8029 123.191 -13.7007
4.77203 143.022 -7.88942
-2.50255 100.986 2.73073
-7.76014 136.431 3.62163
-8.47906 144.658 3.39917
12.594 82.4106 -8.36826
18.1064 107.761 -15.713
-8.44058 114.994 6.46477
13.355 122.591 -13.1187
5.68534 85.1879 -2.61127
13.055 132.87 -13.8429
-8.09833 114.263 6.35026
1.02835 100.964 -0.151038
12.1859 137.897 -13.5942
14.559 126.201 -14.4278
-8.21549 138.939 3.96411
-6.98534 132.635 3.55403
-9.26063 122.55 6.57322
10.1707 83.7315 -6.18918
1.46386 99.7534 -0.320087
6.26155 143.587 -8.97636
13.4825 130.6 -13.842
-7.36562 135.654 3.65269
2.8045 144.747 -6.02586
24.551 80.3401 -18.1128
21.7155 95.324 -17.1955
-3.41454 102.005 3.83148
-4.02702 103.907 4.18909
2.85498 144.961 -5.98724
15.5855 116.971 -14.0823
15.3469 117.429 -13.9182
17.6914 111.634 -15.3136
5.04346 143.692 -7.68513
23.4952 85.881 -17.6034
-9.37309 124.714 6.77562
2.38759 99.908 -0.817002
-7.09003 138.551 3.41045
15.2734 117.422 -13.7184
17.1573 116.672 -15.2445
-7.81867 118.978 6.09994
3.19054 144.951 -6.05024
0.970769 148.411 -4.48706
23.5659 85.833 -17.5381
2.66454 100.119 -0.947954
0.615908 105.253 0.324428
12.9295 137.848 -13.6704
3.16676 99.4318 -1.27598
6.72414 85.5658 -2.90319
-8.37666 121.49 6.44615
-0.326665 103.825 1.32308
13.1897 137.111 -13.7621
15.8732 116.762 -13.9252
-7.34255 119.044 5.94089
2.04328 106.095 -0.824598
3.9295 87.7597 -0.4922
3.63368 88.1181 -0.253331
2.17726 147.363 -5.1034
13.6903 120.933 -12.3047
-6.35671 139.518 3.08859
14.7657 127 -13.8568
14.4398 129.626 -13.8361
3.07474 103.175 -1.28996
-6.10083 136.241 3.23594
-6.10162 135.645 3.32896
15.7434 124.756 -14.3929
2.90316 104.61 -1.22166
-7.42386 117.195 6.40607
0.619901 149.934 -3.89651
7.82614 144.505 -9.54644
3.80604 91.2244 -0.550224
-5.87696 139.003 2.88394
17.473 115.976 -14.8822
3.40639 103.407 -1.42742
-5.83355 136.011 3.19473
22.9792 90.7079 -17.0056
-7.82611 123.647 6.224
19.7499 103.19 -15.4594
12.9883 132.435 -12.6269
14.7696 124.296 -13.3252
-2.36028 103.371 3.63455
20.4878 78.077 -13.4678
5.17444 145.016 -7.1459
18.3609 107.39 -14.6415
3.74635 145.833 -5.95362
7.7831 86.1947 -3.25363
-6.47003 125.44 5.01704
-5.33844 109.879 5.65042
-7.06233 116.772 6.42963
3.25302 105.298 -1.28482
-6.56775 125.171 5.14955
1.87509 107.547 -0.318922
-6.53482 129.599 4.67294
-6.23674 124.908 4.91161
8.20604 86.2889 -3.54935
-0.109202 151.732 -3.1193
14.9603 126.329 -13.4962
5.67794 145.502 -7.45535
9.00304 86.1766 -4.20379
4.13288 101.272 -1.55459
0.128533 105.836 1.45891
13.1595 128.995 -12.1771
-6.09577 142.401 3.10631
13.0351 130.546 -12.1809
13.9511 131.028 -13.0027
17.9937 114.383 -14.7693
-0.166378 152.17 -2.97398
13.551 137.218 -13.2734
-2.19318 104.04 3.75283
14.7095 127.192 -13.2202
8.33156 144.863 -9.50693
-5.06077 135.907 2.98795
-6.0475 112.968 6.21118
-6.82986 115.944 6.60753
13.4042 137.973 -13.1311
21.9465 97.7242 -16.3402
10.5639 85.5492 -5.24178
-5.75211 123.597 4.94352
12.7762 131.421 -11.8609
13.1421 128.733 -11.8914
13.019 139.036 -12.8423
13.5058 137.706 -13.1236
2.3291 148.444 -4.56814
24.9473 82.8682 -17.3196
8.96992 144.51 -9.87333
13.9674 126.872 -12.3569
9.5406 86.3201 -4.32844
-4.86872 138.037 2.78308
-6.39748 144.561 3.43006
4.82711 96.8819 -1.32713
3.32208 107.936 -1.14375
6.76385 146.375 -8.02268
15.7275 123.416 -13.3782
18.2529 108.249 -13.9724
15.3372 125.182 -13.1997
15.3267 120.27 -12.6726
-5.73395 128.884 4.62459
2.15773 109.428 -0.175259
13.9913 128.254 -12.312
13.3317 84.7314 -7.23188
23.7077 79.4776 -15.6425
4.25824 105.498 -1.48539
-5.1804 120.287 5.15888
-5.11721 142.855 2.78356
-0.186141 106.422 2.28562
22.1573 79.4188 -14.2133
13.1196 130.151 -11.6353
1.16104 151.293 -3.45813
22.8199 94.2533 -16.2732
-5.00951 124.701 4.61734
16.9019 124.623 -14.2807
15.5645 123.048 -12.9521
15.4379 125.072 -13.0311
15.9142 130.213 -13.9687
10.5677 143.256 -10.6796
14.0711 125.449 -11.8638
7.09923 146.616 -7.99447
5.35456 88.3858 -0.475461
-4.69349 142.522 2.61508
0.723193 108.344 1.46992
23.6868 89.9663 -16.395
-5.22629 113.33 6.17213
16.6121 116.442 -12.9944
1.38437 151.403 -3.43974
13.925 131.92 -12.2536
-4.08191 141.29 2.34814
-4.37735 142.403 2.50995
2.30633 110.82 0.0177731
14.424 124.954 -11.8904
12.0221 128.546 -10.1807
12.0789 128.17 -10.1888
6.26297 147.287 -7.11991
17.0211 124.406 -14.0294
23.2061 79.3715 -14.7107
16.5516 119.579 -13.0802
-5.42928 116.366 6.23691
20.3274 79.634 -12.1982
1.64411 109.961 0.806039
15.4753 123.931 -12.5675
18.5564 114.139 -14.1947
17.0347 126.634 -14.1359
-3.24769 110.13 5.0901
21.4708 79.6737 -13.0866
-4.17754 111.91 5.73777
13.9551 137.699 -12.5572
15.6942 123.131 -12.5219
1.30592 109.965 1.2943
-2.38779 109.391 4.57368
2.63323 112.084 -0.0368325
25.2473 83.1161 -16.5643
-5.0054 116.861 6.08203
5.67552 147.558 -6.2988
8.82836 146.334 -8.88939
13.3615 129.35 -11.0445
13.5692 132.969 -11.58
19.0519 80.3535 -10.8842
15.9567 121.561 -12.462
11.8287 128.006 -9.55108
2.06526 111.346 0.605346
11.7031 86.4675 -5.13704
24.5865 85.7697 -16.1676
-3.32287 139.083 2.432
6.6541 147.634 -7.05993
3.80705 113.181 -1.01014
23.8935 90.1602 -15.9652
11.6028 129.013 -9.35729
11.6527 128.689 -9.36684
20.3932 102.837 -14.2385
-4.22628 122.365 5.02566
11.9167 127.425 -9.39179
19.2105 106.628 -13.5436
-3.79674 144.444 2.42501
-0.784087 108.753 3.53059
14.7755 124.706 -11.5406
13.8375 125.139 -10.7722
-2.98104 138.221 2.45523
14.8196 124.871 -11.5186
7.36833 147.297 -7.37046
16.3248 123.025 -12.5713
16.1017 122.718 -12.3356
12.7948 126.002 -9.7918
16.6759 130.003 -13.5453
0.908288 110.641 2.07218
21.8322 80.2803 -12.8579
24.7053 80.9868 -15.3706
-3.1079 143.44 2.20571
-3.58333 132.444 3.76368
0.326364 109.953 2.70846
3.21165 114.875 -0.271237
6.41007 99.745 -1.46222
-2.62031 142.118 1.97331
6.36859 148.502 -6.43198
-2.13565 111.233 4.7859
16.0193 120.323 -11.8268
14.9446 124.972 -11.3711
12.7055 133.381 -10.3053
-3.88874 119.412 5.4767
24.1232 89.6749 -15.635
5.66331 106.831 -1.44312
20.2732 103.76 -13.7401
13.3674 129.158 -10.3889
17.8842 81.8674 -9.37593
-2.96722 113.61 5.37316
5.52044 109.191 -1.49207
21.3324 101.568 -14.3042
24.5589 80.0067 -14.8318
15.0622 126.228 -11.3829
1.71525 112.438 1.56437
2.79699 151.815 -3.40717
5.89501 107.334 -1.45512
11.4046 88.0058 -4.20321
23.6513 92.9232 -15.2493
1.18287 112.146 2.16864
6.03346 149.159 -5.78883
-2.13479 140.057 2.23885
-0.40719 111.044 3.75372
23.8897 79.6417 -13.9769
0.982567 112.267 2.46898
-1.99801 140.5 2.13341
19.811 81.3516 -10.5904
12.3659 141.098 -10.3206
12.0657 127.482 -8.6433
-3.18947 132.004 4.06577
19.466 107.065 -12.9096
-3.87329 130.304 4.86712
6.99069 89.8296 -0.318356
8.94583 147.314 -7.93731
-3.19881 116.35 5.83496
14.5802 128.111 -10.7241
12.0423 143.014 -10.0586
3.01769 116.792 0.475831
23.6387 94.1352 -14.9888
17.7804 115.642 -12.1313
-3.24916 123.879 5.22789
-1.56095 113.679 4.8337
-1.82515 114.21 5.01585
0.908566 113.178 2.76255
18.8402 125.459 -13.9721
24.7571 79.7849 -14.3644
17.7905 119.836 -12.476
18.5386 82.0177 -9.21009
2.69746 153.316 -2.86037
17.4614 83.0193 -8.3141
24.4371 79.0465 -13.9089
14.4163 128.317 -10.3354
6.94284 95.9282 -0.52989
-3.38569 129.331 4.94846
24.2032 91.0669 -14.9168
12.8957 129.084 -9.07272
-3.26966 130.738 4.72929
4.01361 151.287 -3.67804
16.7041 119.234 -11.3142
12.5441 141.863 -10.0404
23.8732 92.1869 -14.6925
16.769 120.268 -11.4322
6.24504 149.824 -5.39318
-0.771342 113.737 4.3887
17.3609 119.969 -11.9087
16.6283 133.311 -12.6209
-2.91599 119.793 5.67086
12.6559 133.35 -9.17074
-2.59849 117.206 5.67473
2.66463 116.784 1.18691
9.22553 89.936 -1.70501
16.8372 120.465 -11.4099
7.70987 90.2807 -0.397926
16.0778 85.6098 -7.11281
13.3865 88.1884 -5.0482
-2.54403 117.514 5.68381
2.69963 117.044 1.20586
16.2541 85.3744 -7.22644
16.6541 118.479 -10.9795
6.5828 111.402 -1.54814
16.8192 132.994 -12.6092
14.1375 134.462 -10.4372
6.06993 115.726 -1.53741
15.8417 86.0551 -6.90718
13.1836 133.051 -9.45973
18.4594 124.648 -13.1343
16.8004 84.6426 -7.56924
2.49213 116.641 1.48661
3.5748 152.808 -3.17162
-0.70723 144.754 1.35751
16.6725 133.562 -12.491
23.5841 92.8509 -14.2564
-0.690561 143.504 1.47759
13.0108 133.914 -9.34257
7.83229 101.491 -1.51628
14.3677 87.7516 -5.73448
12.7901 125.627 -8.27573
10.7736 145.495 -8.56825
7.68877 98.5572 -1.05362
15.2809 133.973 -11.2624
12.7874 125.633 -8.23902
15.522 126.891 -10.7201
3.12954 118.64 0.854854
17.942 119.993 -12.0507
16.4133 122.093 -10.9376
15.3059 123.538 -10.1273
13.2085 129.59 -8.93068
-2.6551 122.897 5.46233
21.6565 101.445 -13.3111
16.6657 133.933 -12.3504
18.2895 129.126 -13.2412
-0.880307 139.027 2.29546
4.82991 120.702 -0.638615
25.5817 84.8113 -14.8456
2.23719 116.74 2.02672
-2.18341 119.11 5.60653
6.71664 115.729 -1.71924
22.8928 98.4512 -13.8938
6.99454 112.346 -1.58575
12.7706 131.907 -8.58793
13.8975 131.266 -9.48472
12.7796 128.802 -8.24818
3.09051 119.563 1.07986
15.4413 87.2283 -6.21969
24.2407 91.4929 -14.2507
-2.02362 120.464 5.45091
14.9642 137.521 -10.973
2.42558 154.254 -1.84969
14.4959 128.39 -9.59242
14.9069 133.994 -10.5244
13.44 139.624 -9.82672
18.3896 129.233 -13.0213
7.9264 106.88 -1.67476
7.44577 110.114 -1.591
23.5434 82.1438 -12.5939
-2.04314 124.583 5.12432
2.43746 118.001 1.9969
25.4949 80.867 -14.0737
14.3862 134.22 -9.98213
13.9673 133.181 -9.5089
15.4892 127.47 -10.2038
14.0565 134.158 -9.65369
12.3774 143.24 -9.12802
17.3453 85.1372 -7.41506
7.59613 95.1823 -0.033194
7.53106 93.4555 0.203601
19.6539 125.39 -13.5495
13.2039 133.931 -8.85273
0.680845 116.811 3.72868
6.25661 119.603 -1.37256
19.152 83.8366 -8.80545
13.3143 89.3978 -4.32108
25.4182 83.9471 -14.2057
22.6667 82.2429 -11.6306
14.4194 124.122 -8.82323
10.7559 146.866 -8.00472
6.20335 119.975 -1.29362
14.9105 88.3347 -5.49365
3.60034 121.279 0.88096
23.5859 94.0952 -13.554
-1.71452 125.548 5.09016
20.7776 105.302 -12.2395
-2.20263 128.775 5.18914
-1.02297 120.856 5.02064
8.33532 107.876 -1.70282
18.8293 114.608 -11.4564
21.7492 82.9871 -10.7055
6.53698 120.121 -1.39895
17.5818 85.3722 -7.34556
-1.64282 125.694 5.09543
-1.68113 125.823 5.12099
-2.00768 129.668 5.01301
14.8254 129.434 -9.46599
15.2597 88.275 -5.59283
8.40379 108.057 -1.71274
17.5922 121.103 -10.9833
5.78112 122.537 -0.922422
20.7681 83.5077 -9.83483
-1.95432 126.911 5.326
13.2572 131.939 -8.32567
0.0362474 142.325 2.05418
17.4268 132.311 -11.9224
24.9809 88.1262 -13.8836
18.3566 120.35 -11.4489
3.30206 121.395 1.44506
21.4882 83.4447 -10.3378
2.16409 118.769 2.71966
14.2731 135.737 -9.46471
13.4354 131.828 -8.33788
5.96781 123.36 -1.01617
6.90997 120.417 -1.49536
23.0169 83.1418 -11.5425
23.6678 95.2004 -13.3327
16.0328 124.217 -9.70787
5.01689 124.72 -0.242235
8.53528 98.577 -0.558333
15.1342 129.419 -9.43337
18.9012 120.327 -11.7209
17.4684 115.517 -9.98492
4.46054 123.987 0.383297
16.4678 116.475 -9.20716
9.22035 104.127 -1.66435
15.2245 129.661 -9.47634
12.6535 128.451 -7.09799
0.429355 142.544 2.02387
9.21529 105.296 -1.67485
14.3516 129.556 -8.61181
15.7982 135.156 -10.4075
22.7955 84.0147 -11.1676
6.33392 124.562 -1.11443
15.1119 89.0489 -5.02797
10.6403 91.9546 -1.46603
13.3433 129.717 -7.6949
15.5041 131.697 -9.7621
18.1759 129.997 -11.8821
10.9158 148.081 -7.47596
15.5104 127.623 -9.28795
15.2255 138.159 -10.0905
4.33414 154.029 -2.30794
15.6771 135.841 -10.1881
16.6399 122.401 -9.63086
5.38924 126.001 -0.285429
22.8293 84.3697 -11.0102
7.98536 117.597 -1.62019
4.09551 124.422 1.04118
14.1688 136.096 -8.85851
23.0999 98.6384 -12.7022
12.4261 144.346 -8.20087
23.6235 93.878 -12.6371
15.7505 130.495 -9.59624
19.7095 85.1124 -8.32114
17.1196 120.892 -9.76832
-0.894291 127.951 5.06388
14.8451 135.113 -9.23696
7.80835 120.018 -1.597
13.9185 124.375 -7.30623
10.401 149.413 -6.83332
24.4012 88.6964 -12.6492
4.09883 124.947 1.152
9.23457 109.819 -1.70604
7.7343 121.593 -1.61702
11.7206 146.712 -7.63281
24.8907 86.9311 -12.817
23.6761 84.2423 -11.4719
12.6711 127.452 -6.41952
24.4224 91.1608 -12.8131
17.6091 87.3801 -6.5293
16.4154 125.103 -9.39002
9.0091 113.488 -1.77527
17.7817 119.305 -9.9473
1.47331 123.059 3.783
23.7056 95.6378 -12.5831
24.9776 85.3001 -12.6118
15.2926 123.225 -8.15925
19.7497 107.95 -10.4125
24.9608 85.9853 -12.6418
8.15515 120.227 -1.65
19.5853 109.002 -10.3334
14.6248 128.569 -8.06352
9.47574 110.531 -1.74365
3.79031 125.28 1.67849
17.7389 115.222 -9.27668
7.22148 126.525 -1.33633
3.05566 124.029 2.52172
14.9572 136.051 -8.93733
17.4115 136.581 -11.1085
9.48775 94.3781 0.0996594
24.2091 89.2562 -12.0787
0.290682 128.614 4.52511
12.8823 126.632 -6.13587
10.2354 105.466 -1.65477
16.9776 136.186 -10.6372
8.06274 124.109 -1.6855
1.08173 136.006 3.12708
0.0475225 131.106 4.52736
9.73741 100.302 -0.6603
15.9842 89.4766 -4.92713
18.1364 130.813 -11.0426
17.2801 88.28 -5.89943
9.77278 111.338 -1.78309
1.32549 125.495 4.0504
0.907547 128.4 4.14522
4.81617 154.444 -1.91666
10.3065 105.875 -1.64282
6.03322 129.363 -0.369431
19.8655 111.712 -10.4736
10.3493 105.852 -1.63979
1.65094 125.255 3.88135
2.84364 124.611 2.94212
14.6083 139.408 -8.73315
1.63657 127.73 3.70797
6.70067 130.028 -0.890935
17.6512 136.463 -11.0003
15.112 126.442 -7.76215
17.1726 121.17 -8.96722
7.48609 152.779 -3.86185
9.13045 117.611 -1.61617
18.4556 130.043 -10.938
12.9363 128.347 -5.98463
9.52624 115.043 -1.66068
19.6202 125.642 -11.4684
5.78024 131.259 -0.0833053
7.22734 152.965 -3.55878
1.3533 142.394 2.60526
10.571 149.871 -6.10148
3.54117 126.312 2.42023
17.7555 88.3634 -5.88264
1.56636 138.804 2.92886
2.1596 128.311 3.50916
20.183 86.5235 -7.73784
4.02489 127.169 2.03836
20.3077 124.368 -11.7131
10.2971 110.497 -1.63341
1.67727 142.989 2.46472
14.707 126.098 -7.03583
14.4105 127.499 -6.92398
19.133 121.104 -10.3418
23.8923 87.569 -10.9894
5.34144 131.544 0.503513
24.2145 90.1068 -11.5028
2.17753 129.152 3.51097
22.3754 102.335 -11.1564
14.6787 91.014 -3.33331
23.7945 94.427 -11.5555
4.42708 129.406 1.56357
15.8179 90.2302 -4.20022
0.902039 131.986 4.38396
9.42295 121.343 -1.85909
21.2316 106.118 -10.4787
14.0961 127.872 -6.52277
13.139 126.786 -5.57145
4.10588 128.305 2.08323
10.7778 103.903 -1.13888
13.2495 128.937 -5.8519
14.7545 91.187 -3.22661
14.569 130.775 -7.12124
13.8473 141.063 -7.55067
1.82112 141.722 2.76748
18.1206 88.5912 -5.81653
17.7577 116.535 -8.36923
14.777 125.367 -6.69772
15.7131 122.692 -7.22867
7.20991 132.343 -0.864194
1.95804 137.693 3.12914
13.4894 92.3863 -2.14559
14.8862 131.216 -7.35107
13.6868 126.507 -5.81864
12.0379 95.0155 -1.13871
14.5195 137.81 -7.68898
13.8129 129.99 -6.22501
24.2201 90.8354 -11.1675
23.9468 89.9146 -10.7978
21.6729 87.3105 -8.56384
9.77178 151.082 -4.85575
13.7106 129.934 -6.05607
19.0013 129.55 -10.5239
22.8962 100.331 -10.8681
13.7356 92.7467 -2.16819
21.8169 104.805 -10.3889
1.44468 132.519 4.35668
14.0906 126.865 -5.95888
14.5459 139.662 -7.66472
13.9364 127.062 -5.8294
13.9216 127.095 -5.81354
4.68463 133.698 1.49302
13.7739 125.575 -5.43064
13.3906 143.267 -6.92114
4.27765 132.421 2.07079
11.005 109.489 -1.35027
19.8875 120.549 -10.1523
23.3296 97.9001 -10.7633
19.8875 113.851 -9.43211
22.8081 100.572 -10.5476
15.0292 124.563 -6.27466
18.7187 114.628 -8.43315
20.1921 113.145 -9.53458
12.1273 147.602 -6.12594
10.8525 113.605 -1.51628
14.1328 140.589 -7.11163
14.9032 92.6119 -2.81008
18.9577 88.9904 -5.92776
6.16566 135.822 0.299557
14.0664 126.831 -5.57127
15.7489 92.2267 -3.44801
5.5412 135.147 0.941992
14.6741 93.1214 -2.60592
10.1962 119.608 -1.45298
20.3608 110.266 -9.24339
14.7852 125.188 -5.94777
20.0755 126.961 -10.6847
21.6089 105.539 -9.79849
14.1809 94.7219 -2.26355
3.00632 133.649 3.37168
22.2326 102.64 -10.0194
14.5426 127.8 -5.95896
16.7669 123.595 -7.43492
2.50366 135.505 3.65289
4.04872 131.164 2.77634
15.3314 92.8431 -2.99684
3.41537 132.537 3.20257
8.35662 133.725 -1.18506
17.0274 121.535 -7.39718
20.6201 124.082 -10.7554
13.1825 146.168 -6.58806
19.2199 129.044 -10.0241
18.3281 118.134 -8.08749
2.81997 137.157 3.37077
21.8061 103.8 -9.57352
2.75826 135.901 3.56957
5.16068 136.44 1.46155
7.0262 133.827 0.137112
2.92992 139.397 3.16596
5.21995 137.876 1.35911
5.68966 155.416 -0.855306
6.86199 134.052 0.350865
15.2376 126.337 -6.08227
5.11679 137.055 1.5642
20.5899 107.421 -8.72422
20.6952 126.875 -10.8111
11.2998 97.7998 0.305286
13.2214 146.14 -6.24744
22.1985 91.6691 -8.36744
8.9382 132.487 -1.1224
8.90267 132.693 -1.09315
10.9707 116.202 -1.14771
11.4386 101.642 -0.0384309
17.9043 121.079 -7.56357
15.6014 126.201 -6.0813
3.24842 137.252 3.45349
21.8159 90.6485 -7.74128
18.3324 122.396 -7.99279
4.76866 136.322 2.28881
7.3726 137.798 -0.10903
19.3775 90.2368 -5.56291
15.8465 127.32 -6.31454
5.55228 139.197 1.35363
20.6288 127.274 -10.4046
16.1508 94.4827 -3.15406
17.25 138.882 -8.67789
22.3263 92.9362 -8.32026
21.3757 106.474 -8.88354
3.37917 136.911 3.51681
13.516 145.224 -6.08805
17.5903 92.2105 -4.1321
3.96687 144.542 2.23397
21.8541 91.8312 -7.76762
8.63298 153.178 -2.63049
8.89092 135.508 -0.990557
18.3898 114.779 -7.05177
21.668 91.4805 -7.47527
8.89624 135.79 -0.954251
16.9741 123.564 -6.63042
11.2659 115.437 -0.86151
21.5842 121.245 -10.3681
21.7692 92.3461 -7.52336
14.4643 139.187 -6.04492
18.963 120.736 -8.00898
11.3242 115.164 -0.824913
18.2658 91.899 -4.40203
13.5783 144.154 -5.73133
9.42356 134.28 -1.12422
13.1034 97.3523 -0.490563
21.4037 124.743 -10.4771
21.6402 92.577 -7.34044
19.7429 130.397 -9.60388
22.9126 94.3287 -8.61602
20.0674 91.1931 -5.8098
16.433 95.4771 -3.03663
16.4528 126.62 -6.2568
19.8251 132.831 -9.7968
22.1427 126.902 -11.1707
19.9369 91.5903 -5.6165
18.0753 119.345 -6.85641
15.7622 138.636 -6.84812
12.5107 99.3896 0.0615655
21.4514 103.863 -8.09877
20.7282 111.676 -8.25341
19.8632 92.2285 -5.49255
23.1399 96.4037 -8.71871
10.1349 130.551 -0.962575
21.2184 93.6965 -6.70177
11.1082 118.196 -0.497291
19.3612 136.49 -9.43753
5.15084 141.593 2.32087
20.1284 129.446 -9.33315
23.0773 95.8095 -8.37736
19.425 92.3216 -4.82554
17.2918 124.39 -6.26797
6.45452 143.996 1.06935
12.1147 112.214 -0.535834
18.8904 121.227 -7.31277
21.5844 121.6 -9.65689
9.8972 136.085 -1.0462
19.5219 134.347 -9.1706
17.6696 94.6181 -3.46299
17.0271 126.535 -6.17985
18.0664 94.1695 -3.71238
12.9456 101.175 -0.00978736
12.4473 106.698 -0.148778
18.8459 120.663 -7.10102
21.8389 100.47 -7.5955
11.6194 115.652 -0.336994
11.5381 116.5 -0.312854
9.37493 138.352 -0.69399
10.1975 133.545 -0.858462
4.64609 140.946 3.203
12.4083 108.535 -0.144903
18.3791 121.696 -6.62934
8.13478 141.194 0.242063
17.7477 139.798 -7.91143
11.3823 118.07 -0.128202
6.67297 155.072 0.121515
18.4495 94.3357 -3.76392
8.28039 141.696 0.14523
13.9115 100.281 -0.430705
22.1162 95.7453 -6.99783
21.565 100.704 -7.02044
8.50519 142.249 0.00719813
19.0438 121.507 -6.90638
11.3228 124.451 -0.542651
17.5649 95.9909 -2.95958
20.189 121.294 -7.81886
20.2879 121.356 -7.89275
20.4666 113.372 -7.22037
13.3586 101.836 0.193798
19.6852 94.4055 -4.49451
21.9386 97.6487 -6.73404
17.7688 140.444 -7.53146
20.2687 94.4325 -4.93556
13.9837 144.868 -4.70115
21.0037 96.6252 -5.77941
10.757 133.226 -0.696698
10.5947 151.492 -2.43899
21.3973 97.4709 -6.18971
20.851 131.892 -9.25394
19.582 114.034 -6.3086
22.1959 121.606 -9.34532
17.6936 123.486 -5.61554
9.64561 141.323 -0.463069
18.4132 122.546 -6.05564
18.5971 123.091 -6.25725
20.6059 121.774 -7.6851
17.3837 124.036 -5.10558
7.53136 148.5 0.877691
17.9934 97.4941 -2.80982
11.5881 126.211 -0.233215
10.9958 151.185 -2.29647
21.972 99.0884 -6.3906
12.6399 112.88 0.259957
11.6871 122.058 0.141392
11.7024 122.242 0.109532
12.7677 112.36 0.236592
14.0238 104.57 -0.0273346
7.4567 148.463 1.12183
15.9825 140.965 -5.44545
21.0916 129.792 -8.69364
13.8114 102.696 0.396038
21.5276 101.027 -6.08856
17.7649 118.755 -4.65321
14.8947 100.75 -0.29729
10.816 134.122 -0.214872
19.3393 97.952 -3.83927
10.4663 151.874 -1.73976
13.9438 102.284 0.377876
11.5996 150.496 -2.56162
21.7685 122.12 -8.41402
17.8648 97.92 -2.5309
21.6278 102.155 -6.21694
13.0964 108.791 0.48633
22.3313 129.316 -9.54879
21.3673 122.319 -7.89854
21.4331 100.705 -5.71165
19.8608 138.234 -8.22266
14.2577 145.069 -4.06666
18.0574 125.515 -5.32833
13.2531 108.513 0.587912
21.1251 108.404 -6.19472
10.7679 139.083 -0.404901
6.98958 148.131 1.93468
17.9163 128.23 -5.38892
17.6397 125.422 -4.85423
9.37743 145.566 0.211567
11.6517 128.325 0.0290518
12.1822 117.268 0.813038
12.5363 114.984 0.748681
10.9229 136.797 -0.0960651
18.7847 117.889 -4.92656
21.5078 107.212 -6.14514
22.127 129.623 -8.93878
14.3511 145.2 -3.81828
9.73751 145.456 0.178346
20.1803 99.0646 -4.01479
21.2493 110.373 -6.07959
14.0025 106.383 0.59903
23.0359 125.43 -9.16562
13.513 110.647 0.608553
18.4135 127.386 -5.29321
7.74058 154.946 1.07912
18.2822 141.427 -6.59443
18.3877 118.237 -4.29108
22.69 129.634 -9.1488
23.8874 128.829 -10.0929
23.9702 125.985 -9.85843
24.2562 127.729 -10.2528
12.9092 114.196 0.95285
14.4974 145.159 -3.55146
11.8001 128.18 0.537361
21.5378 103.423 -5.30192
21.8488 106.458 -5.88179
9.03763 149.863 0.732839
23.5368 125.864 -9.30568
20.8106 101.326 -4.41483
23.9272 129.798 -9.92718
19.8729 139.156 -7.37821
11.0392 140.292 0.133177
11.6424 129.753 0.735157
11.3006 138.1 0.186125
11.7084 128.888 0.816686
14.1879 107.41 0.937651
12.12 122.964 1.13411
8.7481 151.305 1.13473
14.2564 107.186 0.954585
11.6321 151.235 -1.30513
18.0234 128.175 -4.44104
12.23 120.243 1.41153
20.6169 114.246 -5.20884
18.4409 118.202 -3.71658
21.1288 111.702 -5.35767
15.1789 103.656 0.615537
7.61682 150.618 2.34116
20.6884 114.216 -5.18672
21.4007 109.549 -5.30515
21.2675 110.534 -5.23517
20.4725 114.571 -4.94805
9.37714 151.12 0.902616
15.3301 103.623 0.696035
20.7539 137.961 -7.52098
17.3339 119.403 -2.65065
19.9282 101.251 -2.97513
17.9073 101.353 -1.2378
14.2636 109.114 1.12528
23.7991 130.14 -9.26854
16.9055 102.778 -0.43932
8.8804 152.783 1.37419
12.1744 122.075 1.73293
18.3579 122.377 -3.61926
12.3507 123.97 1.42618
11.089 144.885 0.361201
20.601 107.421 -3.97996
16.9591 103.34 -0.413287
16.2446 130.08 -2.55237
23.9189 130.251 -9.1796
11.269 133.01 1.47199
19.3275 102.182 -2.26854
11.2544 143.023 0.52519
24.3329 126.559 -9.05551
12.3642 150.663 -1.20341
19.7075 108.175 -3.15949
17.2836 125.834 -2.85785
21.0472 136.948 -7.24214
15.0818 107.269 0.980863
20.9282 111.959 -4.53529
18.9399 103.003 -1.87923
11.6878 139.497 0.620843
16.6021 104.66 0.0248248
21.9753 131.986 -7.42836
17.9709 118.618 -2.57743
17.0938 128.082 -2.78932
16.9719 128.081 -2.63874
18.8077 125.016 -3.85996
20.5005 114.291 -4.2117
19.2596 104.049 -2.07162
20.8489 109.892 -4.03468
17.7668 129.463 -3.37279
16.8468 125.583 -2.16855
10.1409 152.557 0.842066
18.4449 118.21 -2.77527
12.1717 151.78 -0.818871
18.6534 105.193 -1.60405
19.2045 105.286 -2.07989
14.7055 109.704 1.45594
25.0451 127.894 -9.34671
23.2065 122.834 -7.22312
11.5479 130.188 2.08708
18.6886 126.529 -3.63848
18.852 107.314 -1.77139
20.4285 109.605 -3.35187
12.188 152.139 -0.58738
24.8095 125.181 -8.69965
14.1665 113.79 1.67097
16.043 130.218 -1.60709
13.4939 117.385 1.94861
12.9197 120.922 2.09643
11.761 137.212 1.44759
24.4197 121.539 -7.82119
17.5942 106.379 -0.35461
14.5047 125.978 0.349366
14.6243 126.111 0.24475
17.9227 122.87 -2.26806
11.5 132.111 2.38085
20.6901 124.094 -4.70455
20.4705 112.971 -3.31643
14.5539 113.717 1.71553
15.1987 110.229 1.52528
20.9168 139.79 -6.45691
17.3259 108.715 -0.147769
18.4183 110.102 -1.21968
12.3239 126.132 2.40139
17.2787 119.743 -1.197
19.5376 116.041 -2.75983
14.4891 147.498 -1.63703
13.0296 150.689 -0.698401
25.2882 125.111 -8.63877
14.138 125.964 0.912557
14.3842 115.297 1.8093
19.7479 115.411 -2.83213
17.1225 130.98 -2.1706
18.9212 125.798 -3.18379
21.4386 134.91 -6.28426
15.7367 109.341 1.30044
11.5147 148.535 0.907231
17.8792 110.312 -0.632091
12.3663 129.132 2.21549
14.6372 147.035 -1.57895
17.9017 118.952 -1.49823
16.8897 106.936 0.649611
13.2108 150.339 -0.648565
25.4351 125.114 -8.59917
24.9431 125.764 -8.23481
23.9306 131.794 -7.97617
12.5693 126.349 2.4106
16.9178 131.507 -1.85611
12.9162 123.026 2.48508
12.5232 125.82 2.55306
12.7157 124.234 2.58926
16.8018 124.384 -0.940938
12.8672 123.367 2.56798
17.9632 130.054 -2.51263
14.7789 114.569 1.83515
12.7251 124.213 2.63619
12.2378 138.675 1.58505
19.1663 112.157 -1.65408
12.6706 125.701 2.632
16.5915 123.946 -0.530007
14.4749 128.522 0.825503
16.0424 145.446 -2.27156
13.5592 149.687 -0.547318
12.133 132.542 2.46231
18.1098 112.569 -0.620863
11.4361 150.811 1.20966
15.6323 131.535 -0.413815
21.2434 139.604 -6.06828
12.649 131.09 2.23847
13.8015 120.255 2.36156
17.4796 113.378 -0.00571505
12.1801 141.321 1.70097
17.7644 113.477 -0.240853
17.2992 111.519 0.455185
19.0263 126.492 -2.55072
13.7751 128.76 1.76389
16.7461 111.566 1.01244
18.994 128.468 -2.6708
16.4034 112.911 1.17163
18.234 114.339 -0.508496
12.0748 150.121 1.16825
17.4119 119.648 -0.236044
13.9301 123.403 2.42467
23.4465 133.206 -6.76878
14.988 134.452 0.45372
17.2207 123.077 -0.299631
15.8027 134.002 -0.199226
13.5789 128.414 2.30197
25.885 130.627 -8.53735
13.808 132.973 1.68577
18.4119 117.342 -0.668589
15.6689 148.275 -1.42586
17.2345 145.376 -2.44806
14.2533 136.104 1.10551
18.4872 116.427 -0.511024
16.0339 115.292 1.76258
12.5455 140.588 2.17987
16.3007 122.268 0.843545
12.6954 146.193 1.49405
16.5322 115.506 1.39134
17.9706 115.622 0.145569
18.3177 115.759 -0.143827
15.8448 116.482 1.94966
26.0831 125.909 -7.80646
12.8102 149.439 1.28271
16.6241 135.131 -0.366889
17.6016 134.118 -1.09922
15.748 119.133 2.04852
13.4749 137.272 2.19203
24.4486 124.688 -5.93313
12.7934 139.697 2.59373
12.994 147.188 1.67344
16.7734 147.857 -1.63838
13.8162 150.968 0.655505
17.9737 145.748 -2.37643
16.5093 148.917 -1.42577
23.3318 128.021 -5.11828
14.1569 151.024 0.494584
17.7402 118.913 0.776318
25.1235 127.168 -6.40375
17.0587 135.786 -0.29019
18.6056 131.302 -1.11365
20.1781 127.035 -1.98816
22.1097 125.462 -3.48688
22.6894 135.699 -5.04102
17.8799 135.096 -0.812218
13.4862 143.816 2.13816
24.8039 124.826 -5.66573
25.5814 122.937 -6.12599
24.6989 130.19 -6.10924
16.0912 149.213 -0.637065
26.5938 130.711 -7.78707
24.902 124.727 -5.62689
18.1891 134.987 -0.85456
16.8862 148.632 -1.05396
14.4803 138.126 2.10854
17.8807 135.975 -0.546112
25.0727 126.234 -5.74767
22.9359 135.988 -4.87799
21.7726 141.365 -4.39381
13.7721 146.757 1.99891
23.8216 124.624 -4.35546
18.137 135.9 -0.540352
14.0182 147.379 1.83695
20.0723 128.04 -1.35283
22.181 138.317 -4.18079
25.0096 131.956 -5.93917
21.9548 141.144 -4.22146
13.9786 144.86 2.29954
23.1115 130.624 -4.11546
25.5368 126.847 -5.79311
14.2673 143.276 2.2439
14.0219 146.022 2.18476
25.4928 131.813 -6.2439
25.4618 128.818 -5.87628
19.4233 133.486 -1.1416
21.699 142.247 -3.99688
24.5113 133.188 -5.43429
24.6611 124.125 -4.61665
26.2639 126.465 -6.23936
23.5285 125.185 -3.73006
20.4744 144.619 -3.06302
14.1633 145.239 2.33455
21.4864 142.898 -3.70709
25.6753 123.847 -5.35765
24.8165 133.507 -5.60079
26.7312 129.147 -6.79995
25.477 124.637 -5.22703
22.3039 138.288 -3.89408
25.3735 126.041 -5.21743
26.9256 128.788 -6.78184
23.2097 131.692 -3.84515
25.2575 124.629 -4.72133
21.1191 143.882 -3.10486
19.478 135.093 -0.63427
15.3598 149.282 1.48504
19.7649 134.49 -0.754041
18.036 137.977 0.472029
25.5775 123.799 -4.52147
24.5423 126.797 -3.80876
21.2641 144.168 -2.61906
23.592 133.191 -3.4376
16.0924 141.547 2.29777
20.0107 146.275 -1.54789
22.8992 128.466 -2.18842
24.1653 126.373 -2.99897
23.7044 133.53 -3.31808
23.4769 129.483 -2.66454
19.4889 146.78 -0.947054
19.2968 146.954 -0.750815
24.6923 125.435 -3.16111
24.6869 125.434 -3.1526
20.5306 134.903 -0.44376
15.7024 146.934 2.492
22.7784 131.053 -1.84753
17.9917 147.384 0.737268
23.6094 134.007 -2.70609
16.1769 146.264 2.55255
21.6623 133.363 -0.832381
23.3338 132.711 -2.2018
21.9739 133.24 -0.886582
21.8141 134.025 -0.585722
25.1231 134.831 -3.51873
17.5568 145.162 1.98898
17.4372 143.92 2.29875
17.8846 141.243 2.33074
20.2655 139.299 0.571951
18.3032 144.867 1.77827
21.5334 136.21 -0.0937182
21.7785 144.503 -1.06048
23.0838 134.722 -1.17437
22.5214 135.363 -0.62393
21.8136 143.619 -0.843408
19.7174 144.969 0.954839
23.9328 137.162 -1.80434
23.8703 139.026 -1.85446
20.6488 143.368 0.541124
19.1612 143.511 1.83007
21.8232 141.712 -0.282456
22.8966 138.546 -0.635739
21.5295 140.576 0.583863
20.6667 141.602 1.32268
