ply
format ascii 1.0
comment Created by Open3D
element vertex 1924
property double x
property double y
property double z
end_header
-8.98436 132.944 -2.63486
-6.2325 129.637 0.584028
10.1125 110.395 18.3687
1.43836 120.661 7.67806
-11.9145 135.561 6.12111
-0.457704 123.08 -1.52164
-6.06198 128.727 9.98757
8.03039 113.45 -0.0186181
-18.447 142.674 8.19674
9.91779 111.275 0.765853
-17.7291 142.196 1.26302
5.30793 115.463 19.1762
-10.9114 134.886 -5.47242
3.57391 118.429 -1.29569
7.21108 113.258 19.4592
-1.56933 124.155 -1.84812
-10.2634 133.415 6.93926
11.0455 109.655 4.36721
-11.7574 135.615 -5.37152
6.53276 114.797 -0.180875
-6.21157 129 0.503956
-19.1879 143.117 8.20325
6.29704 113.994 19.1691
-15.2819 139.265 -2.69466
-7.90612 130.838 -1.22042
4.72509 116.09 10.1931
-2.48174 124.006 13.0832
-9.39437 131.96 8.72665
-18.6743 142.345 8.11187
4.84474 115.838 10.9903
1.18929 120.082 7.90116
1.83119 119.655 -0.399195
-3.221 124.605 13.1153
-20.5402 144.196 7.73654
-18.9363 142.356 8.08696
0.38178 120.603 10.3152
1.31052 119.686 7.8058
5.83462 114.005 19.2306
3.78582 116.231 18.9079
-17.5758 140.609 8.50752
-21.1815 144.842 4.69021
-11.3008 134.265 -5.58737
-6.6412 128.133 10.955
-11.6891 133.895 6.45062
-12.1491 134.415 6.23685
-14.2464 137.191 -3.14766
8.56985 110.438 19.4408
10.5892 108.796 7.32685
-12.1767 134.921 -5.11019
6.77002 113.477 -0.817331
-5.34382 126.394 11.098
11.0385 108.376 4.51895
-12.3681 134.463 6.66768
-0.90547 121.321 12.4769
-17.2777 139.829 8.43332
-13.7262 135.911 7.26588
3.72331 115.917 15.8285
4.69741 115.009 12.2208
-4.4808 125.228 12.0816
8.88076 109.875 19.2774
10.7056 108.52 5.57173
-11.9299 133.775 6.34531
4.63577 114.487 19.6287
3.61459 115.778 16.1348
4.60467 115.641 -2.72621
6.43395 113.472 -1.5271
6.91428 112.86 -0.979541
-18.2152 140.918 0.635729
10.0647 108.394 16.9018
-15.8855 138.439 -2.30146
-2.34445 123.199 -2.14213
7.43043 111.037 20.1267
-11.6572 133.082 7.11496
-3.31744 123.399 13.4834
-6.6276 127.188 11.4422
-11.5854 133.613 -5.69302
-11.3256 132.541 8.19844
1.82678 118.28 -1.58041
-21.4969 143.921 7.48616
7.10104 111.203 20.3281
-14.1673 136.248 -3.55308
-16.095 138.207 -0.141659
1.41811 118.61 -1.82263
-14.1354 136.121 -3.64764
9.82992 108.43 12.4715
6.54356 112.828 -1.79993
10.0617 108.285 8.92718
0.460569 119.011 8.60677
3.88757 114.783 15.6317
-7.31181 127.51 11.864
-5.16564 125.7 -0.261639
9.79826 107.803 18.476
3.69343 114.55 20.118
3.75451 114.477 20.1132
-0.225789 120.069 -2.36526
9.25719 109.116 1.55007
9.80884 107.8 13.6147
10.2153 107.632 6.78808
-8.13843 127.89 12.1579
4.36264 113.784 13.4163
-15.0088 136.304 -2.51211
2.61898 115.421 18.9888
3.43209 114.336 20.149
-10.0251 129.838 11.0947
-0.656835 119.24 11.5623
3.00184 114.831 17.0282
2.93704 115.93 -2.76875
-10.4457 130.184 10.5858
-13.4308 134.186 -3.9092
3.08945 114.595 16.7767
-12.0466 132.688 -5.89584
1.9675 116.255 7.68755
9.99156 106.969 12.9241
5.25565 111.86 20.8349
9.85906 107.155 11.1008
-1.38884 120.407 -2.8433
-15.2486 135.891 -2.4122
-5.87168 124.567 12.1038
4.17215 113.195 13.5338
-21.9197 142.91 3.88985
-5.23896 123.783 12.3632
-13.3797 133.589 -4.16914
4.15823 113.05 12.9617
-11.5192 131.513 -4.73315
9.23981 107 19.1345
-13.2573 133.394 -4.5117
-3.72391 122.53 -1.67943
-10.974 130.682 -3.79121
4.76938 111.728 20.907
-16.4174 135.955 9.07392
-1.28701 118.823 12.663
3.64739 114.064 -2.32302
3.01032 113.786 16.7336
-0.0339705 117.477 9.04019
-22.0416 142.369 3.73476
-0.629023 117.933 10.716
-1.07041 118.267 12.3842
-17.2441 137.049 -0.620004
-21.2848 141.09 8.69654
3.94859 112.463 14.7035
9.63823 106.321 9.53372
-9.40025 128.197 -1.28801
-5.1245 123.247 -0.662593
-5.89122 123.393 12.699
-19.6185 139.354 0.646044
10.2088 105.603 7.07895
3.75439 112.574 11.1476
-2.50612 119.432 13.6954
8.18074 106.947 20.4143
8.73973 106.313 20.0207
-3.82785 120.679 14.3733
-10.2489 127.939 12.4145
-0.806833 117.416 11.0606
-11.7997 129.774 9.96164
5.86814 109.382 21.6071
-7.46662 124.743 12.7571
-12.789 131.577 -5.87902
-11.6043 129.395 10.4719
7.06353 107.921 20.8404
-12.3776 131.014 -5.35088
3.59146 112.171 11.119
7.0564 107.782 20.8807
-16.6223 135.437 -1.11866
-1.9358 119.067 -3.25231
9.79726 105.12 11.8125
-23.2442 142.477 4.66558
-2.89565 119.201 14.0012
-20.4644 139.502 1.3697
2.82804 113.017 8.78453
2.05924 113.235 19.3799
-22.8965 141.746 7.9233
2.0374 113.201 19.1052
-3.75861 119.893 14.4786
10.3381 104.616 4.35001
-4.12832 120.287 14.531
2.0122 113.163 19.2197
-7.74814 125.053 0.31819
-20.1215 138.453 8.65694
-12.481 130.595 -5.22923
9.6215 104.971 11.1158
-1.12003 117.684 -2.63853
3.46973 111.588 15.5969
6.48892 107.887 21.5242
9.3169 104.769 17.1423
9.90634 104.265 13.3469
-13.149 131.024 -5.74514
-20.0684 138.488 -0.266314
9.11604 104.86 17.6697
-1.84782 118.217 -3.35574
-15.7059 132.999 8.15939
3.38442 111.429 11.38
9.71627 104.085 16.1125
1.67976 113.92 -2.03218
8.6519 104.91 19.1261
8.68207 104.807 18.7834
-11.3625 127.555 12.9657
9.73835 103.921 12.1924
-1.03937 116.052 10.8781
6.73307 106.768 21.4863
-18.1588 135.286 8.84066
-1.2335 116.885 -2.79968
9.82008 103.592 14.7318
2.75021 112.363 -2.49071
-17.6564 135.081 -0.174111
-14.7553 132.016 -4.82501
-14.4525 131.56 -5.09668
-9.43798 124.939 13.5618
-11.7265 128.317 -2.8732
3.47799 110.333 15.4519
9.02754 104.815 1.78776
-10.8127 126.441 13.1164
-1.39962 115.894 12.351
-7.92032 123.811 0.211675
1.9229 111.793 18.9626
2.85527 110.831 16.4542
-23.7362 141.218 4.29206
-1.28826 115.659 11.8438
-15.6892 132.432 -2.53099
-0.835095 115.158 9.35432
3.1584 110.531 11.7115
-19.7158 136.333 8.02235
2.36177 110.741 21.0275
-21.5491 138.158 8.01274
7.98234 104.374 21.0025
3.34686 109.886 14.4209
-17.01 132.969 8.74113
-20.3357 137.076 -0.220633
-4.54916 119.507 -2.65368
-6.15791 120.407 14.2349
-21.3563 137.748 7.98225
-13.3671 128.58 12.0893
-23.5765 140.409 4.03626
9.92631 102.801 4.66519
-24.096 140.878 4.46015
3.70451 110.086 -3.22463
-16.5201 132.132 8.28127
1.1336 112.892 -2.06272
9.47982 102.755 12.886
-9.70626 124.16 13.8631
3.27827 109.561 14.7095
2.47738 110.197 18.5509
-18.571 134.617 0.764679
-5.36949 119.964 -1.93913
2.3472 111.345 -2.58539
6.60347 106.394 0.200693
-8.54795 122.644 13.9194
5.60525 107.535 -0.737617
4.81869 108.452 -1.7881
-23.72 139.878 8.40878
-13.2419 128.79 -4.47178
-19.6231 135.725 -0.435745
-5.51426 119.116 15.0438
-16.5567 131.816 7.61953
2.71349 109.727 17.3258
3.10344 109.342 16.1234
-1.33284 114.559 11.3101
-20.9911 136.71 7.81458
-6.34503 120.722 -0.932725
9.69612 102.506 3.63934
-11.7152 126.696 -2.82123
2.7821 109.396 17.2537
9.15494 102.581 9.3422
-14.2258 128.625 11.8577
8.45763 102.763 19.1505
-10.6856 125.272 -1.78246
-15.3089 129.863 9.36347
2.40608 109.544 18.5476
-8.45256 122.647 0.0837072
-18.0562 133.427 -0.436146
-14.8625 129.273 10.6227
6.46633 104.723 22.7071
-3.52344 116.239 14.3367
3.09781 108.753 15.554
-7.71814 120.901 14.365
2.08756 109.659 19.1691
-20.3932 135.822 -0.986667
-4.54644 118.156 -3.06805
9.18342 102.117 9.48178
-18.7371 133.89 -0.49209
-7.42939 120.358 14.5989
-16.8102 131.205 7.81894
9.2171 102.003 8.8135
-17.8393 132.77 -1.18191
-4.0688 117.458 -3.4674
2.26471 109.655 10.0715
8.4894 102.167 19.2268
9.16926 101.716 12.8691
1.95405 110.537 -2.59216
8.51563 102.943 1.42885
-21.8748 137.089 -0.93844
9.64836 101.49 4.33824
2.98751 108.347 15.879
-2.33221 114.446 13.0942
2.82656 108.667 13.0049
-2.2064 115.07 -3.89276
-10.8095 123.671 13.8999
-0.32573 112.746 -2.71844
9.215 101.183 13.7975
-20.8821 135.677 -1.43792
8.62762 101.517 19.1353
-9.66924 123.003 -0.399647
2.14532 108.609 21.8044
-9.53864 122.836 -0.325554
-21.6173 135.922 7.61441
2.6213 108.287 16.4807
8.41151 101.584 19.4847
5.91214 105.395 -0.438425
1.26332 110.095 9.12764
1.57937 109.085 21.3431
-3.45586 115.086 14.2188
-7.35779 119.371 15.1483
6.62035 103.296 22.98
-10.3745 122.766 14.4382
7.34258 102.521 21.9195
-4.65327 117.215 -3.33308
2.70442 108.076 13.4657
-9.06974 121.169 14.6631
-25.0011 139.483 3.81658
1.88552 108.397 21.9083
2.41117 109.064 -2.84211
-10.1234 122.977 -0.818082
9.52992 100.598 5.44255
9.26306 100.442 13.8728
-18.2249 131.999 -1.45648
-16.5678 129.626 8.41956
8.07938 102.382 1.06573
-12.7972 125.974 -3.04941
9.34483 100.417 11.5883
2.38252 108.179 11.9147
-19.2718 133.015 -0.407079
6.57522 102.823 22.8856
-11.7394 123.666 13.7465
2.22211 108.863 -2.80257
-19.2177 132.752 -0.504648
-9.23958 120.768 14.9676
-2.83892 113.609 13.532
9.24275 99.8728 16.9951
-20.4684 133.513 9.10575
-3.45895 115.109 -3.96114
-24.7597 138.334 7.9754
-14.4879 126.48 13.1912
-10.6005 122.821 -1.03924
2.99208 107.651 -3.08295
-4.44651 115.042 14.8914
-4.33565 114.83 14.8025
-2.97712 114.29 -4.12777
3.78491 106.665 -3.14681
9.54686 99.6401 7.61845
8.90497 99.7858 18.2289
-21.7962 134.65 8.67605
1.45464 108.561 9.60508
8.25124 101.328 2.22883
-24.1385 137.636 1.31758
-10.5212 121.674 14.9667
-0.59156 111.489 -3.25168
-22.6379 135.595 7.65132
-9.8531 121.595 -0.338736
-0.275384 111.003 -3.18791
8.69035 99.7458 19.0066
9.37393 99.1594 14.2726
-23.7056 136.94 0.0534779
-2.55518 112.533 13.2282
-7.60561 118.911 -0.76305
3.77587 104.878 23.297
-4.77863 114.843 15.0787
-14.0893 126.245 -3.84747
-6.88584 117.176 15.388
0.327563 109.397 9.06831
-21.4106 134.237 -0.856017
-0.463151 110.876 -3.4034
8.53055 99.599 19.4843
9.295 98.9062 15.5621
1.23974 107.821 17.473
-0.318375 110.641 -3.38203
-11.0767 121.694 14.8709
0.193501 109.958 -3.24331
2.25225 107.633 -2.8891
-5.21808 116.019 -3.33469
1.84904 107.323 11.0544
7.5942 101.427 0.653386
7.9096 100.928 2.09457
2.14089 106.699 15.2582
1.5294 107.257 16.9471
-7.31626 118.101 -1.13998
-8.66218 119.557 -0.200507
-24.2715 136.603 8.00387
0.630241 108.086 20.071
-25.9431 138.548 5.96716
-5.07102 115.618 -3.44181
-16.7649 128.734 -3.84807
-2.54642 111.833 13.107
9.40536 98.6319 9.4988
0.803873 107.678 20.6215
-10.4827 120.57 15.2406
-3.48273 113.621 -4.14611
-21.5742 133.656 -0.661332
-19.8288 131.709 -0.838912
2.62862 106.667 -3.00194
1.96737 106.608 12.3155
-8.19745 118.652 -0.552446
7.49109 99.9054 21.5174
-14.2417 125.513 -3.31581
-16.859 127.686 11.2769
2.17236 105.782 22.4294
-24.8847 137.114 1.95031
-0.94674 110.588 -3.94251
-24.0767 136.287 -0.00723438
5.021 103.796 -1.94839
0.651177 107.575 17.8728
-15.8647 127.115 -3.79352
2.29234 105.374 22.949
7.84579 100.138 2.70254
-9.67722 119.867 -0.119928
9.31363 98.0467 10.1822
-20.7778 131.746 9.4536
-1.91997 110.582 10.3057
7.11949 99.8511 21.882
0.761372 107.016 20.4131
-16.767 127.037 12.1213
9.31792 97.8508 10.9107
1.47801 106.225 16.2398
-2.65795 111.018 13.0702
-12.1041 122.349 -1.52134
-20.2024 131.242 1.32703
7.55912 100.083 2.33863
-20.3778 131.37 1.32058
-2.14635 110.348 11.8964
-7.73332 117.269 -1.00443
6.44599 100.149 22.5651
-10.1472 119.897 -0.301964
-15.6162 126.178 -3.53128
-25.1348 136.482 2.8491
-1.91422 110.106 9.82995
-7.54846 116.115 15.3174
-19.8482 130.133 8.49031
6.06905 100.3 23.0549
9.19405 97.4324 10.167
-6.71621 114.964 15.4574
-17.7119 128.174 -3.47536
-2.1612 109.947 11.4689
-4.83412 113.731 -3.87466
-11.2418 119.862 15.0628
-0.058253 107.127 18.9913
-9.45017 118.637 -0.326401
-18.4522 128.802 -2.56328
-23.8253 134.609 -0.363394
-19.0795 128.807 8.27032
-14.4144 123.28 13.8817
1.48678 105.366 14.9787
-19.2199 129.341 -0.756486
1.50851 105.469 11.9109
-20.5678 130.327 9.31346
-7.07147 115.784 -2.07799
-11.036 120.135 -0.644331
4.29866 101.594 24.461
2.40504 105.132 -3.46805
-19.8705 129.917 -0.579442
-15.3917 125.027 -3.08109
-2.50719 110.625 -4.30127
-19.997 129.914 -0.0103255
-19.5614 129.45 -0.474908
-0.00439537 106.575 17.9645
1.18057 105.354 15.7113
-7.66652 116.077 -1.39487
-17.3996 127.055 -3.80759
-22.3343 132.435 -1.51549
-20.5285 129.793 9.6812
3.91761 101.618 24.5369
-19.006 128.026 9.5461
-15.3765 124.583 -2.82765
-20.8165 130.368 1.33321
-6.58093 114.614 -2.95624
8.51693 96.6559 17.111
-2.29416 109.863 -4.36388
1.52531 104.172 22.8804
-2.04257 109.519 -4.44952
-0.252541 106.296 18.0467
-24.957 134.487 7.5809
-8.98301 116.162 15.1612
-11.4626 119.737 -0.970915
0.0214781 105.768 19.8859
-20.6131 129.46 8.5267
-18.6618 127.78 -3.42735
8.43092 96.3269 17.4182
-13.666 122.002 -1.86276
-13.9296 121.438 14.7063
-6.48814 113.056 15.4031
-15.7394 124.327 -2.98954
8.73175 96.1983 10.6605
-20.3631 128.869 8.69042
5.06669 100.916 -2.28873
-13.9982 122.239 -2.02544
-27.4054 136.67 6.93969
1.1541 104.303 13.7795
-7.17781 113.532 15.5246
-16.8521 124.401 14.5905
-17.7514 126.394 -4.50355
-21.2694 129.523 10.1698
-0.411226 105.608 19.6711
-10.2518 116.794 15.0929
-12.6831 119.517 15.0696
-20.8 129.289 -0.284852
-21.056 129.066 8.97677
8.60938 95.9493 6.77922
-22.2856 130.338 10.7433
-12.8331 120.357 -1.455
-10.9696 118.214 -0.868657
-21.9951 129.963 10.3722
-21.7995 129.736 10.4573
1.05624 103.425 22.927
-21.3276 129.222 8.76518
-0.550442 105.48 17.7602
-26.1582 134.902 2.61
-25.6371 134.365 1.58717
-2.54687 107.956 12.1683
-13.7595 121.189 -1.88452
7.64414 96.0262 20.6907
7.29195 97.3214 3.23378
-21.383 129.583 0.120471
5.11754 99.972 -1.92054
4.4037 99.3177 25.0591
-21.0565 129.04 1.33668
-10.1646 116.924 -0.551939
0.902389 103.833 11.6141
-20.332 128.158 1.09361
-24.4783 132.394 8.85331
-24.1747 132.548 -0.842919
-5.65721 110.977 15.1162
-18.8164 126.661 -3.22565
-18.7856 125.768 12.9153
-4.16765 109.309 14.4262
-21.8463 129.306 10.3373
-23.9176 131.624 9.75984
-0.947611 105.384 17.9687
-13.305 119.324 15.2335
-16.8879 124.33 -3.98923
-2.33019 107.214 10.4737
-13.7558 120.604 -1.87432
-18.1229 125.602 -4.55932
-23.2989 130.565 10.947
-10.6539 117.006 -0.717874
-11.7718 118.285 -1.40956
-25.5776 133.522 1.23674
-23.1589 130.299 10.8835
-24.903 132.363 8.5371
0.0692786 104.233 11.0042
8.12063 95.1417 11.8658
-9.55184 114.753 15.0905
0.00369943 103.665 21.492
8.04867 95.1024 12.6118
6.37556 96.4426 22.8323
1.20437 102.212 22.8764
4.37044 99.9978 -3.00891
-2.50592 106.935 11.1681
-28.4429 136.211 6.61997
3.66673 100.766 -3.54707
-26.0097 133.403 7.92714
-3.83491 109.18 -3.93759
-10.9294 116.958 -0.830174
-27.142 134.644 7.61636
-25.0349 132.63 0.449829
-20.7532 127.786 1.19578
1.25574 101.934 22.7985
-23.4957 130.234 10.7812
0.257527 103.372 15.4239
-23.0153 129.706 9.6315
-1.62337 106.448 -4.78278
-12.5762 118.568 -1.98909
-8.25893 113.675 -1.75093
-22.0071 128.534 8.42657
-25.2277 132.128 8.62779
1.21407 101.745 22.6846
-5.92364 110.083 15.1005
-0.411155 103.802 16.1684
-28.0553 135.154 7.65726
-13.8034 119.651 -2.23641
-22.1011 128.381 8.53029
-14.2375 120.132 -2.46395
-25.2936 132.335 0.533743
-21.0661 127.486 0.860214
-22.1778 128.274 8.46154
-19.7585 126.105 -2.0408
-13.3265 117.969 15.2972
-21.9637 128.391 0.391531
-12.1366 117.315 -1.4888
-10.3838 115.321 -0.955326
5.84579 95.8683 23.588
-28.3861 135.021 7.7904
2.80179 100.7 -3.99387
-1.55828 104.463 17.3791
-0.662992 103.468 16.1064
-11.0774 116.016 -1.07384
-21.4119 127.006 10.1734
-0.977587 104.08 10.931
-27.7713 134.241 7.92982
7.77715 93.9203 16.6638
7.95406 94.2196 6.70303
-14.4231 118.822 15.2933
7.674 94.2488 11.803
-3.29877 107.275 -4.24909
7.64988 94.4974 5.5322
-18.9583 123.91 12.8008
-20.5549 125.769 11.0538
-1.51515 104.471 10.3373
6.3448 96.1114 1.67724
-23.6493 129.898 -2.13217
-19.8781 125.645 -1.7722
-20.4647 126.291 -1.95143
-17.9802 122.623 14.5906
-6.23978 109.426 15.064
-22.3443 128.245 -0.571171
-0.126035 103.517 -4.15168
-19.7005 125.408 -3.61411
-4.49816 108.405 -4.04203
-25.8196 132.03 0.82391
-19.2672 124.038 12.5461
-4.69018 107.588 14.418
-14.9303 119 15.0826
-14.5623 119.517 -3.00111
-1.55251 104.186 10.6102
7.70735 94.0468 5.99036
7.63628 94.0995 5.82134
-9.08018 113.179 -1.54572
-15.9571 120.975 -3.71454
-23.5923 129.378 -1.57086
3.59842 97.4544 25.721
-20.5269 125.742 1.2386
-3.82439 107.306 -4.09939
6.28523 94.6015 22.337
-1.17757 104.31 -4.01732
-8.22086 111.167 15.6567
-1.56303 104.717 -4.17807
8.05777 93.3309 7.59722
-19.496 124.784 -4.00986
-7.02789 110.784 -3.75291
6.59209 95.2104 2.36864
-13.7681 117.329 15.4902
-0.871222 102.565 21.2375
5.55871 95.1443 23.8006
-20.5989 125.592 0.563087
-8.22039 110.909 15.6721
4.93485 95.639 24.8459
7.49254 93.5232 9.88696
7.57759 93.0943 15.6134
-20.5047 125.44 -2.30218
7.10639 93.3307 20.1879
7.90684 93.1117 7.03816
-23.653 128.365 8.7256
-20.2783 124.427 11.6707
0.937939 100.087 22.6913
-15.6278 119.007 14.8772
7.90821 93.0174 7.07101
-5.37924 108.428 -4.2077
-12.3353 115.184 15.1385
-21.3918 125.578 10.0516
-23.5221 128.021 7.9137
-25.5714 130.805 -1.54868
-2.23659 103.651 17.9812
-19.0421 123.579 -3.83714
-20.1144 124.623 -1.89203
-19.9284 124.36 -1.74231
-18.2374 122.561 -3.68454
-24.4821 129.384 -1.8378
-29.1437 134.117 7.55176
7.0385 93.745 4.18586
-17.6374 120.749 15.1604
7.02117 92.9053 17.9976
-4.0184 105.474 13.5785
4.99948 94.7599 24.7657
-18.1154 121.14 15.1117
-22.8801 127.316 -1.14335
3.94223 95.8721 25.6859
-23.1959 127.66 -1.24967
-27.2261 131.629 9.21608
-7.67382 110.375 -3.36946
-25.5926 129.625 10.2301
-5.0099 106.327 14.5888
4.17726 95.4226 25.499
-26.3254 130.335 9.88259
-0.642425 101.24 14.3372
-20.9369 124.658 0.562186
-5.79407 106.925 14.6824
-4.46953 106.419 -4.19708
-28.7022 133.06 5.09702
7.1897 92.2326 16.8816
-22.2355 126.067 -0.51129
-26.2947 130.612 -1.09779
4.00785 96.6951 -2.50848
6.47327 93.6215 2.91665
-26.4029 130.59 -0.94257
6.22408 93.8681 2.21041
6.25107 93.7997 2.28489
-23.2999 126.575 8.06917
-0.188116 99.9479 22.3746
7.08787 92.0798 14.5964
-24.7587 128.551 -1.08651
-21.0225 123.701 11.4719
-25.9915 129.889 -0.713628
-19.3732 122.62 -3.57458
-28.2367 132.152 3.71375
-21.6765 124.497 9.42252
-15.5208 117.266 15.4838
-22.1316 125.01 8.87147
-4.79157 105.304 14.3887
-27.9067 131.393 9.642
1.83789 98.7819 -4.009
-23.3081 126.295 7.67251
-17.7215 120.613 -3.96654
-4.19163 104.58 12.4149
-10.374 111.278 15.5929
-21.294 123.738 11.0077
-27.2339 130.89 1.03464
-22.3942 125.48 -0.362661
-0.807196 100.16 21.5534
-1.5157 102.223 -3.49003
-13.745 114.933 15.4365
-21.2576 124.203 -1.5406
-7.03043 108.365 -4.17924
5.53952 93.9997 1.10254
-13.0821 115.007 -2.26121
4.10168 95.7405 -1.89352
-21.3612 124.1 0.832026
-20.8918 123.662 -0.893955
-20.737 123.61 -3.38844
-25.3948 128.175 8.93777
-14.4325 116.488 -2.62338
-18.2346 120.767 -3.81715
-27.7634 131.119 1.92937
-27.9361 131.279 2.28977
-22.5335 125.3 0.223736
6.89557 91.7582 10.5711
6.48946 92.5307 4.00249
-28.356 131.574 2.97974
-6.90309 106.9 15.2
6.95619 91.2624 17.2424
-15.0609 115.97 15.9759
-10.8228 111.205 15.4749
-6.19853 106.92 -4.16453
-16.4084 117.342 15.2142
-23.1634 125.428 4.45329
7.17657 91.2033 8.98747
-6.01472 106.653 -4.11071
6.78961 91.4872 11.0143
-21.1291 123.456 -2.66937
1.24736 96.8819 25.7719
-17.9156 118.877 15.3832
-26.6145 129.415 -0.186298
7.4747 90.8684 6.77763
4.85569 92.8488 24.7387
-9.93096 110.733 -1.9748
-5.0017 105.31 -4.31662
-14.5082 115.821 -2.59652
4.65708 94.2133 -0.375447
-18.6417 120.474 -3.73894
-26.4086 128.411 10.4738
6.04618 92.4054 3.3283
-25.7185 127.695 8.34747
-22.1077 123.983 1.64534
-20.0057 121.033 12.7542
-4.79144 103.942 13.2815
7.33069 90.7035 6.69048
-25.3213 127.108 9.32037
3.80252 95.0879 -2.2038
-23.5206 125.193 7.03075
-26.7032 129.122 -0.00346659
-19.2371 120.917 -3.53479
7.37875 90.5084 7.67318
6.79209 91.1637 5.71344
-23.0208 124.431 7.71625
3.98521 93.2502 25.5663
-22.0158 123.587 0.640138
5.35694 92.8222 1.72089
-22.1756 123.699 0.329541
-1.54471 99.4584 22.0608
-1.2837 99.6498 12.3031
-25.8658 127.359 8.50596
-22.8619 124.252 3.34634
6.79086 90.6636 10.6339
-7.48059 106.374 15.6563
-23.3365 124.826 1.98603
-26.1718 128.087 0.300151
6.14504 90.7526 22.2367
-29.6212 131.458 9.24799
-24.5654 126.309 -0.944029
4.90872 93.2106 0.577331
6.47092 90.7087 14.6596
-2.64344 101.793 -3.24983
-22.4538 123.798 0.0637565
3.43872 94.9083 -2.41209
-24.4721 125.828 3.34573
-23.3314 124.796 -1.64023
-2.89549 101.226 11.3899
4.95328 92.9801 0.870531
-11.3839 111.425 -2.10226
-23.6284 124.773 4.8359
-1.29223 99.3471 12.5381
-24.2655 125.525 3.76185
-1.73733 100.634 -2.94502
1.85567 95.0802 26.4452
4.18144 93.8785 -1.0682
-24.5117 125.535 7.68412
6.32696 91.1137 5.04605
-30.1762 131.91 6.25195
-23.0937 124.104 3.63316
-4.43813 103.594 -4.17745
-2.19138 99.7511 21.3607
5.98516 90.5077 22.5075
6.3827 90.3945 15.0636
-4.44248 103.491 -4.13668
-1.37999 99.9741 -3.02016
-24.7215 125.661 5.49516
-22.4667 123.39 0.454223
-23.2648 124.153 2.65971
-25.9203 126.849 7.90668
-21.7838 122.022 11.2406
-24.722 125.677 3.85582
-0.884683 98.0008 22.7217
-0.731358 97.7996 23.2304
-26.0465 126.9 8.61544
-26.1553 126.965 9.63468
-24.4413 125.367 2.78555
-4.68382 102.778 11.203
-24.4762 125.333 3.67051
-27.9668 129.398 0.261544
6.25489 90.2719 14.7185
-12.8311 111.611 15.2836
-24.726 125.553 3.139
0.089395 98.1113 -3.60529
6.94385 89.6298 9.76037
6.46116 89.7591 17.4146
-24.055 124.595 4.19963
-23.2849 123.844 1.44669
-22.4998 122.493 10.4437
-24.336 124.806 5.37771
-8.86787 106.931 15.8596
-10.7339 109.91 -1.94107
6.12409 90.2161 13.1003
-20.1766 119.666 13.1498
-22.8091 123.311 -0.981315
-5.97788 104.615 -4.18888
6.3663 89.6218 18.3434
-1.58172 98.8026 12.7397
-28.6231 129.174 10.6796
-14.8591 113.478 15.8168
-20.8597 121.2 -3.77251
-3.99043 101.109 18.5563
-22.6804 122.945 0.376284
-30.7456 131.61 7.12282
6.40417 89.4716 16.7065
5.8661 90.6704 4.71307
-21.1922 121.409 -3.81951
6.33369 89.417 18.1101
-26.1941 126.35 7.8496
-24.5874 124.603 6.69871
-0.686922 98.3216 -3.35076
6.26871 89.7191 11.2609
-26.2738 126.725 -0.658436
-1.07827 98.6047 -3.20335
-0.2523 96.3108 23.1239
-16.2403 114.523 16.1878
-7.50322 105.758 -4.41894
-10.8888 109.379 -2.09839
-6.15957 103.212 13.9457
-26.3493 126.08 8.99927
-4.23065 100.817 18.1615
-11.7665 109.384 15.4267
3.44605 93.2421 -1.82707
6.99349 88.683 9.14492
-19.2733 117.773 15.3327
-24.2133 123.879 2.28935
-22.4734 121.527 9.98369
7.00751 88.558 9.02588
-6.53882 103.41 14.3811
-5.57021 102.416 12.3559
-5.56556 102.382 12.7779
3.84088 92.5083 -0.855444
5.37317 90.5308 3.7929
-26.0279 125.451 8.23979
-24.4972 124.068 1.7295
1.16539 95.6021 -3.75498
-28.6683 128.739 0.970356
-3.69434 100.971 -3.1714
-27.2405 126.676 9.6256
6.25942 89.0785 11.0842
-21.7133 120.969 -0.458073
4.62496 91.3492 1.19558
-24.6832 124.166 1.27141
-3.37051 100.507 -2.99071
-24.4625 123.872 1.81016
-26.2264 125.508 7.92359
-26.9882 126.32 8.55984
-26.4282 125.675 7.95673
-14.9505 112.407 15.8226
-21.8572 120.408 10.6362
4.06426 91.9435 -0.297133
-0.498356 97.1812 -3.50263
-25.9575 125.06 7.67787
-24.0885 123.448 -1.691
2.96277 93.1635 -2.30903
-3.07279 99.0001 15.4122
-26.2867 125.443 6.66946
-26.5354 125.627 8.42536
-4.38459 100.273 18.5464
-27.4071 126.935 0.334244
-22.9068 121.803 1.8584
0.513648 94.3331 25.4128
-30.0551 129.704 2.91947
6.07354 88.4369 18.4033
5.76892 88.9028 15.46
-25.7785 125.058 -1.16703
-29.2319 128.784 1.32439
-10.1702 107.646 -2.93387
5.72777 89.0572 12.1731
-21.3019 120.115 -3.56649
-23.1221 121.864 1.83351
-10.4048 107.844 -2.7215
-23.29 121.999 1.9546
-25.7012 124.693 1.40201
-24.8514 123.796 0.31126
6.06366 88.0941 20.226
-24.2817 122.988 2.32572
5.67344 88.9074 12.5851
-18.4075 116.722 -3.76337
-15.756 113.685 -3.22477
-3.6501 99.3899 10.8415
-3.55526 98.8443 19.2817
-30.8112 130.079 5.54179
-5.19213 101.118 10.7041
-27.7106 126.404 8.79602
-26.8151 125.363 7.17609
-17.4333 115.425 -4.06029
2.10131 91.9156 26.6782
-4.51705 99.7419 18.6265
-11.3435 107.534 15.6762
-28.6218 127.111 10.7615
-1.91955 96.7632 19.2862
-7.23428 102.915 14.8681
-0.561234 95.0975 20.9179
-16.4659 114.184 -3.74141
-3.1315 99.151 -2.40088
-12.1595 108.319 15.4491
4.86572 88.7931 23.9964
-29.0332 127.913 1.23469
-4.62952 100.087 10.7521
0.252376 93.9695 23.1713
0.78673 94.7478 -3.64233
-0.342525 94.6778 21.1253
5.74646 87.7498 22.2929
-24.0445 121.871 6.45708
-7.29471 102.63 14.7765
-8.40892 103.718 16.5631
-15.2682 112.415 -3.2372
-25.1146 122.986 5.28762
-28.329 126.399 8.78291
-26.0664 124.303 -0.60657
-26.3184 124.589 -0.773098
0.0892649 93.7217 23.8008
5.43911 88.3172 12.4195
-20.9077 117.922 10.3952
-29.1334 127.582 1.25073
-24.0615 121.628 6.34326
5.14953 88.0181 23.5561
-24.0266 121.709 3.43652
3.01074 90.2284 25.1424
-28.2464 126.096 8.12464
2.58127 90.6266 25.7625
-8.93752 105.091 -4.4987
-20.8352 118.359 -3.69798
-21.3799 118.967 -3.68935
5.50974 88.3105 6.36951
-19.1246 116.363 -3.88919
-22.6977 120.312 -3.37711
-7.39865 103.201 -3.8688
-5.9157 101.47 -3.56056
2.58396 90.4345 25.6366
-8.68131 104.596 -4.23551
-5.0285 99.3107 16.8966
0.0153138 94.6653 -3.69058
-4.07857 98.2171 15.6167
-8.04189 102.581 16.1501
-3.7514 97.7266 15.1864
5.32229 87.1573 23.0226
-25.1472 122.171 4.3991
-5.05475 98.9499 17.1062
-26.8005 124.118 0.00561371
-21.0339 117.042 11.0781
-19.4498 115.001 16.0456
-18.7077 115.181 -4.11224
-27.6016 124.534 6.789
-23.5178 119.893 8.08387
-4.85935 98.8582 10.7239
-17.3642 112.451 16.4325
-8.11478 102.108 16.0239
-21.245 117.083 10.2655
-22.4695 119.172 -3.63828
-23.6601 120.348 -0.916699
-27.1811 123.908 6.14267
-1.09805 93.9407 20.2118
6.1042 86.3901 10.1196
-14.3557 109.92 -2.91446
5.6091 87.038 7.08599
-29.6663 126.363 9.826
-28.7698 125.85 0.259813
-0.103731 92.5074 23.2705
-25.8759 122.26 5.93367
-7.75365 101.522 14.3792
-16.4224 112.16 -3.58487
5.52194 86.3391 20.196
-30.0941 126.604 10.275
-21.6916 117.909 -3.8775
3.52344 88.1836 24.6113
-11.964 106.956 -2.98081
-20.7946 115.957 12.951
-20.9322 116.982 -3.90053
-16.7207 111.194 16.4445
-15.609 109.941 16.1611
-23.7718 119.949 -0.630108
-10.3661 103.978 16.6345
-3.31324 96.911 -2.36768
4.82727 86.7314 17.6301
-3.94595 96.6558 14.7333
-3.69265 96.4441 12.898
-8.69634 101.866 16.3954
5.96941 85.7402 9.38582
-29.5265 125.5 8.9811
-2.49355 94.6912 18.1903
-11.9492 105.299 16.296
1.45536 89.7719 26.1137
-18.8955 114.124 -4.11197
-2.1554 95.2776 -3.00601
5.54738 85.8468 11.6713
-5.23745 97.6898 15.8675
-19.5632 114.756 -4.07339
-9.23092 103.04 -3.2525
4.77916 86.2148 18.5512
-6.32216 99.7298 -2.56195
-22.2559 117.03 7.65535
-10.7531 104.68 -3.94746
-1.11254 92.5677 21.2732
-4.87156 97.9602 -1.91226
-25.4283 120.635 4.6052
-28.6369 124.483 -0.723999
-16.5205 110.003 16.3614
-9.19386 102.792 -3.15028
-1.86855 93.4307 19.0833
1.09617 89.7169 26.3657
5.74183 85.3351 9.59904
-2.17821 93.7599 17.8921
-4.10222 95.8484 18.4248
5.82384 85.2033 8.96244
-23.5294 118.665 -2.81339
-6.28131 99.3139 -2.28947
-23.8217 118.457 6.89209
-22.7784 117.236 7.12618
-8.14581 100.484 13.8781
-0.463871 91.2278 26.4306
-3.15087 95.6041 -2.49709
-0.822252 91.704 22.0022
-21.6325 115.6 10.5126
-4.77883 96.313 18.4406
2.77066 88.829 -0.545878
-32.236 127.577 7.81592
-3.6991 96.1107 -2.20515
-31.2068 126.553 4.46652
5.49862 85.2595 7.39092
4.43853 86.5619 4.69127
5.59956 85.091 7.8978
-1.09667 91.8603 21.5765
-32.2482 127.477 7.41424
-24.1318 118.769 -0.244652
4.79565 85.1292 23.0814
-29.5174 124.758 -0.122771
5.48962 85.1191 7.44958
-27.5394 122.04 6.97086
-24.0436 118.141 6.18644
-0.330866 90.5677 25.685
-4.73394 96.0355 14.9368
-30.5281 125.134 10.3579
-7.58505 99.3067 12.1272
-7.05945 99.4523 -2.32624
-9.99045 102.754 -2.99527
-2.97238 94.8589 -2.63466
-21.8824 115.43 8.54109
-0.21579 90.32 24.8083
-30.8722 125.356 10.9743
-18.8448 111.582 16.6912
3.83242 86.8474 3.62841
-24.3141 118.58 -0.751947
-31.056 125.449 10.9408
-0.281147 90.0915 27.0573
4.99126 85.3034 5.52714
-6.03667 97.0233 17.3354
-4.67812 96.4921 -1.84081
4.91877 85.3428 5.38908
3.08089 87.6348 0.686407
-11.2873 102.866 17.2585
1.95147 89.0098 -1.65908
-15.5098 107.629 16.3406
-7.28949 98.6553 11.4062
-28.8579 122.952 8.06758
-24.5479 118.416 1.75411
-30.8602 125.006 10.971
-4.27724 94.8217 17.9989
4.14002 85.0577 24.4386
3.61616 86.756 2.99372
-30.23 124.28 9.78968
-17.3244 110.487 -3.08438
-25.4194 119.184 3.92898
-8.06897 99.2809 12.8687
-19.9286 113.442 -4.09235
-1.2801 91.2083 21.5937
2.95335 87.5568 0.489189
-24.2885 117.747 5.60184
-29.9931 124.364 0.354544
-13.0233 104.486 16.8082
-24.5204 118.263 -0.762894
5.41816 84.2317 8.91707
-10.522 102.652 -2.86057
-4.72325 95.0316 17.9719
-0.598419 90.0641 23.8919
3.22478 86.9434 1.49575
-0.0670934 89.2931 27.1126
-2.08733 91.9494 18.3675
-30.5912 124.731 1.1272
-21.9963 114.637 9.64161
-5.47358 95.988 11.042
4.02121 85.7062 3.98954
-20.1102 113.116 -4.07987
4.79971 84.7175 5.29379
-11.0568 102.887 -2.84589
-10.2907 100.973 17.2445
3.96302 84.9606 18.1548
-22.9727 116.225 -3.21785
-18.2454 110.9 -3.29817
0.927142 89.4221 -3.25664
4.98204 84.378 6.12709
-0.567261 89.4849 27.3215
1.54179 88.6272 -2.017
-13.9089 104.912 16.6408
-22.0038 114.129 12.5277
-3.32898 92.9525 17.4359
-31.742 125.504 3.27904
-23.7057 116.816 -2.79059
-0.652928 89.5013 25.418
1.86884 88.0574 -1.2421
-24.7984 117.898 -1.12809
3.48628 85.9809 3.27025
-14.9408 105.932 16.4018
-10.5645 101.987 -2.4666
-0.79754 89.5616 26.0317
-31.3112 124.448 10.732
-6.23634 96.0745 15.5047
-6.7975 97.5208 -1.50673
-2.19729 91.3288 18.4929
-5.84473 95.5698 14.5227
-13.8992 104.396 16.8752
-5.76268 95.245 17.5254
-14.9781 106.625 -3.33879
3.75562 85.2623 3.50415
-8.46813 98.43 13.4623
0.689694 89.039 -3.27373
-2.18037 91.1628 17.0739
2.10254 87.2758 -0.497539
-8.84266 98.6986 14.4909
3.70515 84.4392 18.0946
-10.1617 101.006 -2.39866
-32.6479 125.544 9.93014
4.33539 83.433 22.6224
-24.89 117.283 0.784685
3.74138 84.3188 17.6723
-23.3449 115.184 7.27684
-31.9083 124.939 3.48186
-2.211 90.857 18.2359
-24.8988 116.89 5.33399
3.77707 84.1539 17.229
3.78255 84.8601 3.48404
-25.0944 117.42 -1.0684
4.62029 83.4925 11.2325
-8.61541 98.1759 13.7191
-6.11511 95.382 13.5406
-23.0993 115.156 -3.22676
-32.859 125.436 8.63066
-1.87634 90.0652 21.5436
-32.5256 125.294 4.11608
-15.6039 105.684 16.7556
-32.0649 124.443 10.3909
-6.07508 95.2866 10.9821
-6.74859 95.8177 14.5711
-22.4201 113.656 8.9239
-22.8667 114.208 7.57786
4.34968 83.8859 4.37579
-1.38882 89.3302 23.1572
-24.7357 116.341 5.60233
-32.858 125.145 9.90599
-15.8545 106.722 -3.46212
3.93998 83.1252 23.867
-2.22018 90.3187 17.7764
-7.38928 97.0364 -1.30419
-31.5825 123.917 2.3312
-6.65946 96.1271 -1.27076
-22.483 113.19 10.1604
-8.9842 97.7805 14.461
-10.8916 100.772 -2.1225
-24.5654 115.66 6.04069
-7.4138 96.74 -1.23348
-11.1593 99.8073 17.6266
-11.2793 100.958 -2.02147
-21.4625 111.461 15.0465
3.71008 83.216 15.713
1.1673 85.3909 27.6196
3.72264 83.0668 17.1055
-25.5345 116.685 0.244022
0.366654 86.1787 27.7047
-15.0988 105.078 -3.24297
-24.8308 115.881 -1.71147
-32.3345 123.954 4.54575
-13.2623 101.894 17.7409
-25.2674 116.296 -1.13906
-23.316 114.148 -2.99533
-12.5353 100.896 17.8647
-16.2524 105.039 17.2277
-6.44145 94.2868 12.5274
-33.3714 124.755 6.0319
-33.4806 124.73 8.31279
-8.59064 97.3248 -1.16692
-3.22562 90.3581 16.7214
-16.6715 105.378 17.309
4.7265 81.9653 6.66678
-24.7788 115.433 -1.80849
-7.16502 94.9001 13.6337
-6.74304 94.4538 12.7356
-26.1365 116.739 1.72958
-13.3702 101.605 17.838
-1.90764 88.5534 21.8956
3.49729 83.4838 2.78199
-17.7074 107.542 -3.2809
-1.17784 87.6377 23.2354
-8.32629 96.9019 -1.13745
-1.02169 87.3364 24.732
-25.3647 115.924 -1.03113
-6.95713 94.5857 12.4169
-6.26209 94.4817 -1.24746
-6.94225 94.3516 15.4561
3.43842 82.2409 24.3792
3.47195 82.6662 15.3659
-2.96253 89.8019 16.6742
-6.45444 94.619 -1.19691
-8.84852 97.2886 -1.09839
4.63447 81.6312 8.42177
-4.78927 92.6976 -1.69132
-21.0476 109.982 15.961
-6.78874 94.1805 12.5532
-2.77518 90.4493 -2.69427
-5.70539 92.6444 16.7326
-6.96831 94.2712 12.5567
-3.29988 89.9298 16.6755
-2.27783 88.5421 20.7348
-19.0748 108.544 -2.31949
3.64145 81.7565 23.3927
-7.05247 94.1502 14.8712
-2.23181 88.638 16.4548
3.4227 82.3027 15.6811
-0.566505 87.7097 -3.24095
0.692889 86.2119 -2.03926
-23.7581 113.627 -2.70356
3.64034 82.5814 2.83243
-6.9732 93.9589 11.0958
1.97744 83.0797 27.4507
-15.8791 103.588 17.5855
-9.8613 97.8089 -1.11923
3.45606 81.9741 16.5444
-7.17953 94.0734 12.6936
-9.14875 96.2342 13.3591
3.59369 82.4929 2.72615
0.40467 84.7527 27.7812
-15.1642 103.744 -2.35245
3.3098 82.1265 15.3856
-5.66647 92.2712 12.4564
-7.68762 94.4237 12.6626
-6.22482 92.7696 12.8531
3.21785 81.6242 22.6752
-18.7793 106.504 17.1767
-6.42666 92.7069 16.1623
-21.2676 109.217 15.9262
-16.4098 104.714 -2.38435
-18.113 105.588 17.3578
-12.1435 98.85 17.9003
2.96584 81.4977 25.6117
-25.9217 115.17 -0.287255
3.10809 82.5439 1.90889
-10.6467 98.1126 -1.29831
-23.4685 111.923 8.29281
-25.4809 114.338 4.96403
-4.50991 90.2489 16.5002
-14.22 101.033 17.9612
3.5255 81.3751 13.6708
-34.167 123.879 8.03811
0.361545 85.7518 -2.63675
3.69362 81.1691 13.0105
-21.6252 110.355 -3.199
-6.08072 92.8421 -1.37287
-1.25342 86.2107 22.1666
-9.93121 96.3049 14.6673
-12.1806 99.549 -1.49097
4.17991 80.566 10.1182
-2.93604 89.1878 -2.70711
-2.12852 86.7544 26.5946
-4.63062 90.1121 15.73
3.15974 81.4227 14.4574
3.23464 81.1741 16.8746
-1.60725 86.2825 21.4173
-15.843 103.426 -2.04233
-5.10032 90.4556 16.0142
-15.8132 102.356 17.7496
-4.37755 89.8977 10.2005
-3.95816 90.0552 -2.23815
-4.80502 90.303 9.96108
-26.2323 114.688 2.40089
3.88871 80.7851 5.33315
-3.64165 88.9719 9.77942
-7.21475 92.8409 11.7188
-22.0064 110.115 -3.23979
-2.88563 87.9261 11.3767
3.49243 81.1207 3.60796
-2.94755 87.9112 10.6452
-5.19645 90.5069 9.0625
1.88191 82.9532 0.610839
-7.08029 92.402 10.9603
-7.69375 93.0093 12.4701
2.88796 81.7229 1.3515
4.01116 80.1816 6.7258
-2.68327 87.3409 12.9586
-4.54247 89.4597 11.988
-2.20487 86.069 26.7169
2.75331 80.7725 21.3064
-23.9942 111.392 7.07438
-18.0277 104.032 17.4726
-11.1974 96.487 15.3193
-9.6085 95.5188 -0.860128
0.43964 84.3105 -1.99301
-4.82661 89.4783 11.4634
3.31941 80.2221 12.984
-0.141417 83.3202 27.9687
-7.82838 92.7234 12.0388
-2.482 86.6895 11.7008
-9.20687 94.2258 11.5041
-7.18953 91.9637 11.4808
-2.17257 85.8743 20.2331
-8.6344 94.1658 -0.853628
1.68814 81.0956 27.8729
3.02093 80.1464 17.1112
-2.53329 86.6428 11.151
-2.59333 86.3127 18.7235
-0.126099 83.069 27.9847
-3.80594 88.1855 8.78791
-23.6525 110.979 -2.22747
-1.74978 85.29 19.4129
-21.7079 107.808 15.6454
-20.1444 106.913 -2.40543
-22.2996 108.405 14.1785
-19.1001 105.614 -2.95186
-13.5316 98.2384 18.1108
-14.6433 100.45 -1.94991
-7.20936 91.3795 11.5413
-5.22187 89.2645 9.06823
-18.0079 104.135 -2.34902
-1.36393 84.3342 19.6542
3.2423 79.997 3.73119
-8.30703 92.5268 11.2379
-1.85048 84.6759 22.3351
-3.52351 86.9098 14.7838
-3.65338 87.0465 14.7037
-21.8446 107.37 15.5288
-1.43784 84.4243 16.2089
-2.60763 85.8119 13.7345
-1.63058 84.6541 14.138
3.48002 79.2837 5.56931
3.61436 78.8103 9.53273
0.0511488 83.4157 -2.55694
-18.345 102.913 17.4075
-5.08724 88.4641 8.30745
-7.40384 90.9088 10.9861
-22.1104 108.054 -2.6913
-14.6589 99.6343 -1.94384
-8.01435 91.4444 12.2776
-22.9805 108.948 -2.09166
-25.7327 111.959 -0.715343
-26.3571 112.494 2.20276
-1.81264 83.5711 27.7264
-0.149248 83.2485 -2.75816
-24.4385 109.769 9.97517
-11.9907 95.4643 15.8906
-10.6604 94.7796 -0.842315
-0.632685 82.028 28.032
-2.44585 84.2861 22.9988
-21.6549 107.098 -2.26559
-12.4264 96.6906 -0.909375
-17.1033 100.867 18.0079
-7.6726 91.285 -1.16807
-22.9005 108.363 -2.35991
-1.91188 83.2645 27.757
-8.96292 92.005 11.4547
2.45518 79.6947 0.917949
-14.4173 98.7169 -1.59908
-16.542 101.116 -2.14147
0.230408 82.2557 -1.82135
-7.70779 90.4421 11.5889
2.14695 78.8339 21.5291
2.0981 78.8432 21.6428
-8.14623 91.477 -0.930105
-3.07008 84.4513 24.9207
-7.68026 90.8409 -1.11798
-23.8805 108.362 10.8103
-24.2784 108.812 10.5342
2.85432 78.211 13.7052
-22.546 107.433 -2.31549
2.51184 79.1737 1.058
-10.6591 93.222 14.1429
-13.2076 95.824 17.2559
-10.2951 93.4632 -0.731203
-11.1051 93.5465 14.8534
-2.19099 83.6147 13.4871
-23.4546 108.182 -1.90055
-17.9504 101.019 17.3498
-25.3636 110.026 -1.00159
-17.6908 100.477 17.4215
-20.9685 105.185 -2.74794
-26.3523 110.988 0.459781
3.29497 77.3074 9.63378
-13.5489 95.7117 17.8643
-6.86521 88.6316 9.83507
-23.5286 106.972 12.7323
-9.45699 91.1961 12.8676
-12.9716 95.7312 -0.679128
-11.8793 93.6911 15.0038
0.18744 81.0196 -2.16592
-19.2295 102.737 -2.40319
-0.662439 81.8854 -2.53685
3.13821 76.9115 9.85998
-11.8804 93.425 15.7291
-3.43919 84.2493 10.1896
-7.83334 89.7316 -0.887187
-4.97539 86.5496 -2.00097
-11.2948 92.7003 15.6908
-24.081 107.783 -0.829438
-23.9615 107.631 -1.10704
-21.223 104.626 -2.86308
-3.15151 83.0194 23.0752
-4.15568 85.3882 -2.11415
-7.76684 88.8047 9.98455
-4.11363 84.841 7.44651
-23.4737 106.189 13.6926
-24.8596 108.479 -0.609805
-1.91654 82.8482 -2.19288
-3.27435 83.562 12.9353
-10.7426 91.8642 13.9044
-10.3326 91.4031 13.247
-25.8201 109.352 -0.571008
-10.4746 91.4048 13.2613
-3.15821 82.4885 26.9533
-2.9112 82.4534 21.8786
2.65712 76.9238 7.81419
-3.44612 84.2353 -2.01414
2.56488 76.983 7.38586
-9.29116 90.0419 10.9135
-15.7885 96.907 18.3048
2.10463 77.6606 2.16622
-4.1331 84.3197 7.45297
-14.3521 95.1746 18.6946
-26.3671 109.582 0.182347
-10.5761 91.8886 -0.466526
2.08722 77.5297 2.88253
-21.8088 103.607 15.5109
1.89937 77.6782 0.320497
-25.8193 108.396 5.69405
-24.331 107.052 -0.559184
-13.8169 94.2373 18.7414
-15.1241 95.7026 18.3892
-13.788 94.1814 18.7023
-6.43546 86.9739 -1.54412
1.41952 78.1249 -0.674432
-3.64855 83.3865 7.01021
-11.2957 91.5508 13.8946
-9.00726 89.1459 10.791
-7.06537 86.9512 10.0053
-24.7061 106.71 9.38577
-5.58947 85.3432 8.3195
-26.423 109.112 -0.139226
-13.425 93.4894 17.8846
-3.89903 83.2861 8.09939
-12.6914 92.6568 16.8599
-23.6643 105.042 14.108
-26.0554 108.216 4.48991
-25.7211 107.652 7.59473
-10.9046 91.4647 -0.412721
-0.812218 80.1964 -1.97363
-23.9897 105.349 12.8114
-17.1923 97.2579 17.5496
-17.0209 97.0419 17.6145
-6.08845 85.258 8.27351
-19.6383 100.896 -2.11665
-17.814 98.8222 -2.03243
-19.3377 99.5569 16.4095
0.263515 78.5171 -1.40234
-7.45452 86.5554 10.0856
-10.5508 90.5721 -0.509161
-21.5171 102.935 -2.49693
-12.5926 92.8169 -0.695351
-10.9178 90.1156 14.1399
-12.0792 92.1538 -0.568646
1.77757 76.4763 2.45826
-22.6111 104.016 -1.90628
-6.12914 85.0217 8.34331
2.36107 75.7389 3.78845
-24.1386 104.977 12.1109
-8.527 87.5167 10.8897
2.41359 75.5185 4.73389
-2.06532 80.8624 -2.10833
-15.4217 95.6763 -0.579446
1.97942 75.9417 2.59376
-0.228186 78.6124 -1.3458
2.45674 75.2642 4.01817
-22.4344 103.406 -1.77885
-21.6415 101.571 15.2891
-8.97408 87.5503 11.8532
-11.4729 90.9687 -0.35642
-15.4419 94.4623 17.7761
-24.673 105.13 9.26423
-13.3616 92.8949 -0.73842
-8.71701 87.0399 11.6237
-6.90015 85.6775 -1.3949
-23.0629 102.92 14.4812
-15.8799 94.7047 17.5773
-20.4645 99.931 15.6372
-6.36528 84.457 8.51076
-22.4131 102.088 14.9202
-20.6549 100.915 -1.86527
-26.0722 106.574 4.24356
-8.55696 86.5467 11.6468
-11.3171 90.1719 -0.414449
-26.7995 107.401 1.65565
-6.2648 84.5537 -1.46094
-20.7484 100.786 -1.76809
-12.9392 91.9707 -0.601574
-21.6665 101.801 -2.14503
-24.1702 104.314 -0.786728
-24.0339 104.146 -0.797205
-19.8521 99.4759 -1.50177
-3.47299 81.0445 -1.8861
0.157549 76.8884 -0.951951
-6.65377 84.5164 -1.35141
-12.3976 90.0533 15.2257
-12.3579 89.9811 15.2357
-8.22811 85.5861 9.52524
-7.14242 84.8991 -1.25474
-18.2363 96.3761 16.262
-17.3331 95.2415 16.3575
-13.3951 90.7486 16.9482
-13.4854 91.7338 -0.65264
-25.4177 104.587 8.29236
-16.6835 95.2566 -0.552912
-20.226 98.3663 15.4898
-24.1743 102.687 13.7026
-23.3085 101.61 13.9379
-13.0901 90.0073 16.7779
-10.0434 86.7287 12.7533
-15.5074 92.6053 17.1629
-24.6594 103.73 -0.588513
-26.6957 105.949 0.0345424
-12.2432 89.7683 -0.388149
-3.86571 80.4194 -1.68039
-7.36943 83.7583 8.31169
-23.0712 100.945 13.7443
-18.7549 95.9814 15.3823
-16.7547 93.6853 16.2383
-18.2149 95.3484 15.4851
-1.67815 77.6526 -0.874
-24.9575 102.919 11.8603
-18.5772 95.5807 15.3114
-27.1677 105.882 1.39044
-25.997 104.248 7.47851
-0.294358 75.8622 -0.683169
-15.5568 91.9763 17.4704
-16.1999 92.7206 16.8537
-1.35045 76.9149 -0.511521
-1.08629 76.6083 -0.462638
-22.2354 99.5228 13.7977
-12.6777 88.7164 15.6076
-24.0433 101.511 13.3411
-20.7005 97.6397 14.8942
-7.90728 83.9416 -0.946954
-15.3767 91.3312 17.8465
-21.8353 99.4754 -1.02004
-2.60154 77.8974 -1.02048
-24.8086 101.93 13.0544
-14.5932 90.2421 16.9834
-18.3558 95.371 -0.822563
-27.203 105.19 0.602737
-21.7701 98.3967 13.9111
-15.0393 91.5552 -0.706533
-14.8786 90.3943 17.0981
-18.4045 94.3391 15.088
-15.4448 91.8185 -0.72978
-3.22991 78.1199 -1.04485
-11.2226 87.0151 -0.387261
-15.9802 91.3291 17.6883
-18.9565 95.6271 -1.02967
-15.7068 90.9994 17.7435
-8.2726 83.611 -0.751007
-23.9178 100.404 12.8556
-6.24697 81.2366 -1.34802
-4.35819 79.0473 -1.26426
-18.2161 93.7031 15.2449
-25.9808 102.796 7.4611
-2.39958 76.776 -0.488371
-21.8779 98.603 -0.856859
-25.8679 102.905 -0.545253
-10.17 85.1834 -0.201754
-8.70067 82.9135 8.13488
-2.20973 76.0344 -0.142725
-27.3842 103.963 3.54706
-25.8382 101.844 9.74409
-16.944 91.4345 17.1669
-11.5473 86.2862 -0.403046
-10.141 84.185 9.72129
-9.75781 83.8087 8.4166
-13.7213 87.8331 14.6244
-16.8304 90.9113 17.2911
-17.6102 91.7036 16.2933
-12.0892 85.6417 12.5989
-7.98895 81.5863 -0.808971
-24.9385 99.766 12.4919
-18.8018 92.6385 14.9491
-22.0688 96.3075 13.0637
-14.9693 89.0302 -0.663442
-24.2548 98.7023 12.8919
-15.9995 89.2052 16.6457
-8.2615 81.295 -0.766076
-12.8607 86.4102 -0.266672
-20.7345 95.1908 -1.25769
-10.8524 83.4908 9.06154
-21.0438 94.6037 13.6321
-11.6904 84.2665 10.69
-27.4784 102.245 4.90866
-11.019 83.5381 9.2719
-10.9189 83.4318 9.01006
-25.9544 100.742 -0.681066
-8.61554 81.3086 -0.676789
-17.5286 91.2903 -0.832533
-7.87781 80.4662 -0.932559
-23.3595 96.9602 13.2586
-6.88441 79.2371 -0.915914
-5.18587 77.2452 -0.547015
-6.63415 78.8756 -0.866503
-20.2919 94.1191 -0.910093
-24.7697 98.3872 12.8603
-18.0752 90.6967 15.8945
-5.7209 77.6565 -0.609724
-27.1224 101.213 5.49244
-24.9569 98.9132 -0.785246
-11.6624 83.3776 9.48801
-13.7896 86.2331 -0.269137
-25.8128 99.0581 11.612
-26.1305 100.038 -0.543719
-22.016 94.6839 13.2521
-13.624 85.1507 12.9535
-4.52047 75.6238 -0.0396259
-7.45276 78.842 -0.398282
-12.4766 84.3973 0.138584
-11.759 83.0169 9.38275
-26.68 100.166 -0.0669194
-21.5562 94.4622 -1.05659
-13.5409 84.703 12.4549
-26.4264 99.2431 10.3399
-13.4005 84.5316 12.1897
-12.3812 83.9562 0.317188
-26.6438 99.4116 9.94747
-9.31029 80.5292 -0.570603
-27.4403 100.518 4.7042
-16.155 88.1164 -0.66558
-23.7015 95.802 13.453
-27.7321 100.78 4.42428
-15.6551 86.6239 14.0007
-17.872 89.8766 -0.850093
-9.87209 80.8622 -0.361559
-23.1566 95.7138 -0.873751
-26.88 99.2075 9.71172
-12.8342 83.2869 10.2074
-24.3121 95.9708 13.2002
-11.1708 81.4307 9.14609
-26.9249 98.9516 9.75661
-27.2088 99.2431 8.10649
-23.4107 94.71 13.3129
-6.18766 75.971 0.438175
-27.2731 99.1294 8.97962
-5.76455 75.4073 0.361108
-9.60743 79.6701 -0.228256
-19.9073 90.3623 15.6424
-26.7682 98.8303 -0.00373488
-5.74919 75.2321 0.3858
-4.97973 74.3417 0.493972
-22.8449 94.389 -0.610798
-14.84 85.3904 -0.237249
-28.1053 99.9245 2.10756
-22.9949 93.6269 13.1317
-23.6235 94.2522 13.2254
-24.1478 95.5361 -0.485785
-27.4167 98.8548 4.09612
-16.8463 86.4574 14.7896
-12.2448 82.0386 0.568681
-14.1781 83.6165 11.6882
-6.15415 75.1886 0.563107
-10.9 80.5225 -0.0224095
-7.90424 76.9961 0.697567
-27.1299 98.2746 5.29879
-17.5474 86.979 16.1291
-27.4405 98.386 8.60467
-16.6194 85.9602 13.811
-19.1998 89.4996 -0.207044
-24.6565 95.6119 -0.307955
-12.0191 80.9086 9.3295
-22.8782 92.8386 13.4263
-28.2822 99.4143 2.91623
-24.5097 94.5967 13.2605
-27.5247 98.1338 7.68894
-25.9513 96.1122 11.3308
-27.322 97.939 4.20944
-18.4203 88.1787 0.0228267
-25.9886 96.0089 11.3681
-20.0804 89.8226 0.273877
-21.3839 90.4892 14.9405
-15.0128 83.4832 11.9577
-12.1793 80.7884 0.493972
-14.3719 82.8773 0.748325
-18.3882 86.2766 15.4132
-23.3533 92.5941 0.4032
-19.2628 88.0223 0.149155
-27.2584 96.5898 4.45609
-20.0631 88.6418 0.441922
-22.3617 91.0751 0.886374
-21.4048 89.9161 0.861001
-15.2777 82.4865 10.9168
-26.2919 95.3475 0.554658
-19.2876 86.4145 15.8345
-28.5128 97.3722 2.30396
-18.8564 85.8471 14.9073
-18.9034 85.8785 14.9897
-8.19317 74.5585 1.48698
-12.2296 79.0665 0.496656
-18.9023 85.7656 14.9217
-20.7634 87.6224 16.3579
-27.9125 95.8892 9.22791
-20.1211 86.7691 16.4929
-9.7857 75.8321 1.80249
-17.8493 84.2351 13.247
-25.5982 93.5363 1.16859
-14.4067 80.3565 10.3587
-15.4138 81.965 0.94381
-15.6712 82.193 0.851554
-15.065 80.9828 10.6438
-16.8075 83.4233 0.687857
-22.9495 90.2395 1.34493
-26.411 94.0875 1.28959
-25.4431 92.3261 13.0163
-27.97 95.483 5.61397
-15.0203 80.7073 10.6624
-24.9307 92.2175 1.80715
-23.1891 90.2221 1.42617
-18.7613 84.4422 14.6779
-21.4068 88.084 0.778565
-15.9035 81.7499 1.0188
-27.9679 94.9547 4.44374
-28.397 95.4564 2.54545
-10.6302 75.4595 2.73547
-15.3816 80.8013 1.38709
-19.682 84.8574 15.6565
-24.4334 90.2295 14.1745
-19.196 84.2449 14.9634
-28.4647 95.0333 6.38921
-15.5557 80.3195 10.967
-20.7651 86.606 1.05028
-13.2189 77.9927 1.78608
-23.2141 88.3302 15.2347
-12.6279 77.1119 2.41952
-12.303 76.6624 2.5823
-23.8562 89.6461 1.59823
-18.5166 82.8413 12.6848
-12.8042 76.9169 2.54244
-16.0057 80.5488 1.42302
-11.4973 75.407 3.00447
-22.4517 87.0148 15.5571
-22.8982 87.509 15.4931
-25.8828 91.4751 2.24709
-28.2892 94.0417 3.29069
-22.0885 87.1066 1.22634
-20.9274 84.9882 15.6702
-16.3085 80.0416 11.1612
-17.0588 81.3202 1.19246
-28.448 93.6277 7.09118
-28.6197 93.7924 4.52566
-28.6883 93.4862 5.95384
-14.1224 76.8812 2.8477
-14.9613 77.7541 2.58325
-15.3874 78.2055 2.31392
-24.3341 88.1857 1.85217
-20.0503 82.753 13.8729
-17.8563 80.3192 11.4399
-28.4822 92.4112 7.73164
-27.5646 90.9068 12.8473
-20.2343 82.9895 1.96545
-28.3856 91.6106 10.913
-23.8799 86.3743 14.5388
-27.6275 90.5564 12.9578
-23.2952 85.4159 14.8995
-20.1898 82.4979 1.91167
-28.1911 90.7853 11.7614
-29.0959 91.9583 2.69685
-27.7772 90.3861 2.78784
-25.6556 87.3428 14.206
-24.0705 85.5233 14.6677
-29.1355 91.5503 6.98297
-20.19 81.1623 13.5328
-27.7993 89.5129 13.1159
-29.1721 91.4951 3.27185
-18.9816 79.5046 14.124
-21.8295 82.5107 15.7213
-21.703 82.904 2.02723
-24.2923 85.1299 14.6899
-21.823 82.3097 15.526
-29.5467 91.3382 5.275
-19.2152 79.7969 2.78218
-21.4013 82.2498 2.24027
-20.8218 81.5599 2.25884
-28.1819 89.6776 3.14037
-26.2336 86.8833 14.1015
-28.6068 89.5779 11.3209
-19.0482 79.2282 2.90438
-29.6161 90.8496 6.44688
-26.8149 87.2567 13.6013
-23.8052 84.4252 2.64497
-29.2855 90.5335 2.89264
-28.9668 89.7199 10.3238
-20.8415 80.3855 14.8022
-27.5075 87.9042 13.3876
-26.781 87.0542 13.5806
-18.3413 78.082 3.2982
-21.2699 80.7489 15.0229
-21.0763 81.1372 2.53836
-28.5765 89.4484 3.28699
-27.479 87.6684 13.3158
-23.1655 83.3625 2.79234
-22.9449 82.9753 2.84045
-25.0301 85.2553 2.02924
-18.155 77.1811 3.72032
-27.8215 88.0258 2.94777
-19.9554 79.1404 2.93636
-18.1066 76.8416 3.92359
-20.1163 79.1075 2.97782
-20.8078 79.8548 3.07138
-23.763 82.402 13.8161
-21.7476 80.0924 13.9264
-28.5196 87.6775 12.5988
-29.8367 89.392 7.94163
-29.4345 89.1649 3.51137
-25.4473 84.0527 13.3029
-28.7076 87.6386 12.4646
-29.8739 89.1593 7.27677
-23.5633 82.3067 3.08579
-26.6592 85.1461 13.4014
-19.1598 77.006 3.80224
-29.9509 88.7753 8.88794
-30.0033 88.8485 8.11352
-18.9988 76.7172 4.00495
-22.9963 80.6403 12.8529
-30.0122 88.7403 5.03614
-24.7729 82.9376 2.93026
-30.0298 88.5847 5.18161
-30.1044 88.4969 8.08205
-21.3988 78.9359 3.22015
-29.4416 87.7815 3.5715
-23.9985 81.1196 12.9026
-26.7969 84.7783 2.38549
-24.0912 81.0441 13.4048
-30.2297 88.1894 6.46552
-25.9701 83.5453 3.25319
-20.3359 77.1102 3.6797
-29.3524 86.7014 11.6997
-23.923 81.0244 3.222
-30.3727 87.8717 7.00085
-29.628 86.8527 4.29627
-26.3523 83.1708 3.37937
-30.2373 87.1025 9.87334
-26.2283 82.8901 3.31834
-26.3858 82.3659 13.4856
-20.6357 76.1251 4.32337
-23.5232 79.2186 3.30662
-29.8507 85.7853 11.7422
-29.9431 85.7516 11.4891
-25.7093 80.7927 12.9772
-23.1822 78.4232 3.25781
-30.7806 86.6702 7.59786
-28.2824 83.9881 3.09837
-25.1104 79.9632 3.48126
-28.5964 83.7518 3.24716
-30.8374 86.0374 6.61895
-28.8159 83.2526 12.6687
-30.5004 85.1281 10.0202
-31.0101 85.8263 7.07129
-30.0296 84.366 11.4103
-30.1339 84.0021 10.898
-30.5083 84.2442 9.67609
-30.5166 84.2053 9.63149
-28.2527 81.1512 13.6807
-28.9454 82.2491 3.92987
-30.8438 83.9188 8.5707
-29.7945 82.781 4.13572
-28.9235 81.0371 12.643
-27.7105 79.4297 13.3595
-27.4526 78.8801 3.40249
-30.516 81.9343 5.14295
-28.7172 79.1018 12.5343
-31.294 82.1815 6.48425
-29.9887 80.4862 10.2314
-29.2775 79.2066 11.0227
