ply
format ascii 1.0
comment Created by Open3D
element vertex 1524
property double x
property double y
property double z
end_header
30.0244 91.104 8.30708
-8.40917 105.307 -6.45081
25.816 108.1 11.0625
5.25853 92.5452 -3.33236
19.1848 122.199 11.805
-13.2799 123.62 -3.65838
-13.4569 129.877 -1.98497
-6.71758 141.953 4.7181
-13.2351 130.696 -1.6234
-13.2082 124.153 -3.44263
-13.7911 122.374 -4.21443
16.6118 122.026 10.5731
29.0008 96.2735 9.4034
6.18669 131.873 8.27063
16.6774 79.449 -1.32114
-13.2393 135.462 -0.149655
25.5482 108.315 11.1922
24.423 111.453 11.5308
13.6957 107.258 5.12039
3.92465 132.629 7.47946
12.307 108.86 4.90738
4.37744 132.34 7.66313
6.57559 90.832 -2.88013
1.86664 96.6441 -3.54799
-13.2176 142.873 2.07661
9.77522 116.323 5.87156
28.1796 100.818 10.5217
17.9365 116.815 10.0735
-3.31463 137.732 5.56669
12.5897 107.986 4.99234
-8.81028 105.157 -6.20904
16.3564 107.466 6.75628
-13.3262 141.597 1.83869
-13.6032 123.944 -3.2504
-10.7002 108.903 -6.05425
9.97869 86.5485 -2.21581
-5.76468 140.632 5.28079
17.983 77.4319 -0.831979
25.3693 108.476 11.5013
-13.0226 140.075 1.6232
6.12698 90.745 -2.84704
-8.81148 144.959 5.08998
30.9402 88.1843 8.58161
14.4158 106.087 5.5467
14.4057 106.055 5.54965
22.679 114.799 12.0574
13.7999 106.298 5.33297
13.1564 82.1809 -1.73373
29.5007 92.987 9.30765
31.1862 85.9743 8.17244
-8.50348 144.097 5.10937
32.3461 81.0385 7.37709
-9.10816 107.215 -5.52754
27.3971 103.786 11.3597
-2.53842 136.934 6.07688
29.5824 92.0104 9.17043
7.5997 88.8236 -2.46709
3.23898 132.547 7.69631
12.3667 82.7128 -1.82183
-3.73628 99.4542 -4.9901
-13.632 134.016 -0.119717
-13.8501 137.763 0.834957
10.0201 114.291 5.91175
-3.65693 99.1477 -5.0147
-5.39714 138.838 5.29227
-14.3327 122.358 -3.68668
-13.9502 123.899 -3.03153
-14.3982 121.721 -3.84864
-14.1183 144.839 2.78469
-10.0525 107.646 -5.63109
-13.5532 126.984 -1.90022
11.3053 84.1055 -1.75983
-12.2655 110.661 -5.80436
11.1872 84.2994 -1.7334
4.63389 91.5265 -2.90114
5.44686 131.173 8.64938
7.56205 128.111 8.82927
18.8477 113.002 10.1071
25.8488 106.911 11.83
-9.59546 107.14 -5.42387
7.28722 128.855 8.93138
-14.2141 133.117 -0.373636
-11.0183 147.566 5.25733
-13.6615 131.89 -0.419144
17.1216 119.526 11.1667
4.20719 91.9008 -2.9017
17.8844 120.901 11.9624
11.3013 108.643 5.3171
-13.5259 116.283 -4.65867
5.76951 130.861 8.86682
15.3097 104.578 6.15375
1.35288 94.8912 -3.3689
-9.71096 106.968 -5.37899
0.712921 134.28 7.39716
-3.58092 97.9858 -4.87253
5.38439 130.981 8.77574
-1.23132 134.731 6.63752
24.3924 110.243 12.2867
22.8342 113.272 12.3825
-3.43671 136.693 6.13105
8.502 122.121 7.87534
-14.8862 136.45 0.478697
8.82788 119.704 7.37307
-2.67134 135.996 6.36344
8.27503 124.652 8.55045
18.9503 111.305 10.0242
-14.1431 134.636 0.409492
18.5629 120.476 12.426
7.20519 128.395 9.10786
-6.33248 138.66 5.43144
-14.2785 135.157 0.566581
-2.36769 97.386 -4.21172
26.4693 105.561 12.1864
-13.7605 145.899 3.86665
-6.38897 100.097 -5.38829
28.6275 95.5474 10.5345
22.9593 112.611 12.6201
22.3904 113.476 12.6398
-15.1347 135.53 0.512515
8.82382 85.4713 -1.83443
18.8266 107.962 9.37498
0.448052 133.657 7.61075
3.85143 91.0727 -2.6463
16.9915 105.638 7.88005
-14.1107 126.514 -1.43155
8.32646 122.929 8.53389
-14.8334 142.586 2.74045
18.5446 119.627 12.6385
3.03149 91.0747 -2.93658
7.61235 85.9199 -2.12887
-1.14983 134.013 7.10934
-14.1937 128.077 -0.910973
31.7708 81.9854 8.61387
-14.8725 116.38 -4.51867
-8.22192 101.273 -5.46271
1.23723 93.1287 -3.11535
-12.8683 146.864 5.1321
2.3991 90.2833 -3.26233
-15.0853 116.013 -4.57596
5.13256 88.2244 -2.4776
14.586 103.525 6.44041
-14.7247 129.29 -0.632326
-6.76109 138.39 5.8158
-9.72863 144.318 6.03971
-15.1418 141.75 2.67734
-1.92072 96.1198 -3.66917
-14.3774 130.951 0.0249781
18.4315 118.581 12.6053
-14.6754 129.249 -0.575073
-14.1843 122.004 -2.36847
-5.98745 96.844 -5.41471
-5.85703 96.6734 -5.37951
22.2158 113.316 13.0165
2.55392 89.6361 -3.24158
24.3559 109.561 13.0213
-1.52706 95.6031 -3.52864
23.3687 111.326 13.0657
4.50695 88.5653 -2.54182
19.2335 118.349 13.053
25.8374 106.201 12.8717
-14.2009 130.288 0.0697998
-15.5905 127.844 -1.26916
-14.6594 132.449 0.501881
8.91686 118.017 7.97416
6.68578 85.0946 -2.35817
16.1888 103.717 7.51799
22.9299 112.032 13.1655
-14.0048 111.69 -4.97513
-8.65663 141.249 5.94639
5.86183 128.404 9.43577
-14.7679 124.983 -1.5981
17.9237 117.223 12.2461
-5.81479 136.634 6.10632
11.1654 106.017 5.82844
25.46 106.837 13.0634
16.021 76.5808 -0.0319967
-14.6959 125.768 -1.22946
-1.02055 94.1576 -3.42222
-8.88271 141.584 6.07508
-13.6211 109.648 -5.19587
1.97642 89.3829 -3.2617
-10.1964 144.593 6.32734
-15.338 117.93 -3.6687
-6.64561 137.841 6.17285
-0.888847 93.3203 -3.49566
-7.03144 97.5124 -5.31538
12.1004 103.49 5.71782
-14.5623 127.516 -0.542554
-0.873779 93.0276 -3.52092
7.9223 82.8543 -2.07266
-8.7373 99.7729 -5.46096
12.9422 103.253 6.1198
-15.7966 136.58 1.43531
-14.9114 125.071 -1.36176
-11.3471 146.262 6.33415
19.9719 116.889 13.4089
1.89132 89.044 -3.24305
-1.35973 93.8698 -3.44241
-16.7175 132.954 0.0341727
7.59092 123.889 9.37569
8.52238 81.7708 -1.98562
10.3646 108.695 6.48441
-15.9794 133.6 0.614508
3.88307 129.602 9.21056
5.73338 84.8423 -2.44806
28.7946 93.4281 11.2348
-0.466702 91.6583 -3.55383
-14.3555 111.307 -4.82424
-1.66572 132.959 7.46017
1.93765 130.899 8.66433
-3.97721 133.415 6.48287
-4.02128 133.452 6.49586
27.9721 97.9363 12.1801
-16.6868 127.177 -1.42528
-16.2384 133.267 0.513614
0.582912 89.5597 -3.51587
11.0464 80.5919 -0.911683
7.88328 121.135 8.9344
9.5487 113.187 7.52236
-12.7309 146.276 5.9254
-12.9992 106.551 -5.34553
-13.9994 145.629 5.14347
13.0897 102.902 6.41639
3.4555 86.6868 -2.83578
-15.0535 130.311 0.386341
3.58445 129.373 9.25027
18.6771 106.379 10.1861
9.24269 80.6998 -1.62548
-14.1859 129.952 0.766023
-15.1156 122.51 -1.75296
11.5766 79.6269 -0.747655
9.19937 80.6046 -1.63193
19.5245 116.322 13.4608
-14.4598 130 0.696224
-4.62354 95.4196 -4.16691
30.9009 84.5913 10.1582
18.3206 105.758 9.9871
-11.7048 145.821 6.56419
-3.6842 132.707 6.81741
-16.6987 129.42 -0.42756
-17.9537 133.815 0.19368
-5.68331 95.2143 -4.64136
-1.93514 92.5362 -3.55952
-14.4549 120.051 -1.91882
29.9595 87.2574 10.5796
-14.2017 109.052 -4.87333
-9.71746 99.5351 -5.35118
-2.34044 132.007 7.39859
-15.1824 122.167 -1.63713
-18.263 133.686 0.0943966
-2.95122 94.2213 -3.49802
-7.23102 95.7656 -5.15545
-4.66045 95.1928 -4.05384
1.21543 130.193 8.68206
9.92389 109.588 7.15544
5.34528 83.629 -2.35842
8.60892 117.494 8.76864
-17.225 134.94 1.07083
7.58173 121.624 9.4692
8.99433 114.391 8.12934
4.49299 84.5262 -2.44409
10.468 79.2447 -1.00536
22.466 111.706 13.9824
17.5374 103.867 9.41796
17.6501 104.123 9.55081
13.7017 101.548 6.92651
20.122 115.036 13.8545
-18.3386 133.652 0.292953
2.19431 128.375 8.86335
25.6394 104.435 13.601
-14.7266 110.026 -4.55658
-2.55905 91.8911 -3.69738
-3.39907 93.8953 -3.53417
-15.964 139.668 3.20183
2.76728 85.1847 -2.93908
26.8877 101.847 13.5522
12.618 76.9984 -0.378984
11.7944 77.9203 -0.507596
-2.84469 92.19 -3.65051
-13.2572 106.162 -4.80418
15.5925 100.753 7.78395
-15.1348 125.335 -0.317266
-5.19208 133.379 6.83963
24.9445 106.517 14.0257
1.92574 127.837 8.77053
-4.82467 133.377 7.02791
0.985554 86.8245 -3.1995
-14.2342 145.433 5.83567
11.8599 77.571 -0.464969
0.371437 87.25 -3.32176
0.689029 87.0229 -3.21946
23.7182 108.857 14.1853
19.7635 109.888 12.5508
2.57078 84.8813 -2.87372
-16.8901 126.677 -0.644507
-4.18356 93.7207 -3.67339
19.6781 110.041 12.5812
6.74314 80.5569 -2.01353
-14.6925 144.937 5.59034
4.07532 125.352 9.26905
-9.18997 139.739 6.83894
-15.0129 110.136 -4.31638
-13.1538 145.327 6.53463
-14.3935 125.95 0.494039
-18.1439 130.765 0.0330712
-14.8697 126.131 0.346181
-14.371 125.708 0.477103
-2.91541 89.5552 -4.06953
-14.4047 125.817 0.498888
-9.67894 140.704 7.02531
-19.0646 132.615 0.198523
-2.38885 87.6831 -4.26882
3.17293 125.635 9.14153
-1.32754 86.7141 -3.98366
-7.84628 94.2979 -5.03401
7.17472 122.45 10.2383
-14.9209 122.664 -0.462768
3.7906 83.1869 -2.39616
-8.7421 138.062 6.89962
20.6643 113.583 14.4012
-14.9225 119.291 -1.38891
-4.89603 93.2135 -3.80353
15.4355 99.8443 8.00677
6.92555 79.9901 -1.71112
-6.20687 93.7653 -4.25911
-13.5516 106.21 -4.34901
-19.1664 132.615 0.336815
27.0859 100.308 13.8842
-18.7793 131.173 0.137194
-15.6065 119.503 -1.57389
-13.149 104.242 -4.64562
-15.1537 125.011 0.211837
-16.2522 126.23 0.0340447
-4.49766 132.253 7.473
0.0888213 85.3849 -3.439
3.41037 124.924 9.31299
11.1327 76.8826 -0.399978
-7.9815 93.727 -4.99508
15.3528 99.5164 8.04559
7.07216 122.347 10.4223
27.4363 98.7208 13.7446
15.5338 99.6988 8.2541
27.2311 99.6529 13.9595
-3.18148 87.3992 -4.33806
4.0087 82.08 -2.3167
-14.5374 123.719 0.360103
-2.05549 130.711 8.42712
-16.0314 116.4 -2.41785
12.8477 99.9683 7.0911
19.1368 111.683 13.4618
-3.85239 131.382 7.76473
6.37349 122.505 10.3209
21.3529 112.255 14.769
-17.7124 124.566 -0.861384
-15.0521 122.037 -0.271096
-8.31578 136.616 7.13717
-19.1443 130.94 0.254754
30.3194 84.9126 11.5393
-11.8016 144.414 7.67644
-9.67574 97.4337 -4.45552
-17.0614 125.351 -0.20761
10.2988 102.892 6.85821
10.452 101.852 6.64528
23.3403 108.439 14.8185
-8.49446 136.833 7.25736
12.9912 98.7246 7.07106
15.1731 98.929 8.1987
22.4823 109.854 14.847
9.34511 109.925 8.46944
-5.77771 90.7991 -4.29249
-6.10221 91.9219 -4.07073
-14.5786 121.926 0.224585
-6.02985 90.8419 -4.32452
-16.1782 112.488 -3.20284
9.98761 106.474 7.90154
19.2724 111.426 13.8386
-4.85128 87.5841 -4.64399
22.2405 109.822 14.8957
6.13458 79.1159 -1.59447
-16.8675 126.312 0.449046
-6.77631 134.749 7.77533
17.8582 103.756 11.1133
20.2101 108.699 13.6609
-10.1828 140.53 7.75501
-7.61793 92.072 -4.59646
6.66226 121.126 10.5482
-15.1787 108.01 -3.79368
-5.32394 87.6334 -4.68072
17.0373 101.743 10.2279
28.6682 90.8841 12.8636
-16.0775 126.222 0.941011
3.35001 124.025 9.83444
-20.1365 128.058 -0.504011
1.75538 82.889 -2.47167
8.622 112.577 9.23367
-19.6037 130.758 0.54956
-6.59587 90.0205 -4.51789
-16.0926 122.768 0.0597217
4.64668 79.2394 -2.00156
21.004 111.255 14.9975
10.4644 100.778 6.90783
16.6146 100.996 9.97869
-19.9369 128.354 -0.174887
-17.0461 121.093 -0.795013
-11.5794 98.3873 -4.49615
-16.4803 113.189 -2.73142
-17.3363 137.74 3.74868
-8.33901 91.7212 -4.76409
2.48892 81.7305 -2.27577
20.4509 109.158 14.2058
28.3129 92.3069 13.3261
-20.2032 128.017 -0.347683
-20.4093 127.057 -0.702947
-15.3421 120.348 -0.0833795
-12.5219 100.685 -4.21046
-11.7668 98.7804 -4.34685
-6.72142 133.444 7.85424
28.3508 91.9346 13.3481
2.82074 124.411 10.0108
-19.3875 124.509 -0.81249
-8.52669 91.4554 -4.77907
23.1034 107.581 15.213
-7.71625 135.242 7.93939
20.3818 108.474 14.1841
29.7191 85.4296 12.296
-14.6668 121.101 0.662536
18.6004 106.945 12.9582
-14.7512 120.587 0.510387
-10.821 141.409 8.28374
-19.5182 133.11 1.71402
17.5493 103.447 11.5055
-19.159 124.138 -0.617663
27.0982 97.4439 14.5089
4.46184 78.6183 -1.82856
29.409 86.3049 12.553
-10.0934 95.5153 -4.14026
-6.30267 132.31 8.05011
-16.6195 112.705 -2.48864
-14.8296 119.979 0.440301
11.3247 97.8488 7.02771
-9.63043 138.351 8.17572
-11.7936 97.8687 -4.24908
-18.8897 121.91 -0.961469
-17.8558 134.916 3.19988
18.8651 107.431 13.4692
-1.92136 129.72 9.56993
-19.5479 133.139 1.91742
-3.12243 129.32 8.91837
-14.1132 104.777 -3.33019
25.2364 101.697 15.0467
2.27834 79.5619 -2.37073
4.84687 120.522 10.413
-15.4227 119.555 0.236404
-2.15164 83.4595 -3.41161
-20.5936 127.655 0.00673539
-16.5487 121.554 0.275131
-9.49748 91.5048 -4.70663
-3.15604 84.6013 -3.50632
-14.2869 121.086 1.30146
-16.3109 119.087 -0.246456
21.6269 108.283 15.2646
8.4321 111.644 9.76147
-5.95471 86.8238 -4.21264
-16.3842 118.98 -0.269833
-3.62484 129.124 8.85333
-14.2789 121.103 1.40872
-14.7762 121.917 1.41075
3.65694 121.929 10.459
9.13648 101.514 7.40947
-6.13716 87.0201 -4.09674
8.66725 110.137 9.66306
8.50452 110.836 9.78534
18.2192 105.385 13.0166
-6.13326 86.5319 -4.14815
21.4226 107.979 15.3567
-18.7372 133.927 3.04165
-12.6108 142.96 8.57577
27.7414 92.6454 14.1807
-7.89476 135.115 8.69334
9.81898 98.3174 7.02234
16.5686 100.753 11.024
-16.6875 118.945 -0.119972
-15.1805 119.231 0.706688
-6.23846 86.3365 -4.11252
22.0117 104.766 14.874
25.6159 99.8417 15.2837
-10.9364 93.9489 -4.21868
-9.62486 137.804 8.77101
-15.0275 119.208 0.944252
24.463 102.169 15.4718
-18.0599 139.03 5.04054
9.59712 104.038 8.73483
-14.2228 103.757 -2.98145
2.9741 122.424 10.6663
21.2334 106.161 15.0399
5.21587 76.9823 -0.958145
7.7378 113.727 10.6046
28.6498 87.3303 13.4369
-20.2591 131.535 1.94661
-13.3887 99.5462 -3.66217
-16.2185 108.353 -2.56629
-15.4809 119.626 0.959921
-15.0347 120.437 1.42088
18.1405 105.311 13.3899
10.0436 97.0651 7.12069
24.7257 101.622 15.5761
-6.77017 87.4411 -3.79072
-18.4632 135.633 4.03632
-20.121 132.951 2.50213
-13.0244 98.1783 -3.75891
18.9821 105.627 13.9804
25.107 99.4123 15.2304
1.60329 78.2372 -2.17418
-15.1656 105.485 -2.69132
-14.5167 119.978 1.70553
-11.8398 94.1257 -4.16065
-8.16972 132.256 8.34084
0.138152 126.572 10.8067
24.2269 101.945 15.6674
26.3142 97.5806 15.4795
24.7429 99.1731 15.1959
-14.5962 142.753 8.22209
3.32707 77.2347 -1.40372
-12.4772 95.5669 -3.95679
5.68716 75.9722 -0.573619
-15.3996 121.228 1.8331
3.3802 120.676 10.902
-16.376 108.356 -2.20564
-16.8101 141.601 6.94039
1.65735 123.963 11.0344
23.483 102.37 15.6625
-2.40385 81.5706 -2.82291
-15.374 120.715 1.83043
-13.7495 100.146 -3.14511
6.85702 115.805 11.3252
8.95371 102.599 8.65051
-19.9814 133.258 3.12005
-0.123393 79.89 -2.16067
20.7954 103.63 14.7308
-0.937381 127.138 10.7123
-0.181063 79.9727 -2.15831
26.9045 94.3762 15.1305
-20.7977 125.37 0.534102
13.0299 84.1181 5.49639
-0.00547743 79.4722 -2.17727
-18.1276 138.996 5.685
8.14766 109.863 10.3498
-20.0994 133.19 3.11164
-19.5741 120.586 -0.160075
12.863 86.202 6.03894
-20.1278 123.566 0.414058
8.14225 109.806 10.3691
-14.8008 121.136 2.34445
0.292303 78.6013 -2.2229
-0.680107 126.956 10.8815
-7.39643 129.86 8.42389
23.7175 99.0133 14.9708
27.9384 86.9292 13.6434
-1.7231 80.6161 -2.6152
25.166 97.7819 15.3678
27.8238 86.6033 13.5279
-21.2936 125.699 0.507513
20.5224 103.471 14.7341
-14.4206 142.32 8.5769
27.3271 91.7868 14.8
-18.0734 119.918 0.532492
-4.10605 127.73 9.55356
-14.1731 99.6423 -3.20976
12.2597 93.6687 8.03682
-16.1603 113.905 -0.139631
-13.5107 96.5022 -3.73004
-3.24601 81.7216 -2.83274
-16.5504 108.474 -1.81802
6.28632 116.683 11.6689
-12.6932 141.306 9.32129
15.0729 82.6339 6.43086
23.4262 98.6198 15.0417
22.6067 101.771 15.5382
17.0552 103.078 13.2043
-9.98041 136.046 9.25065
-1.59235 80.0034 -2.38209
-10.0991 136.148 9.25287
26.0672 96.2441 15.7426
-12.6331 141.043 9.44413
-15.6186 119.956 2.06351
-15.8379 116.543 1.00272
1.93052 122.504 11.3736
-16.637 141.253 7.58595
-11.0103 137.331 9.24812
-14.5003 99.5773 -3.05778
-17.067 110.828 -1.15262
-15.3683 120.077 2.27538
-7.13803 83.7832 -3.89052
-8.74131 88.2031 -3.42176
10.8041 93.3842 7.5893
-16.6265 118.605 1.27602
15.8902 99.5751 11.83
-11.6024 91.4033 -3.88597
-8.14232 129.121 8.4169
8.33523 101.324 8.68574
27.3013 89.2945 14.5804
-18.4224 137.083 5.65536
8.23436 98.6993 7.90958
23.9961 97.8896 15.3902
14.3008 83.4107 6.60302
-6.12353 127.989 9.14849
16.8151 102.353 13.1623
-14.8034 98.4915 -3.34624
-17.6964 120.073 1.31977
-15.6077 104.308 -2.0375
-10.358 135.508 9.29658
-5.80793 128.42 9.53303
8.61179 96.6652 7.68418
-8.36129 129.474 8.60906
23.199 98.3687 15.301
-0.279071 125.244 11.386
8.21666 101.308 8.83863
-0.274929 77.4992 -1.98072
6.62627 113.67 11.5512
1.9829 76.2285 -1.23034
8.0484 107.499 10.5317
-13.4757 94.0053 -3.76974
-15.9053 119.89 2.32335
-15.8534 141.342 8.3938
-20.6909 128.54 2.45926
-1.34682 78.2912 -2.18461
-16.8422 108.722 -1.20821
-0.0561121 77.1475 -1.86791
-17.9883 139.441 6.88614
-18.535 138.888 6.48454
-19.0867 120.091 0.946414
1.6219 121.983 11.6395
10.5153 92.6538 7.78932
-6.84712 126.88 8.9158
-0.893224 125.079 11.3225
-20.4919 133.436 4.09325
-19.5079 134.693 4.9766
-18.8471 135.538 5.54412
-16.4388 119.087 2.11118
14.6264 86.0387 8.02374
4.37023 117.702 11.9091
-9.06138 131.08 9.11569
-15.1605 120.075 3.04638
26.571 88.1629 14.4847
2.1053 75.4784 -1.03174
20.7384 101.45 15.3863
-16.5377 119.022 2.10329
9.7849 93.1929 7.72178
-9.71208 127.208 7.7465
0.192818 76.4284 -1.65561
12.0792 91.7742 8.46845
-11.203 135.403 9.34977
-20.4042 132.301 3.99386
-15.1682 119.98 3.10136
-13.1937 92.5576 -3.63178
-9.33352 127.164 7.98713
15.0435 96.612 11.3356
-15.2815 97.7943 -3.15282
-20.197 133.993 4.62456
15.5754 99.2618 12.3811
-15.6878 102.045 -2.11433
-16.0776 104.174 -1.7058
-15.9802 115.402 1.51291
-9.17043 127.055 8.12364
-15.6392 120.499 3.13583
-21.2842 123.993 1.37526
-17.4403 139.716 7.67574
-3.61675 78.7379 -2.68959
14.1954 84.3896 7.6197
26.212 88.1606 14.5526
-5.76118 81.5611 -2.91652
-1.53009 77.2916 -2.04674
-16.9491 140.248 8.10361
-12.814 138.775 9.76041
25.4547 94.7899 16.1176
25.1828 95.7434 16.2588
-1.29249 76.9903 -1.94489
-6.02802 81.0158 -3.12372
26.5886 84.8468 13.8945
12.0859 85.3094 6.95415
-9.75645 131.849 9.34785
5.87349 113.814 11.9296
-16.5693 106.111 -1.19802
26.0081 86.225 14.0288
-16.5973 104.639 -1.59143
-1.35849 124.826 11.5286
-15.12 96.4845 -3.14993
10.6466 86.4428 6.6487
-15.7528 119.176 2.95886
-15.3334 119.996 3.41823
13.5512 83.1318 7.19576
18.6366 99.6876 14.3513
14.1902 81.9189 7.20222
-20.2539 131.923 4.42004
14.3783 84.3028 7.97538
-21.034 129.11 3.27714
-15.3518 119.86 3.51157
-10.2219 132.745 9.6442
14.002 81.93 7.21526
7.83047 101.782 9.78366
7.40103 105.421 10.6007
-16.5933 105.215 -1.16795
-0.15265 75.1399 -1.55662
11.6556 91.9121 8.94573
-16.1251 119.054 2.99059
14.2713 81.7296 7.36752
7.61074 104.558 10.5269
-12.3719 137.131 9.91
-5.24154 78.6372 -3.0277
-11.279 134.002 9.59106
25.7452 90.3638 15.4359
-17.1662 109.455 -0.157932
-14.8734 119.251 3.71843
27.0055 82.9039 14.0017
20.5461 98.7026 15.2845
27.0202 82.7476 13.98
-5.39799 78.6226 -3.01981
-22.6967 125.401 1.66817
6.26218 111.375 11.8928
-8.2682 124.454 8.47254
-16.086 98.9254 -2.5002
-4.22927 125.444 10.7436
12.0181 83.5406 6.919
-9.4461 86.479 -2.74314
-14.2575 93.0923 -3.23427
7.86357 95.7561 8.3433
-16.3639 113.537 1.51021
2.04171 118.942 12.0341
-9.43799 86.298 -2.74109
11.7269 92.4006 9.33291
13.1693 80.4493 6.69882
10.3713 90.7482 8.23133
-15.0665 94.662 -3.09456
-12.0175 89.8397 -2.95806
-16.3333 99.8499 -2.25362
7.63855 96.2598 8.45586
-15.3236 121.219 4.26689
-0.128943 122.562 12.0723
-16.9981 108.237 -0.183858
-16.3732 119.197 3.20798
-16.3978 100.332 -2.08253
-14.6317 138.854 9.60872
-2.14047 75.1075 -2.17924
-13.1766 137.524 9.95444
-15.365 119.538 3.83973
14.2817 94.5001 11.3067
5.64775 112.237 12.106
-18.5153 118.998 2.20122
12.6931 89.7509 9.24305
5.64781 112.081 12.109
12.5734 93.0172 10.1539
-7.77915 80.5146 -3.25561
19.1933 98.8624 15.0864
-5.0385 77.2864 -2.77667
-19.2175 137.375 7.16745
12.6742 89.1773 9.22361
21.0223 98.2827 15.8752
-15.4287 119.539 4.02984
-10.1816 128.603 9.15147
25.2343 88.2822 15.139
4.56415 114.18 12.3608
-0.886393 122.587 12.058
-17.0568 109.643 0.527652
-15.7858 120.48 4.20957
10.029 89.8803 8.24517
14.0715 94.0804 11.4569
-5.98619 125.847 10.5823
-16.5697 119.035 3.5226
-4.60961 75.2931 -2.91242
-11.4398 129.282 8.9147
-14.6501 120.921 5.01276
13.5221 79.0891 7.04863
-9.88895 124.214 8.28819
17.7663 99.0995 14.7853
-15.7522 116.541 3.31501
13.3466 89.6515 9.99756
-16.821 108.001 0.452576
-10.3003 86.095 -2.50701
-8.41341 123.824 9.0163
-5.37985 76.4057 -2.81444
24.9863 87.7609 15.2224
5.84898 109.445 11.9789
-7.08042 125.108 10.0711
-10.3478 127.744 9.23941
5.02236 111.851 12.2888
18.7591 93.1442 13.7511
-21.3213 128.73 4.15537
19.9039 97.4711 15.5565
-14.9748 137.638 9.8276
-13.0778 135.984 10.2922
-22.543 123.231 2.08921
20.0908 94.2119 14.7966
24.0142 93.2802 16.5521
-1.69282 121.844 12.0328
-16.7139 105.078 -0.00202282
-22.1367 119.114 1.29747
6.35566 104.897 11.2343
-12.6973 89.4531 -2.38577
13.8928 80.0088 7.96317
16.3987 84.3959 10.4285
24.661 88.8963 15.7338
7.5733 94.0027 8.83496
13.5133 87.3618 9.87441
-6.02452 75.7468 -2.92621
22.8962 95.7167 16.8487
11.5202 78.9692 6.5885
-22.3374 118.937 1.2713
-16.4589 99.7664 -1.23326
26.291 81.5657 14.5605
-12.2729 129.605 9.21115
-12.7358 134.141 10.2763
18.6275 90.8341 13.4449
-16.1066 96.8843 -1.83162
3.01639 115.404 12.7167
-19.4213 136.707 7.73478
10.347 86.6359 8.26159
-23.4217 124.643 2.43093
12.3043 93.1219 11.0487
-13.1152 134.086 10.1312
11.0034 81.8024 7.24372
4.43995 111.589 12.4023
-13.235 133.631 9.95619
12.3964 91.0392 10.5361
1.43055 117.828 12.7129
-7.63961 123.994 10.0185
7.7671 91.745 8.5349
-23.5718 118.467 0.733317
-11.3204 86.7491 -2.14513
14.1039 87.592 10.5636
-6.2797 74.9166 -2.94956
-17.0089 110.807 1.88556
9.44183 85.3695 7.68762
-3.97653 124.515 12.1609
9.00663 86.0308 7.70763
-2.58789 121.994 12.1589
-16.3362 116.924 4.01956
-15.2228 103.69 0.849557
-23.6718 121.305 1.67212
-8.92656 80.4121 -2.57609
-12.4128 129.296 9.46383
-16.1342 116.241 3.98231
-11.8194 87.673 -1.9228
14.1872 82.334 9.29167
-16.7773 109.758 1.87809
-12.8491 89.0106 -2.00529
-15.2833 131.843 8.83462
-16.9764 110.957 2.14675
-7.47493 123.98 10.452
-16.6169 106.057 0.954162
-23.9248 119.519 1.16291
16.9473 86.7791 11.9502
-2.73847 121.842 12.1915
6.29 96.3945 9.46003
-16.4569 102.27 -0.00369704
17.3693 96.1121 14.807
26.0569 80.8282 14.7622
17.7143 94.1105 14.4247
-20.5715 132.201 6.41222
4.67761 109.842 12.4862
-14.5016 119.863 5.94981
5.66192 105.005 11.6478
-16.604 120.46 5.10829
-23.7079 117.723 0.883865
-14.4876 122.348 6.72524
-15.8708 105.633 1.36225
-15.2084 134.076 9.67659
-7.31342 75.0083 -3.03995
3.53712 111.66 12.5686
17.6002 93.7857 14.427
19.1056 91.0075 14.3928
-4.07593 123.68 12.2457
-18.9498 136.751 8.65245
-16.0032 97.4922 -0.924988
-16.0939 119.543 5.23905
10.6955 83.6374 8.25413
-4.03956 123.535 12.2608
11.4771 92.7463 11.1988
-14.0707 122.764 7.14355
14.0696 95.5404 13.2636
-16.8276 110.615 2.41145
-6.68758 74.2447 -2.84383
17.6263 86.4736 12.4937
18.9769 86.0291 13.0327
-15.5226 91.7706 -2.21605
-17.4599 136.934 9.52729
-5.19253 124.519 12.0396
19.0268 87.3987 13.4646
-0.33835 118.767 12.8113
-23.4038 122.284 2.54828
2.64928 113.446 12.8094
-5.64802 73.1348 -2.56396
-17.5499 136.813 9.50111
-9.23669 79.0167 -2.66166
20.6166 92.5872 15.7424
-22.5144 126.169 4.1149
-22.6998 117.48 1.58462
-23.5085 122.744 2.66972
-12.9033 123.274 8.02574
-15.3631 134.497 9.98728
10.2714 88.8913 9.71561
-10.3458 123.282 9.30109
-13.3171 88.4373 -1.9312
-16.0508 98.721 -0.373919
-15.0452 120.845 6.33226
-16.4088 100.199 -0.0646044
-16.0427 117.081 4.88551
-23.9826 124.46 3.10556
-9.5805 78.5274 -2.74655
9.55528 84.2728 8.2546
10.1431 89.383 9.98492
-15.3432 135.613 10.5141
21.5352 92.9802 16.5767
-0.65706 118.412 12.9085
-3.23167 121.149 12.419
-15.7766 120.563 6.12893
-16.5462 133.731 9.45497
10.6438 82.4508 8.35458
22.5236 92.7469 17.0601
-13.9515 88.5722 -1.93501
22.9119 85.931 15.3538
5.82562 103.148 11.8541
19.1212 86.5575 13.7038
19.711 91.6093 15.4119
10.4392 77.6801 6.98714
-14.7721 106.862 2.87454
16.4318 95.5553 14.9679
12.755 91.7098 12.0954
-16.1128 96.4594 -0.660305
16.5943 94.2669 14.7096
15.3451 82.1513 10.7456
-14.4056 107.106 3.25427
-16.3259 112.24 3.7631
-11.6401 80.7152 -2.77875
19.2616 90.3852 15.0618
-17.2386 120.14 5.57877
19.1941 86.9444 14.0633
15.9611 87.4936 12.6418
-24.065 124.55 3.50267
16.2812 93.6117 14.5594
16.6857 87.2429 12.98
-14.2676 105.72 3.05626
-16.075 108.108 2.84925
-21.8001 128.303 5.73763
5.26509 103.515 12.0152
9.05563 88.2644 9.58953
-12.7531 126.681 9.72666
10.1183 89.8873 10.5744
-14.6695 122.839 7.7177
-16.0271 92.9004 -1.35309
-16.3553 109.624 3.19659
-16.5428 135.334 10.3283
-5.30668 123.481 12.4969
-16.5521 130.024 8.84651
-16.3314 110.46 3.47604
-15.4402 119.751 6.54277
-0.0976665 115.66 12.9257
-14.2383 107.594 3.77187
15.895 93.881 14.6535
-14.9075 116.841 6.04719
-8.32607 122.593 10.8852
-17.0568 132.876 9.51274
-17.682 123.003 6.44852
-16.0377 111.715 4.08898
-16.7379 129.593 8.80794
1.78026 112.13 12.9759
-14.9705 88.5432 -1.8208
13.2085 93.1025 13.24
-15.7717 113.639 4.84983
-17.7486 120.632 5.86432
-8.8294 74.0718 -2.84956
19.3517 88.514 14.9853
-15.6571 108.785 3.57133
15.6354 91.0588 13.8876
15.2349 91.2502 13.7678
10.0197 82.9767 8.90035
-13.3249 122.635 8.64268
-14.3216 129.269 10.0243
19.3268 87.035 14.614
-16.2967 119.645 6.36931
-14.3571 123.694 8.49303
9.58053 83.5659 8.92772
-15.4296 113.667 5.15942
-13.1817 123.379 8.99112
-14.3565 108.156 4.15649
-17.6599 118.742 5.52799
-15.8225 119.715 6.70425
13.6437 92.8074 13.5621
-21.9273 128.475 6.2292
-16.8786 120.673 6.51577
13.6742 93.1058 13.7124
-16.0968 90.9144 -1.44049
-20.342 134.059 8.60995
-13.8858 112.025 5.59699
-15.752 123.371 7.88301
-14.3966 113.323 5.7256
-13.9621 128.652 10.2463
-13.2313 86.0411 -1.35306
3.97646 105.36 12.493
-13.5748 120.354 8.12634
-13.1114 112.015 6.02846
8.08942 85.6168 8.97782
4.48443 103.563 12.2606
2.2313 110.337 13.067
-14.2884 121.515 8.13956
22.1754 89.8306 17.1112
-15.0102 122.626 8.15757
-15.5345 120.25 7.24175
-12.6409 107.813 5.17119
-9.54659 73.8842 -2.82176
23.5898 81.818 15.6391
-14.1577 119.34 7.74797
-2.75016 118.233 13.02
5.7345 92.8261 10.0422
-14.9125 103.852 3.07154
-15.2293 100.733 2.04769
22.2899 88.382 16.9205
-15.7514 98.6693 1.23514
-17.8413 122.364 6.86944
-16.0453 128.547 9.4842
-1.40632 116.208 13.1768
2.61237 109.079 13.1613
-13.2397 85.5072 -1.19909
-9.32769 122.409 11.0822
-15.7505 118.701 6.90345
-6.27929 122.894 12.7104
-14.0592 121.744 8.58813
-18.1102 131.624 9.41054
-16.0335 120.42 7.2838
-16.7615 119.469 6.66636
-1.66645 116.499 13.2437
-14.0803 86.074 -1.36497
5.33902 95.6932 10.8605
-16.0354 128.324 9.57869
-19.5798 134.262 9.53142
-2.44075 117.505 13.2205
2.57288 108.7 13.2043
-15.8001 96.6788 0.852537
-16.4066 121.149 7.43685
1.80439 109.987 13.2115
-11.6846 110.637 6.83801
-15.1578 122.988 8.62679
9.15637 80.7349 8.65547
-13.0536 123.691 9.86848
8.72795 78.4154 7.80102
3.88664 103.027 12.3472
9.43518 83.3116 9.52431
-17.7569 117.628 5.87124
-15.5264 92.6072 -0.0527828
-20.0552 133.883 9.33717
-17.4961 121.865 7.22341
-16.9536 121.42 7.37377
-1.77789 116.034 13.2892
-15.5338 92.7883 0.043541
-16.4093 119.614 7.16446
5.90703 91.1804 10.0919
9.3117 83.4436 9.59431
2.74849 107.397 13.1132
-15.7935 88.0777 -1.36464
-16.1022 94.1397 0.187655
21.867 88.1839 17.0766
21.6634 88.7792 17.1523
-12.0844 121.692 9.93965
-5.19938 120.613 13.0053
2.43375 108.03 13.2222
-15.6691 88.2711 -1.171
-3.82581 118.084 12.996
-11.8002 121.958 10.2005
-22.1677 129.338 7.20741
21.7701 88.0771 17.1063
-13.9743 83.9366 -1.51587
-2.42213 116.668 13.3249
23.2997 81.1052 15.9373
-17.5835 122.571 7.62727
-11.5979 121.222 10.1744
-11.8325 120.191 9.7731
-11.5832 74.7783 -2.81526
-14.3382 125.253 10.0167
-13.5416 79.929 -2.30619
-12.8844 116.539 8.30196
-10.9632 74.082 -2.6749
3.98252 101.397 12.3026
21.5968 87.6079 17.0571
-14.9295 85.8479 -1.28544
-14.8917 102.77 3.50122
17.0962 83.2095 13.6591
-16.4363 122.329 8.2604
-15.1288 88.9221 -0.429402
-15.4988 86.1715 -1.38168
-18.3706 127.923 8.97693
-2.99571 116.472 13.2778
-13.253 124.475 10.5246
6.64013 87.3332 9.84031
-14.7273 123.072 9.43809
-10.7416 121.583 10.9734
-16.4079 126.287 9.53367
-11.6465 109.129 7.04874
-14.1583 93.1623 1.3546
-13.7689 125.558 10.6566
18.1524 84.5492 14.7466
-19.3689 118.644 5.98874
-11.8305 108.236 6.7624
-24.8181 122.519 4.45771
-17.6889 122.517 7.98675
8.36445 78.9183 8.5004
-7.43373 121.651 12.7975
-15.3743 123.279 9.40183
-19.0446 128.107 9.00046
8.61339 76.0142 7.88979
8.80623 82.8151 9.94716
-11.1981 111.141 8.12725
-14.8422 102.002 3.78772
-24.4546 123.942 5.25595
-1.34835 113.302 13.576
-15.0078 98.5494 2.77965
-15.2215 123.582 9.70545
21.088 83.9336 16.3355
-15.3508 96.7657 2.14727
-14.0138 79.2631 -2.11357
-17.4249 122.265 8.30656
-13.6793 95.1858 2.54744
-9.65688 120.463 11.6477
-19.5742 128.722 9.12254
20.4313 84.8496 16.3587
-11.8548 73.9905 -2.46714
-9.22821 120.622 11.9276
-11.5407 114.847 9.21421
1.63234 104.64 12.803
-19.4011 128.119 9.14561
-14.0426 95.8051 2.69269
5.10193 91.0895 10.7356
-17.6366 125.944 9.41272
-17.0451 123.121 8.92556
-9.76003 113.972 9.92049
-14.8007 82.7897 -1.28265
4.50519 99.1581 12.7843
-24.7766 122.989 5.1869
8.24872 83.8806 10.3531
-12.9583 117.915 9.551
-16.2688 122.361 9.1826
-19.7497 118.74 6.47257
-14.0655 92.2978 1.83209
-11.1662 109.723 8.14836
-18.1346 126.242 9.42548
-3.59216 115.183 13.4434
-12.3642 116.532 9.5378
-13.1207 77.6344 -1.75111
-10.4088 112.822 9.47401
-14.67 89.8147 0.938936
-16.4659 122.337 9.20279
18.7252 86.2587 16.2958
-16.7907 124.623 9.72593
7.98491 80.0185 9.32555
-23.0377 120.398 5.5039
-14.8241 100.879 4.05681
-15.7523 123.426 9.94336
-13.987 103.83 5.30529
-9.9548 113.367 9.98514
-0.652453 109.835 13.5402
-13.3441 74.6739 -2.51085
-15.7648 122.997 9.9344
-7.78333 119.125 12.7563
-24.3667 122.666 5.65086
-15.4671 124.573 10.5594
-22.0832 129.228 8.65147
-23.8026 121.745 5.72389
-19.8652 119.464 7.02073
-22.7108 118.627 5.41258
-10.0824 118.794 11.6536
-15.6568 85.5554 -0.402277
-14.1871 101.882 4.90932
-15.6322 85.6338 -0.35591
7.66999 78.7532 9.14735
-15.4945 83.2753 -0.871723
-6.95239 119.239 13.4572
-10.7463 118.512 11.4549
-12.4785 73.2434 -2.0767
-13.993 92.6558 2.63627
-10.936 116.953 10.979
-5.45104 115.902 13.3815
17.8733 84.9668 16.1045
-11.8689 106.943 7.7484
-14.6319 81.7402 -0.666191
-12.788 97.315 4.62352
-22.4985 119.04 5.99938
-23.3248 120.672 6.09432
-20.4183 117.921 6.75342
4.83794 90.3754 11.3669
-6.41228 117.683 13.5463
0.121218 106.001 13.4603
-23.6778 121.189 6.11144
-12.4719 97.8004 5.02512
-15.2051 86.5512 0.532444
-14.3046 77.0942 -1.66116
-8.0691 117.988 12.9382
0.271647 103.634 13.015
7.01926 76.7559 8.79447
-12.9009 104.723 6.91222
-12.0087 98.3186 5.58854
-0.00837386 104.274 13.1305
-9.46968 114.911 11.5283
-13.2305 94.3576 3.91986
7.53783 81.5979 10.4882
-12.8943 104.497 6.94607
18.9219 84.6317 16.9195
7.51816 81.7121 10.5416
-18.9636 125.601 9.94915
-0.30946 105.392 13.4444
-5.12905 114.515 13.6719
-4.21002 113.409 13.8374
-14.6502 87.9035 1.57489
7.26787 80.7396 10.2959
-3.78084 112.595 13.8513
-14.745 78.8344 -0.984353
-0.508091 106.055 13.6548
-9.30027 115.603 12.0574
-22.8118 119.924 6.68711
5.52666 89.2514 11.9407
19.188 83.086 16.9135
-11.7157 101.018 6.86785
1.40954 100.255 13.0868
4.0625 91.8001 12.0165
-4.10231 112.038 13.7624
18.1039 84.3251 16.8384
-1.05256 107.021 13.8588
18.1502 83.9341 16.7623
-11.5163 100.875 7.02596
4.31514 91.1735 12.0408
-12.9726 94.4258 4.53166
5.29825 89.1928 12.0265
-11.49 101.122 7.18283
-9.30559 114.053 11.9547
0.260253 101.441 13.105
6.63285 79.9541 10.2113
-13.8365 91.0337 3.33178
-11.5302 106.621 8.83673
15.3192 81.0621 14.797
4.54742 75.0378 7.86408
-12.0091 96.9614 5.93575
19.2982 80.6961 16.6804
-23.6933 124.302 7.98089
-8.28736 115.954 13.1713
17.455 82.842 16.4621
-15.0028 78.4473 -0.633635
-14.7702 86.0051 1.61795
-3.00167 109.283 13.986
-23.7296 124.237 8.07973
-14.6038 74.8303 -1.31562
-13.2345 88.2923 3.15054
-1.37144 105.519 13.807
-13.181 87.1754 2.89006
-1.31979 104.276 13.5165
-20.72 118.444 8.01993
3.02722 75.6211 7.62884
6.10679 80.1683 10.4159
2.45415 97.7635 13.5755
-10.5266 108.637 10.3083
-23.2319 125.732 8.92207
-10.3891 108.971 10.5025
-10.7278 107.821 10.0387
6.31876 82.1494 11.1811
-14.7854 74.0556 -1.40307
-24.0764 123.829 8.04938
-12.9992 87.0869 3.146
-10.525 108.251 10.3279
6.22807 82.1386 11.1863
-20.5507 126.141 10.4605
-1.74462 106.214 14.0681
-24.2231 123.324 7.91681
-11.7054 104.849 8.86056
3.17796 95.4123 13.4896
-14.5406 83.551 1.51789
-8.97065 113.251 12.6124
-8.89658 111.962 12.2879
-19.4102 120.634 9.59461
-14.6506 80.6929 0.719042
1.44311 74.5976 6.87958
-12.25 92.7864 5.29789
-10.8955 99.7931 7.93634
-10.9424 100.562 8.14371
-7.52594 113.152 13.4858
-21.1031 117.763 8.16006
-12.2162 89.9594 4.69727
5.03714 78.8164 10.0215
5.00493 88.6045 12.7952
-11.3316 91.6921 5.68185
0.872101 75.4673 7.12333
0.74962 98.7987 13.6153
-5.60949 110.215 13.7174
5.43923 82.0408 11.2298
-1.33871 102.066 13.5435
2.97326 91.9762 12.8551
-10.1152 108.001 10.9636
1.40242 97.7799 13.7633
-22.4521 125.398 9.90669
-20.0123 124.195 10.7884
-14.8653 82.8662 1.70427
2.64206 94.5764 13.5718
-13.9075 84.1947 2.60216
-2.05385 103.634 13.8726
-11.5574 89.517 5.3287
-4.37432 108.114 14.084
-22.6664 124.702 9.80858
-15.1667 77.6378 0.27049
-10.5021 100.137 8.87355
-9.33525 104.866 10.7952
-8.60578 110.678 12.7879
-13.6611 84.7789 3.08196
3.6938 90.883 13.2823
-11.5893 95.6979 7.19952
3.57157 90.935 13.3204
-11.1673 93.7531 6.9245
-12.0083 86.8469 4.60463
-20.3454 123.466 10.8229
-15.3807 82.1357 1.6611
-24.6037 119.903 7.76648
-10.3179 99.9881 9.17705
-5.50067 108.525 13.9467
-5.54657 108.564 13.9408
-11.0519 89.255 5.83406
-22.853 123.89 9.8017
-11.0751 89.1571 5.81343
-21.82 124.45 10.4776
-22.4962 124.026 10.0572
3.9433 83.9107 11.725
-3.58877 105.92 14.2289
-11.4017 94.4132 7.21167
-7.82693 110.566 13.5162
-8.85368 104.181 11.2328
-7.44153 110.246 13.64
-4.94392 92.3493 9.84227
-8.29079 109.492 13.0369
-2.79327 103.96 14.2021
-8.71804 104.384 11.4472
2.40138 92.2473 13.5074
-7.37716 108.41 13.3141
-7.53903 108.376 13.2322
-8.88888 107.442 12.312
-4.55645 91.5007 9.97641
-10.5965 97.1675 8.6305
-4.62225 106.085 14.0598
-9.50644 90.1815 7.23135
-8.82691 95.0487 8.9514
-10.8197 96.4466 8.38282
-7.57914 107.831 13.1662
-24.1162 119.53 8.37627
-7.1054 94.8789 9.79137
-4.50227 90.6953 9.89964
-2.27246 101.527 14.0435
-15.4226 81.683 2.04572
-0.741049 76.2727 7.70643
-4.58967 105.592 14.0781
-5.83834 94.3833 10.3347
-4.21459 92.8202 10.7014
-10.6721 94.1921 7.93495
0.572203 77.4599 8.73713
-4.48758 105.296 14.1022
-8.83764 90.7581 7.89369
3.30805 90.1453 13.6664
-2.93829 103.305 14.3197
-8.05229 95.5748 9.68524
-7.30185 106.738 13.2145
-10.1093 93.4838 8.12139
-4.99808 94.0508 10.8209
-4.90547 105.326 14.0348
-2.56571 89.7217 10.801
-10.2155 95.2151 8.61594
-2.5954 89.4688 10.7411
-24.3781 119.092 8.43443
-21.1304 121.763 10.7813
-8.14896 105.634 12.6098
-7.33178 105.978 13.1409
-23.7343 119.236 8.8594
-3.58865 88.1531 10.0478
-6.81301 73.7693 4.45975
-7.48048 88.8545 8.37979
-4.20396 93.931 11.4387
-3.07422 87.5065 10.1868
-5.28588 95.069 11.2387
-7.095 87.4507 8.22997
-5.06669 104.227 13.9509
-9.79599 98.314 9.98634
-7.91548 103.844 12.4945
2.97589 90.3599 14.0695
-0.16358 77.8465 9.02309
-2.67352 100.862 14.2717
-0.975433 97.2633 14.1071
-7.92262 89.776 8.63772
-4.88697 95.1168 11.6279
-7.55069 96.6797 10.8004
3.91018 85.9207 13.3891
-13.0737 82.5465 4.1499
-2.73406 94.5007 12.6104
-11.0382 73.2771 2.60259
-1.29565 88.486 11.6848
0.729563 80.9843 10.5689
-0.918624 88.764 11.9648
-2.61886 93.6341 12.5107
-5.17821 95.8396 11.8988
-0.151743 78.1833 9.39752
3.51121 86.0594 13.3997
-7.79568 100.063 11.8078
-22.5183 118.546 9.82939
2.31523 90.9581 14.2512
-2.33403 93.5687 12.7257
-8.30963 86.7167 7.88373
0.52425 79.3289 10.131
-3.11652 75.6037 7.30777
-1.35607 91.5641 12.6549
1.86455 92.4022 14.4924
-7.131 98.426 11.8035
-4.28687 96.5174 12.674
-3.14841 100.361 14.328
-6.78198 85.9664 8.53195
-4.91019 85.6023 9.37951
1.63349 83.5765 12.0281
-5.21318 96.9343 12.4418
2.67166 88.3427 13.8839
-22.5881 120.534 10.5791
1.53505 84.2272 12.1943
-6.33378 99.0018 12.5117
2.00115 91.6744 14.5586
-6.32504 85.4451 8.74428
-12.8402 82.1237 4.65174
-5.54951 97.8431 12.6309
-1.8196 94.6702 13.5634
0.113376 88.1184 12.6748
-5.39024 99.6592 13.2505
-3.98912 75.6583 7.21211
1.63031 89.2337 13.7887
-4.38484 75.9638 7.12818
-0.801091 87.6326 12.1813
-4.03831 99.1739 13.8433
-9.80249 86.9816 7.60965
-5.91126 84.9236 8.94667
0.93819 82.5435 11.6501
-11.8281 84.1503 5.86418
-14.288 80.3533 3.61069
-2.7295 96.7782 13.8786
-4.1334 98.6807 13.7443
-13.9704 77.5193 2.99966
1.73022 88.4744 13.7573
-0.64461 91.7989 13.5425
-14.3712 77.4267 2.81258
-3.75594 98.5478 13.9335
-13.2108 73.536 2.31522
1.4438 90.4659 14.2342
0.898029 84.1247 12.2278
-13.9298 73.3077 1.98762
-15.0487 74.2817 1.76163
0.575098 82.8911 11.8167
2.29217 89.5644 14.5307
-13.6098 77.7797 3.46964
-1.87471 78.4149 9.40334
-23.7258 118.833 10.1455
-5.13906 76.853 7.4855
-1.27728 80.9468 10.5345
-2.26015 78.1346 9.29686
-4.66927 77.1053 7.85427
-13.8665 79.0734 3.9328
-2.65059 76.3834 8.67906
-4.02984 84.575 10.3158
-7.36883 84.3922 8.67454
-13.7877 79.2538 4.11558
0.276379 86.2016 12.9441
-7.87059 74.3934 5.71111
-8.33886 82.7837 7.84606
-8.51511 82.7068 7.73832
-10.9102 73.8401 4.08035
-5.9297 77.6549 7.61397
-7.99559 83.2064 8.18094
-9.06843 82.7877 7.57262
-2.77478 77.6324 9.20538
-6.61728 77.374 7.25797
-14.8632 75.9998 2.86833
-1.22212 83.8251 11.7462
-9.4513 83.3393 7.59661
-1.98656 79.1218 10.0799
-3.76394 83.8907 10.5514
-9.36578 82.3493 7.38215
-11.7004 73.781 3.84462
-13.1205 75.2685 3.62884
-9.65634 81.8102 7.17145
-1.62186 83.2682 11.5087
-8.74194 74.2313 5.50583
-12.4732 80.9855 5.60536
-12.0279 81.4997 5.98615
-9.29521 80.7582 7.1234
-12.3265 74.0686 3.77446
-12.5452 80.564 5.50136
-7.75031 81.1687 8.02671
-6.9759 74.8826 6.64169
-4.23483 83.2607 10.3359
-10.1732 80.3724 6.66845
-7.29337 74.881 6.53516
-10.1382 80.3941 6.69359
-12.335 80.2443 5.59633
-11.0053 80.1923 6.23307
-2.1637 80.4184 10.6356
-12.4423 78.8426 5.18636
-8.81683 80.7723 7.50702
-8.52383 74.5347 5.92478
-8.7135 80.7701 7.59056
-11.8539 74.1806 4.20771
-4.40183 82.7528 10.2623
-4.25988 77.7005 8.96164
-8.95297 80.3721 7.44836
-2.29316 79.7886 10.5553
-11.4882 76.8521 5.2406
-10.9986 74.9541 5.05278
-7.82106 80.35 8.16312
-7.81571 78.816 7.78139
-5.15104 80.1687 9.46367
-6.08713 79.3434 8.7814
-8.232 77.1344 7.17172
-7.19831 78.9527 8.22028
-9.1556 75.0886 6.19287
-10.7638 75.9105 5.65903
-4.9224 78.6815 9.33697
-6.08318 78.8955 8.83181
-5.5556 79.0018 9.14448
-8.71705 78.0869 7.4069
-9.34714 78.1752 7.15337
-9.17285 75.5803 6.54183
-10.0087 75.8669 6.35415
