ply
format ascii 1.0
comment Created by Open3D
element vertex 1865
property double x
property double y
property double z
end_header
1.46596 109.652 -11.5694
-26.1821 106.631 3.62807
7.35323 112.42 -8.60865
-18.1861 109.138 3.9814
5.60649 113.971 -2.46396
-0.67538 108.899 -12.1877
-31.3547 103.814 -0.494916
-1.59914 108.545 -12.5811
0.239153 115.933 7.79931
-1.2346 113.839 2.81719
7.94066 113.209 -7.11978
7.8642 112.864 -8.19
-20.6337 102.639 -13.7851
-1.35095 113.433 1.06355
-13.2281 110.732 3.37876
-34.2793 101.571 -5.61281
-23.463 108.529 5.56966
5.51249 117.527 6.97473
-1.2846 113.788 1.67563
-24.3509 101.817 -13.8533
-6.80014 110.756 -2.57254
-29.4925 100.629 -12.9234
-6.6955 106.946 -14.1431
-21.8744 102.55 -13.9665
5.93355 113.873 -4.57754
-23.0324 102.261 -13.8725
6.44284 116.76 3.58112
-3.78927 108.308 -12.7047
-26.8948 106.901 3.14357
7.36897 115.288 -2.01497
-34.8169 99.9546 -10.8898
-22.7962 109.157 5.8792
-15.5479 110.515 3.55662
-6.98833 112.136 0.839609
5.2754 114.258 -3.64923
-1.20366 114.314 2.10044
-17.9524 103.964 -14.1497
8.0664 116.89 1.63965
-10.1361 106.202 -14.3472
-24.0632 108.779 5.42115
-8.67493 112.429 2.75389
-6.5991 110.796 -4.07242
-10.8867 106.067 -14.4681
-6.13698 110.895 -4.32367
-33.2365 100.456 -11.7916
-1.14518 114.961 3.3656
-8.9078 112.584 2.89302
-9.89481 106.532 -14.413
-23.3789 109.331 5.72406
-31.3494 100.97 -12.2706
2.08766 117.562 7.94142
-27.2879 101.654 -13.8309
1.80942 110.864 -11.8412
6.25954 117.16 2.94704
-29.8613 105.831 0.704784
-17.3048 110.539 3.73139
-34.0745 102.283 -6.25394
-4.49777 111.472 -4.74371
14.433 118.567 -0.178329
8.05784 116.144 -1.86499
-10.1665 106.572 -14.4893
13.3584 118.535 0.512108
-22.5303 109.874 6.08821
3.79219 118.274 8.03369
-33.7914 102.705 -5.55537
13.0763 118.436 0.285049
12.0917 118.023 -0.108274
-27.8807 101.838 -13.4269
-35.1355 100.71 -10.539
-28.2811 106.99 2.13861
-28.2858 107.032 2.13675
-27.3611 101.995 -13.747
7.62744 114.041 -8.46803
8.87469 117.815 1.70508
14.4292 119.01 0.258609
-29.6884 101.78 -12.5331
15.22 118.804 -1.25133
13.4238 118.407 -0.868528
6.07564 113.161 -10.2592
9.89286 118.045 0.963217
7.60211 114.241 -8.51674
1.68344 111.406 -11.9689
12.7396 117.709 -2.91037
-33.187 103.956 -3.90898
-21.1134 104.164 -13.9626
15.002 119.366 -0.309163
-25.6696 108.883 3.9831
-1.28087 113.547 -3.49004
6.48054 118.021 3.06056
-33.8462 101.344 -11.3915
-33.2949 103.977 -4.16979
-35.5183 101.415 -9.88187
-8.09641 113.766 2.92864
-29.7941 106.681 0.756116
-34.7298 102.55 -7.26788
7.69398 114.461 -8.93535
-35.5939 101.671 -9.17643
10.5656 118.213 -0.247834
-28.4901 107.489 1.96914
-6.30107 112.189 -3.47916
-6.97988 113.871 1.89571
-11.5462 112.986 3.22901
14.5786 119.997 1.21521
7.44312 114.665 -8.49454
2.90338 112.344 -11.4681
-13.6821 112.49 3.47847
-6.07125 108.91 -13.9537
-0.764354 117.135 5.88774
-16.7748 111.76 3.80473
5.55599 115.754 -3.89248
-17.7957 111.802 4.68555
-4.19369 112.705 -4.57567
12.5003 119.826 1.9918
11.3702 118.084 -2.25068
-27.9517 102.891 -13.1458
6.99909 116.432 -3.35684
-35.33 102.044 -9.3027
-2.47796 110.71 -12.2905
-10.9607 107.515 -14.4618
-23.4106 110.709 5.94909
10.3563 118.684 0.132471
0.955749 111.823 -12.1973
-14.655 112.561 3.59074
-17.0848 112.055 4.13554
-7.94989 114.375 2.97
-12.8428 107.031 -14.6858
-35.3148 102.566 -8.38581
10.6141 118.96 0.260064
-11.4335 113.519 3.263
14.9619 119.771 -1.21023
-0.626145 115.061 -1.77403
6.35817 115.803 -5.70323
-18.9948 112.274 5.98337
-6.90811 114.551 2.16024
-31.7782 106.107 -1.44002
-29.1117 107.852 1.32921
-0.542753 114.914 -2.68615
-27.9992 103.43 -13.0824
11.3834 118.059 -3.93662
-14.0468 113.099 3.5385
14.7866 119.994 -1.2935
-0.707598 115.721 -0.490372
-18.3103 112.584 5.45865
10.3255 119.519 1.03365
-23.4474 111.29 6.0487
-13.2544 107.309 -14.7813
4.37331 113.746 -11.041
7.57487 115.198 -9.53065
6.52138 119.578 4.45779
7.88644 117.472 -3.20379
-35.0762 103.248 -8.01445
-0.469232 115.17 -2.77149
0.402383 112.246 -12.3242
-0.932366 114.873 -3.3138
-10.3771 108.431 -14.2803
15.1137 120.709 -0.0224678
9.02211 119.554 1.87051
-32.9197 102.733 -11.6175
-33.5281 102.691 -11.2669
-33.0349 102.747 -11.5462
-17.6496 112.777 4.88892
-5.83021 114.092 -1.66077
-16.9622 112.835 4.27148
5.93803 116.49 -4.91679
-17.9703 112.889 5.23836
7.78603 119.54 2.51725
7.72018 119.637 2.69833
-8.06144 115.289 3.36581
-25.5328 110.503 4.3532
-24.71 111.056 5.22751
8.08698 119.863 2.56035
-33.6793 103.028 -11.1041
11.1022 120.721 2.40266
-25.2779 104.524 -14.1095
6.40321 116.169 -7.11237
7.96572 119.978 2.82291
15.1474 121.193 -0.0590331
-32.103 103.363 -11.9855
14.9649 120.629 -1.72259
-14.489 107.563 -14.9309
-2.14857 114.795 -4.15733
0.138941 119.077 6.59466
0.0279193 118.985 6.40468
1.65131 113.307 -12.0653
-2.4298 112.138 -12.0317
-24.1625 111.766 5.9072
-5.64793 114.749 -1.75871
9.89317 118.672 -3.69254
-14.0532 107.892 -14.9305
-6.06455 115.628 1.12116
-17.47 106.966 -14.7472
7.7124 118.107 -3.62972
6.28757 116.625 -6.83917
-22.0809 105.98 -13.8559
5.56931 120.665 5.62316
-31.6813 107.293 -1.65953
-3.19676 114.779 -4.35454
-4.53958 111.752 -12.2832
7.29503 118.019 -4.02921
9.69256 119.815 -0.767731
-26.1359 104.889 -13.9428
9.94788 119.956 -0.649953
-34.3791 104.827 -7.16407
5.08506 115.077 -11.1733
5.92878 117.319 -5.2822
-18.4461 113.94 5.91923
-0.61557 116.163 -3.19488
-5.17566 111.681 -12.7478
-19.7143 106.852 -14.4426
-16.4255 107.678 -14.9618
-15.0906 108.082 -15.0525
17.2605 120.505 -6.48866
-13.893 108.54 -14.9051
17.588 120.593 -6.5145
-8.74161 110.414 -13.9025
14.2056 122.028 0.636582
-31.8143 107.635 -2.01184
9.41408 119.964 -1.5268
-20.3067 113.844 6.25655
-21.747 113.654 6.93439
0.163723 116.978 -2.35682
15.4677 123.4 3.3922
8.93195 121.373 3.02214
-1.09536 113.383 -12.087
6.28159 117.669 -5.76732
8.83214 120.263 -0.276786
15.7979 122.474 0.0583672
11.8876 118.767 -7.6181
-30.5809 108.67 -0.540141
10.8178 119.911 -3.27268
5.27909 121.48 6.27005
15.3784 119.956 -7.1951
-29.2002 105.019 -12.7615
-2.88427 115.613 -4.24476
14.6734 122.506 0.874014
15.2559 123.38 2.97257
9.11863 120.885 0.898206
-17.5991 107.837 -14.793
18.1881 121.228 -6.18456
-5.91394 116.697 1.40466
12.7789 119.236 -7.42295
15.9971 123.9 3.50216
10.1924 121.411 1.13536
10.9921 119.917 -4.10863
-34.048 105.49 -7.70409
-24.0063 106.305 -14.0877
14.4334 123.544 3.54728
10.4083 121.733 1.62844
-18.9818 107.681 -14.6005
16.5317 121.127 -5.78059
0.458076 117.635 -2.14244
-24.1468 113.216 6.21033
16.6653 122.246 -2.64469
-3.9716 115.806 -3.81796
-5.4123 116.063 -1.79248
-32.761 107.388 -3.73305
-17.2373 108.23 -14.8778
6.17575 121.938 5.49686
-29.0206 110.226 1.34567
-0.268427 114.177 -12.1032
-15.643 115.191 4.39927
8.14883 120.693 -0.0414451
16.2693 124.267 3.49848
7.54001 117.338 -9.59115
10.4431 119.86 -4.62124
6.72502 118.281 -6.09022
-14.078 115.606 4.13563
0.919273 114.524 -12.3339
7.95501 122.12 4.11806
0.669464 120.791 6.52899
14.635 122.986 0.834326
-3.82809 113.383 -11.8658
-31.7482 108.441 -2.23098
-22.706 107.272 -13.8241
-7.14185 111.889 -13.791
-26.9144 106.124 -13.7079
-28.4245 110.975 2.00422
-29.9174 105.698 -12.4615
15.6293 120.845 -7.17456
-9.30086 111.321 -13.7618
10.5061 122.389 1.79608
-27.6426 111.522 2.77447
7.22833 118.589 -6.74969
-13.0177 109.99 -14.6985
-28.7268 110.846 1.57251
-4.25025 116.276 -3.70324
-7.86879 111.856 -13.7537
0.0950143 119.728 2.57651
-5.27904 116.924 -1.19112
7.32857 122.539 4.5127
-5.14794 116.55 -2.44783
10.6142 123.054 3.13043
8.88965 121.612 0.271255
-23.8345 114.047 6.35663
0.30536 118.16 -2.56425
5.91842 116.855 -11.3914
6.76987 122.576 4.94461
-8.12429 111.965 -13.7287
10.6556 122.685 1.73947
-22.0942 107.848 -13.9788
6.87833 118.901 -6.50365
10.7066 120.754 -4.39039
-31.4828 105.946 -11.7396
8.37061 119.633 -5.86535
-13.2977 110.385 -14.6093
9.59972 121.289 -2.15567
8.30901 122.06 1.27517
10.3909 122.889 1.90696
-27.856 111.817 2.33085
-5.13987 117.752 0.0427322
-11.128 111.223 -14.2216
-3.97444 114.152 -11.7618
-28.3798 111.482 1.60752
-24.1259 107.553 -13.8951
-26.8255 106.843 -13.6613
6.73857 117.571 -11.1473
4.73886 116.784 -11.7573
9.59656 120.144 -6.03045
-29.1706 106.543 -12.6756
-28.9038 106.579 -12.8573
-21.5514 115.46 7.1779
0.397821 120.265 2.14808
-5.03638 118.087 0.330091
8.11837 123.21 4.01248
8.46993 121.334 -1.90136
0.549538 118.888 -2.26961
10.7718 123.125 1.38603
17.1077 123.742 -2.37874
-16.5913 116.365 5.11629
-1.36831 117.833 -3.97688
7.55051 121.744 -0.182225
18.4829 123.697 -3.94176
-31.7079 109.36 -2.94832
11.2035 123.968 2.95169
0.976941 120.361 1.08889
18.4975 123.894 -3.75687
8.14665 122.661 1.45074
9.92814 120.108 -7.7533
7.82699 122.298 0.625996
18.8072 122.941 -7.10285
8.28514 120.051 -6.52005
0.32636 121.19 3.79398
-6.71197 113.333 -13.5435
18.519 123.836 -4.3062
-2.0893 117.941 -3.90636
-25.6659 107.726 -13.7686
-19.1375 116.312 6.0741
9.19419 122.949 1.03733
16.8408 122.961 -5.81024
-0.33647 118.713 -3.46381
-2.69051 115.275 -11.7086
1.02649 122.315 6.03524
0.375162 121.569 4.2507
10.177 124.039 2.99526
6.06407 119.828 -6.00046
-8.4445 113.044 -13.5967
-19.597 109.482 -14.4793
-11.0211 118.503 4.92961
-18.1704 110.024 -14.1654
-12.5475 118.25 5.32948
-4.79676 118.197 -1.62775
1.28943 120.181 -1.15023
15.131 123.026 -4.85552
9.34764 122.672 -0.875247
-4.26324 115.038 -11.758
7.24684 122.379 0.047552
9.59629 123.384 0.976994
-4.21461 115.1 -11.7332
13.6209 121.681 -7.81146
-9.27884 118.931 4.03139
-3.05394 115.519 -11.6995
7.62388 119.031 -10.5929
8.81849 121.703 -3.67607
8.62496 121.583 -3.89148
16.8472 123.221 -6.25691
6.8483 120.135 -6.84424
7.56627 122.964 0.936114
10.9616 123.955 0.902361
7.90122 123.995 3.60269
6.39878 120.289 -6.16989
-4.86683 119.561 1.4766
2.66835 117.42 -11.5579
7.16649 123.019 1.18837
-17.8647 117.181 5.68756
-28.0319 112.585 0.756333
-15.8227 117.675 5.13779
-26.8568 108.35 -13.5528
10.8203 124.389 1.30319
-1.02476 116.436 -12.0988
-20.0872 117.25 7.02221
-31.6537 109.718 -5.33024
9.55825 122.556 -3.13399
18.9027 123.847 -7.51685
9.04498 122.254 -3.71853
-10.6793 119.266 4.63052
-22.8509 109.485 -13.9152
18.2197 123.812 -7.1943
15.9703 123.854 -5.12502
7.5298 123.252 0.462914
7.99453 121.608 -4.89536
-4.50305 119.407 -0.553886
-29.2256 112.07 -0.860395
8.78379 122.205 -3.97947
15.9766 125.987 0.992057
6.85861 123.395 1.24409
10.2892 124.943 2.77654
-32.9047 107.972 -10.0368
-0.687873 116.717 -12.1723
0.835551 122.639 4.16706
12.6142 122.022 -8.02038
14.8197 126.717 4.04536
8.056 123.367 -0.0434316
19.2538 125.71 -2.86892
-5.66833 120.483 3.34739
-4.44927 119.81 0.149167
-6.45436 120.433 3.73443
-0.944808 119.647 -3.56974
-3.77546 116.145 -11.5592
-15.5185 112.254 -12.9709
7.37264 124.517 3.57449
16.2218 126.514 1.65576
-33.0948 109.045 -7.37606
-23.1403 116.521 6.20468
10.9357 124.861 1.16177
19.3356 126.01 -2.77192
7.80547 120.249 -9.94785
18.0256 124.084 -7.48333
16.0243 126.44 1.27334
16.8876 124.456 -5.41523
18.7893 125.477 -4.03921
7.80114 123.674 0.178451
17.0893 127.267 2.75881
-7.0554 120.477 3.61927
-10.8617 113.573 -13.6884
-8.72611 120.053 3.77305
-6.3772 115.154 -12.9286
19.3725 126.015 -3.15938
6.3244 123.118 -0.462401
-8.41134 120.212 3.72531
1.25349 123.667 5.55076
8.43733 121.526 -7.22223
7.83696 123.895 0.378214
8.11409 123.975 0.251762
-26.1148 109.272 -13.6472
7.89493 123.948 0.328826
2.04654 122.321 0.5463
2.23101 118.31 -11.7015
13.8748 127.121 4.1874
6.65169 121.406 -6.61804
-10.5835 120.062 4.47845
-8.7616 114.584 -13.4856
-19.9335 118.306 7.40905
-8.23982 120.492 3.65384
-30.3794 109.083 -11.0127
-25.47 109.623 -13.7297
18.614 125.144 -6.04173
-25.4758 115.224 2.91198
-11.4992 120.012 4.9198
9.22177 122.542 -5.69942
-4.47138 116.577 -11.5105
5.59328 119.484 -11.7549
-7.2243 120.866 3.57961
-18.6416 118.397 6.17251
17.9251 124.134 -8.78511
9.94291 122.05 -8.05919
-27.998 109.251 -13.1154
-17.3711 112.429 -12.9426
7.72417 124.245 0.334514
-5.05693 121.348 2.78103
17.7768 124.228 -8.68286
-24.2975 110.178 -13.8265
-26.1334 114.781 1.46563
17.2476 127.131 0.26776
-26.6373 114.355 0.537581
16.942 125.812 -3.48042
9.0641 122.325 -7.02291
8.86634 122.057 -7.69059
9.89368 122.673 -6.7715
-25.2584 115.68 3.13316
10.9752 122.548 -8.15348
-32.6631 110.138 -6.97844
-31.0278 111.382 -4.78956
-31.0246 111.452 -4.64081
-13.7427 120.077 5.93368
6.93359 121.764 -7.22025
-5.23025 116.607 -11.9584
1.72859 124.715 6.12482
18.8653 125.132 -7.70168
-25.4093 115.622 2.68098
-27.235 114.017 -0.533768
6.37139 123.388 -2.06189
-31.7553 110.725 -6.51439
9.94606 122.481 -7.97011
8.78193 124.557 -0.808429
-5.83543 121.809 3.77447
12.3418 127.155 3.57683
-30.1327 112.229 -3.77187
12.1112 126.97 3.1912
-6.69422 116.041 -13.0637
12.2353 127.121 3.41659
-30.1925 109.893 -10.8783
2.47494 123.19 0.132686
17.3194 126.134 -4.26816
17.522 125.766 -5.55124
-15.2072 120.072 6.04793
18.4418 125.329 -7.80509
1.13186 122.056 -2.48152
-19.219 119.285 7.07369
16.061 126.169 -3.36231
-26.0989 115.268 1.04282
6.60524 122.211 -7.09953
13.7358 124.794 -5.80996
-24.9874 116.435 3.17686
2.36452 123.159 -0.744247
9.60769 123.276 -6.74966
1.38888 124.598 4.31976
7.55132 122.934 -6.09531
6.62768 122.359 -7.13846
3.44357 120.012 -11.3945
17.7669 126.621 -4.32562
-22.932 111.505 -13.9195
-26.96 110.733 -12.7339
-19.1556 112.892 -13.1926
13.9718 125.274 -5.26888
1.95223 119.612 -11.7474
9.08678 125.013 -1.87891
18.244 125.823 -7.50602
-20.1268 119.885 8.26589
-24.107 117.283 3.95951
18.5755 125.775 -8.18803
17.8263 126.598 -5.09319
2.64724 124.2 0.959966
-3.39089 121.504 -1.8394
-15.0426 114.866 -11.4878
18.9291 126.639 -6.26417
2.54101 124.519 1.77157
-18.8146 120.052 7.0568
13.9775 125.604 -5.1283
-13.244 115.129 -12.6051
-22.9215 111.937 -13.7527
7.44589 123.345 -6.35034
9.00999 123.525 -7.22718
19.3707 127.324 -5.04648
10.7176 126.977 1.4863
18.3118 128.866 0.456135
-18.6909 113.59 -12.8493
18.5178 126.282 -7.62732
-21.5268 112.607 -13.3761
3.45135 126.134 5.1026
6.05907 124.74 -1.36621
18.4442 127.067 -5.28226
-26.6616 115.567 -0.177296
-29.2306 110.911 -11.9236
-16.1089 114.798 -11.8351
-8.31785 116.675 -13.1421
0.00332282 122.466 -3.19753
14.5127 126.533 -3.84296
14.2175 126.367 -4.08895
-3.69137 122.919 1.30786
-30.5473 111.523 -9.42076
-5.84137 123.279 4.01149
-3.67777 123.046 1.39447
9.07065 123.932 -7.25646
8.50406 123.137 -9.13948
-20.9234 113.177 -13.093
-16.3757 120.988 6.23494
7.1778 122.336 -10.4937
13.0596 125.561 -6.08253
-1.32368 122.25 -3.37406
10.5511 127.439 1.66814
12.3333 125.186 -6.62595
6.45207 127.148 4.26063
-3.45604 122.799 -0.115432
-28.0289 115.151 -1.42057
9.48997 124.062 -7.74272
-32.1318 111.567 -8.6127
-30.524 111.819 -9.38306
0.0334593 122.882 -3.14049
19.216 127.321 -6.73793
19.6577 128.189 -4.55114
12.5356 125.513 -6.31601
-8.05457 122.727 3.39217
4.46436 121.608 -11.1363
-17.5293 114.792 -12.206
17.5845 130.325 3.2603
6.21991 125.61 -0.964247
-2.62135 122.616 -2.22654
-27.1038 116.136 -0.147149
8.46836 123.367 -9.74462
17.5149 130.564 3.80488
17.2602 130.577 4.00856
11.5109 125.332 -6.65413
20.4121 129.748 -1.28102
7.30216 127.753 4.16007
14.4959 129.743 3.76617
-17.2777 115.135 -12.0207
1.72226 121.317 -10.3965
2.71294 124.733 -1.11952
-11.1959 116.701 -12.9124
1.73921 121.397 -10.3433
-24.5197 118.133 2.83094
8.19328 123.819 -8.8994
-28.1786 115.737 -1.17479
7.02655 122.82 -10.9314
8.89347 128.063 3.006
17.6733 130.898 3.75961
6.99335 126.27 -0.825405
-7.79599 117.964 -12.819
0.586848 121.328 -10.1567
-27.9712 116.126 -0.738273
-23.0356 119.455 4.80454
-13.3098 116.849 -11.5622
-4.62934 124.388 3.22209
6.11417 125.431 -3.17885
-7.75782 123.58 3.41781
18.4579 131.055 2.48856
-26.9815 112.739 -12.4381
14.8492 127.731 -4.3634
-12.6804 123.092 5.91947
5.97961 125.651 -2.82631
-21.9056 114.149 -12.823
7.73447 126.891 -0.77253
7.67493 126.789 -1.11077
-13.5835 117.205 -11.1117
2.68548 127.027 3.89242
8.81253 126.225 -3.91591
8.02376 126.116 -3.55651
8.1573 127.398 0.114127
13.091 127.304 -4.5025
2.15106 127.262 4.94155
8.46775 127.478 0.0448476
12.3669 130.052 4.28448
16.7285 128.476 -4.26678
3.54585 126.086 0.15144
10.1336 127.33 -1.93546
-3.40306 124.779 2.29134
3.13154 125.663 -0.82041
-23.3605 119.793 4.79785
-12.3164 117.496 -11.7589
-5.62613 124.713 3.89469
-13.5632 117.425 -10.9441
-23.9099 119.361 3.89016
12.8435 127.369 -4.58334
7.58477 126.471 -2.68241
9.27818 125.535 -6.96735
7.61188 128.709 3.94085
9.20242 128.94 3.10379
-3.74899 125.042 2.80699
-2.20099 123.985 -1.72516
3.3003 128.039 5.54447
7.56591 126.432 -3.1066
10.3321 126.211 -6.21085
-4.76793 124.996 3.32624
-31.2974 114.184 -5.7208
-24.9482 118.549 1.73761
-15.8301 117.045 -10.913
-0.127803 124.18 -3.41107
3.4386 127.203 2.4378
5.28303 128.589 4.88548
-20.597 115.261 -12.2371
-10.4225 124.152 5.28262
8.2073 127.003 -2.57133
-26.686 117.716 0.211086
12.9221 130.563 3.81692
-5.02092 125.22 3.49962
8.55055 127.463 -1.70675
-20.8027 115.355 -12.2221
8.6529 126.005 -6.26322
-19.0414 122.929 8.81439
-22.309 114.891 -12.6029
3.67518 128.544 5.33842
-29.6411 116.171 -2.4515
-16.5489 123.316 7.32742
7.26802 126.024 -5.47566
-31.3103 114.117 -7.24828
0.818017 122.705 -9.85311
8.45756 127.056 -3.56282
5.20278 123.542 -11.2454
-17.1853 116.964 -11.3519
3.27995 123.21 -10.7695
2.33995 128.14 4.68564
9.56349 127.504 -3.56951
-29.5615 116.456 -2.25856
6.18719 123.989 -11.1573
16.9785 129.575 -3.97903
7.29884 126.919 -3.45753
10.441 128.131 -2.70403
-2.61783 125.061 -0.448179
13.3572 131.162 3.70433
-6.85041 119.853 -12.359
-8.289 124.66 3.20332
-26.1019 118.599 0.679815
9.05024 127.838 -2.57012
-4.27998 125.905 3.31671
4.12945 127.645 1.11423
13.9472 131.45 3.83887
10.1203 130.274 3.61555
-10.3604 124.842 5.30627
1.07898 123.159 -9.76523
-2.74694 125.71 1.13923
17.58 130.398 -2.81571
17.1818 129.965 -3.83423
-24.491 120.536 4.50007
-13.969 118.847 -9.77282
10.1531 128.5 -2.23913
-13.7886 124.339 6.3178
-2.42923 125.411 -0.448708
-27.1094 114.271 -12.2769
-26.1759 114.503 -12.4444
5.29702 124.179 -11.1575
-2.58447 125.819 0.62889
3.57925 129.085 4.84728
-20.9743 122.728 7.24698
-16.5164 124.289 7.96727
-7.43624 120.143 -12.3907
3.21771 129.01 4.60306
4.27509 128.154 1.02048
-14.2546 119.187 -9.52385
-30.54 116.379 -3.64093
-30.9573 114.715 -8.39005
-26.4104 119.298 1.29168
-3.42194 126.696 3.17336
6.10191 127.483 -3.02085
-0.448471 123.407 -9.48918
-2.98437 126.607 2.17938
18.4425 133.374 3.51422
-27.8729 114.8 -11.3672
5.7991 124.804 -11.0612
19.4363 132.425 -0.316395
-15.9194 118.836 -10.0502
-13.391 125.246 6.77028
-7.4211 125.995 3.64423
-9.30623 120.33 -11.6704
-19.1195 117.54 -11.4172
-24.7917 115.513 -12.5991
14.9825 132.78 4.00368
-21.2925 116.789 -11.9582
7.60379 127.269 -6.16737
-2.26999 126.61 0.50548
7.16226 130.524 3.88636
13.7105 129.55 -4.76641
18.1041 131.746 -2.06579
6.6103 127.746 -3.95925
13.6489 132.39 3.71819
18.9224 133.786 3.23381
4.29287 128.457 0.141697
-10.4206 120.387 -11.0708
-2.38918 126.782 0.867059
12.526 129.16 -5.18262
-18.7134 117.981 -11.2846
-28.5041 118.585 -0.895797
-2.51924 123.055 -10.3339
-30.7919 116.329 -5.63439
-10.1475 126.042 5.22711
-3.34202 127.406 3.31635
4.53274 124.979 -10.8532
4.24015 124.959 -10.7973
-24.5839 121.791 4.93967
-16.7163 125.203 8.1232
-17.8267 125.024 8.4913
-8.69715 121.015 -11.6286
4.31034 128.713 -0.0636695
19.6787 133.909 1.88703
8.90081 128.153 -6.02421
-30.5846 117.037 -4.74825
-30.7372 115.952 -8.00215
0.366312 126.871 -2.69101
-25.4749 121.172 2.92872
-2.65574 127.83 2.78677
6.49663 128.691 -2.7088
-7.48782 126.738 3.65628
-15.3181 125.824 7.7181
8.8485 128.382 -5.85529
4.33228 128.959 -0.231808
6.84954 128.528 -3.83445
-10.2676 126.596 5.34039
19.4426 134.164 1.84007
2.45245 125.159 -10.1562
7.13865 128.397 -4.60975
-2.52521 128.018 2.70577
-2.16935 123.932 -9.94033
-11.8602 121.234 -9.5064
9.33116 127.996 -8.0469
-17.8558 119.258 -10.4018
4.40936 129.298 -0.203125
4.11966 129.849 1.6808
9.10989 128.65 -6.37286
9.43345 128.365 -7.52811
-25.1313 122.256 4.46143
-1.11628 127.616 -0.658164
18.4067 132.94 -1.93074
-30.3858 117.927 -4.01482
-0.96485 127.761 -0.768185
-2.75442 124.077 -10.2394
17.5431 132.36 -3.306
-1.5985 124.695 -9.47413
10.3437 129.254 -6.33465
-28.7779 116.379 -10.485
3.53758 130.411 2.89742
7.28129 129.148 -4.28989
14.0061 130.978 -4.74067
4.34609 130.236 1.49719
-14.1466 126.769 7.26392
-26.7556 121.344 2.0132
19.1827 135.218 3.06651
-18.083 119.753 -10.461
10.9153 130.6 -3.5653
-30.4238 117.194 -7.66388
-27.1704 121.329 1.79335
16.3202 132.215 -3.9007
7.68201 129.296 -5.10196
-6.11602 123.246 -11.15
10.2615 130.778 -3.13543
-21.534 118.541 -12.0346
-9.73532 122.762 -10.0208
-7.40373 128.031 3.63144
-3.05473 129.297 3.42665
14.7994 134.736 3.97861
-3.5935 129.269 3.77986
-28.4089 120.774 -0.0116702
-0.120937 128.653 -1.44572
7.97072 133.056 4.59276
8.64031 128.38 -9.96697
4.77283 132.156 4.54478
-1.53576 129.47 2.0311
0.563783 126.355 -9.13725
-9.29054 127.853 3.79443
15.0009 132.238 -4.44587
-6.33923 128.781 3.9271
-13.4063 127.555 6.44636
7.42586 130.429 -3.28365
-10.7346 123.206 -8.94448
-0.628496 126.354 -8.5328
-13.4114 127.619 6.41872
-8.4158 123.465 -10.3781
-8.32678 123.488 -10.388
4.83195 132.322 4.45246
19.055 135.716 2.08535
16.7333 135.865 4.43152
-4.2673 124.717 -10.5083
9.71156 130.375 -5.96405
-3.36027 125.189 -10.059
4.48174 130.472 -1.23887
10.0091 130.823 -5.28853
2.15547 127.022 -9.82622
18.3263 134.419 -1.97274
-22.8589 125.039 6.05206
8.52837 128.89 -9.97159
-9.75147 123.698 -9.47864
16.1777 135.975 4.28161
18.1941 134.413 -2.22935
18.9429 135.809 1.156
-26.2452 123.382 3.58902
9.19078 130.505 -6.25803
-29.7929 118.471 -8.05634
-28.3032 118.29 -10.1089
-10.6903 124.134 -8.30428
4.12254 127.931 -10.2571
11.273 131.979 -4.5011
-8.22889 124.591 -9.57014
-20.4127 126.513 6.78976
-27.2277 122.762 1.53037
-10.811 128.742 4.97515
10.7145 132.076 -3.98907
8.81352 131.086 -5.32938
10.232 132.438 -2.67348
-29.7755 119.023 -7.74376
9.10595 130.05 -9.03128
-17.8502 121.792 -10.1974
-29.8389 120.23 -4.45093
-5.03141 130.443 4.23954
8.46395 134.403 4.21876
-13.7132 123.87 -7.84934
11.7808 135.52 4.40372
-0.565028 130.882 1.37476
-4.9401 125.744 -10.1917
4.92887 132.833 2.32616
-5.29958 125.736 -10.0518
-18.5233 127.788 7.42106
4.77318 131.638 -1.52216
-0.991071 131.026 1.6841
-29.3374 121.282 -2.61845
-26.2009 124.186 3.25362
13.399 132.836 -5.64136
16.8562 134.611 -3.41237
17.1823 137.359 4.39544
-11.4794 129.254 5.20858
18.4373 135.882 -1.39023
-7.48163 125.659 -9.28126
-29.6774 120.183 -6.19329
6.8115 129.639 -9.99497
-26.112 123.847 1.40312
4.40331 128.995 -9.9841
14.9503 136.86 4.236
-4.89636 126.308 -9.8765
0.100544 128.351 -8.18519
9.25234 130.749 -9.23084
-14.0915 124.446 -7.63038
8.24009 130.269 -9.86273
-28.9961 120.681 -5.87831
16.0411 137.39 4.46645
-28.4496 121.137 -5.08978
7.28388 130.029 -9.89532
-5.1117 126.456 -9.72433
-26.1024 124.09 1.5532
9.96604 133.065 -3.3762
-28.0152 119.827 -9.73072
9.1494 135.307 3.86917
-27.0047 123.709 0.881096
12.3545 133.399 -4.72508
3.47316 129.136 -9.89161
-4.30095 126.966 -9.67583
-26.1492 124.401 1.76457
-13.1962 125.094 -7.54029
-1.0537 128.433 -8.279
17.0067 138.021 4.38651
-4.06445 131.708 4.0097
-6.66161 131.079 4.28509
11.2522 133.751 -3.45368
-11.6324 129.906 5.03447
-27.213 124.329 1.94341
-28.2501 122.731 -1.95595
-28.316 120.285 -9.22753
-25.3412 124.217 -0.107241
-17.3406 123.686 -8.74562
10.1319 136.116 4.10898
-0.562045 132.243 1.77746
-28.316 123.215 -1.07239
-0.570347 132.405 1.85312
-18.0841 128.956 6.85594
15.2889 135.147 -4.05261
14.0574 134.6 -4.66861
-17.4798 129.371 7.27247
10.8601 133.022 -6.7011
12.8717 137.438 4.70513
5.59661 135.08 3.99188
4.35676 132.721 -2.05254
-6.27488 127.323 -8.86316
10.8058 134.314 -3.13778
-25.749 125.74 3.17968
-11.6752 126.514 -6.87244
16.2714 136.004 -3.05513
9.1622 136.252 3.87497
6.23546 135.598 4.3936
-28.8957 121.172 -7.94078
9.63392 132.271 -8.63241
-5.53125 127.735 -8.88178
-22.3696 122.305 -10.473
13.1248 134.558 -5.09673
-5.47035 132.175 3.99356
5.90193 135.458 3.81591
-5.47209 127.895 -8.82236
-28.2048 122.41 -5.32322
6.36283 131.242 -9.26893
11.1789 133.778 -5.94283
-28.3475 121.936 -6.65686
9.43227 136.562 3.83708
8.21818 136.266 4.00916
-28.2029 124.44 0.389575
-16.2201 129.992 6.44681
16.5704 136.585 -2.62026
9.28981 136.617 3.7925
-6.12348 132.148 3.95811
-19.5455 123.592 -9.8654
-1.79809 133.148 3.03812
-27.816 125.275 2.32792
11.3507 134.747 -4.0725
4.64934 131.047 -9.34582
5.96356 135.231 1.97845
6.35457 131.714 -8.9277
-24.7285 127.543 5.74611
-16.9413 125.186 -8.14296
-27.551 126.437 4.87988
-16.1384 125.567 -7.85055
-26.8107 124.312 -2.2943
-12.0462 131.198 5.22148
-7.5986 128.137 -7.84875
-27.8346 126.213 4.10492
9.49494 135.004 -2.65829
-26.0472 126.191 2.18193
-6.89348 132.356 3.79254
19.2306 139.641 2.63265
-27.9207 123.331 -4.82112
-27.8919 125.969 2.99938
-12.2527 131.448 5.56361
-26.0234 126.169 1.81099
-26.0423 126.213 1.94231
4.61976 134.125 -1.32103
-3.70261 129.256 -8.59401
2.29627 133.392 -1.50907
-3.89843 129.207 -8.5821
-26.6835 123.957 -4.304
-28.1569 126.117 3.42871
-27.2846 125.892 1.88707
9.82165 137.457 3.88717
-18.8124 124.675 -9.19357
19.1372 139.512 1.66521
9.16491 137.394 4.0459
-12.5063 127.342 -7.0548
-26.8663 126.592 3.2163
-14.0566 131.102 5.29982
-7.57306 128.736 -7.4859
-27.6629 126.418 3.20361
3.26615 131.379 -9.13714
-28.2928 125.03 -0.458564
-23.3739 128.326 5.04707
17.7315 139.851 3.4214
6.49854 135.992 1.74394
-28.3101 122.586 -7.85678
-24.0123 126.122 -1.09106
-26.3036 124.497 -3.97752
-25.5875 127.692 4.92719
-12.6359 131.76 5.67402
-27.8733 126.593 3.60322
-9.50559 128.624 -6.44146
11.3095 135.96 -2.83342
-28.609 127.024 5.42581
-13.895 126.903 -7.87732
-23.4005 128.424 4.9845
-11.6588 131.438 3.68289
14.6672 139.62 4.94876
-2.54537 130.128 -8.37672
-25.1641 128.041 5.22069
-3.47764 129.882 -8.33165
-11.2607 131.631 3.68258
1.91517 133.957 -0.952786
-27.055 127.356 4.68596
8.53873 137.698 4.32675
-26.8318 125.282 -1.76276
-24.3778 123.316 -9.79463
-25.9441 124.586 -4.745
-8.913 128.981 -6.58207
-24.4611 126.482 -0.601431
-24.1907 128.528 5.25836
-27.3262 126.791 2.79741
17.0576 138.428 -1.37283
-0.235785 134.525 2.10915
3.40106 134.699 -0.562281
11.052 135.044 -6.28201
-12.9971 127.67 -7.21846
10.9576 136.015 -3.39005
-22.9337 128.952 5.12272
13.2169 136.727 -3.40727
-24.9098 126.66 -0.0814677
10.6842 135.686 -4.4185
-2.53774 130.556 -8.20348
-26.0508 124.409 -5.98259
5.91335 133.01 -8.35425
-17.5304 126.222 -8.08601
-27.1621 126.663 1.67586
8.43273 138.064 4.48645
-26.8904 127.31 3.21788
-4.21735 130.227 -8.01509
-21.7648 124.349 -10.2105
3.59033 135.018 -0.616479
6.50575 135.947 -0.415816
8.14016 138.133 4.65595
-25.966 125.113 -4.34668
-26.2561 126.192 -0.8693
-15.0309 127.153 -7.85452
-25.9606 128.325 5.20552
-29.1141 126.653 2.89679
-19.5759 125.22 -9.75523
9.74077 136.258 -2.50014
-24.7767 126.649 -0.984683
-27.2127 125.903 -1.07905
1.45584 131.904 -8.35335
4.97342 132.999 -8.33171
-25.1406 126.651 -0.920623
-7.15408 129.908 -6.99664
-26.6647 125.906 -1.83966
-27.9416 126.78 1.87067
-8.68032 132.97 3.41601
-25.5287 123.641 -9.76863
-30.5036 126.224 2.26854
-27.3031 126.128 -0.872544
-27.2896 126.747 0.864406
-29.5354 126.912 3.32436
10.6109 138.842 3.67395
-26.9858 126.781 0.549728
17.082 140.84 3.88763
-19.0201 125.928 -9.07403
-23.0283 129.621 5.46007
2.15676 135.067 -0.388609
-26.3205 126.018 -2.46604
-26.201 126.471 -1.22792
-23.8728 126.368 -3.64612
-23.5847 126.915 -2.29246
-25.6124 125.572 -4.53407
-8.39669 130.11 -6.09798
11.6136 139.485 4.29172
4.6448 135.531 -1.47801
-27.1565 126.664 -0.0828717
-25.6739 129.139 5.94358
18.1286 141.018 2.98755
11.7731 137.478 -2.0145
16.1301 138.973 -1.3964
-25.2663 129.575 6.75298
-24.6726 126.989 -1.49832
-21.2553 130.094 4.7764
-29.5809 127.074 3.04314
-29.5567 126.379 0.900605
-21.0066 130.208 4.8159
-27.4133 127.735 3.02482
-25.1106 126.135 -3.89679
-14.8496 127.795 -7.98511
-24.9411 126.284 -3.69162
-30.2552 126.756 2.3696
-27.3137 126.851 0.0391877
7.53136 137.279 0.549885
-24.1344 126.743 -3.17891
-26.8344 128.705 5.04682
-10.9323 129.563 -6.34916
-28.8842 128.086 4.94225
-24.447 130.015 6.81043
-24.801 125.712 -5.77725
2.59958 132.813 -8.64208
-23.748 130.414 7.25004
-19.7977 131.037 5.61698
-29.545 127.38 3.07333
-25.0095 127.299 -1.14731
-29.3724 127.278 2.6143
-21.5903 130.321 4.79266
0.711602 135.707 1.32009
-27.5416 129.125 6.29061
-24.9429 125.857 -5.80412
18.231 140.577 0.255921
-1.10818 135.646 2.46975
-25.5872 124.47 -9.45182
-23.4427 127.569 -2.09993
-25.4566 129.668 5.87284
-23.0163 130.837 7.17066
12.2832 138.139 -1.9923
10.7802 137.033 -3.97996
-26.5784 127.429 0.0849137
-31.3588 126.926 2.71338
-23.791 127.412 -2.49571
-26.4067 128.935 4.25749
-23.8067 127.487 -2.46846
-24.8417 125.908 -6.38071
-6.1556 134.486 2.80502
-26.1021 128.795 3.2846
-24.2803 130.289 6.13882
-25.492 124.785 -9.327
-8.20368 133.973 2.9515
-26.0759 127.329 -1.22777
0.932146 136.103 1.25585
-25.2007 127.109 -2.81033
-30.7197 127.403 2.87508
-2.6078 132.318 -7.15579
-29.1255 126.843 -0.441673
-13.084 133.38 5.00666
-29.5319 128.359 4.40535
-5.97771 134.739 2.75452
-23.5106 127.309 -4.15947
-27.8426 127.077 -1.06691
-2.0791 132.545 -7.33726
15.8485 139.872 -1.24592
15.079 139.383 -2.04255
-28.523 127.653 1.14897
-22.068 126.126 -9.13918
-22.3811 131.117 5.9782
-8.13078 131.479 -5.50918
18.323 142.003 2.70896
-23.3512 131.156 6.7949
-24.9838 127.117 -3.85689
-29.2773 128.091 2.49323
-27.0331 127.552 -1.13871
7.11307 137.931 -0.171945
-25.1679 127.827 -2.062
-16.0149 128.386 -8.43369
-26.8486 126.421 -4.82169
6.0953 135.037 -8.00664
2.65914 133.873 -8.49496
-5.53954 132.147 -6.49306
-24.7269 127.485 -3.63048
-25.1727 128.131 -1.36264
-4.29417 132.536 -6.61587
13.7558 141.703 4.91326
-24.5516 128.21 -1.80644
-24.3104 127.272 -4.9048
-26.4856 126.408 -5.63628
10.2118 138.565 -1.56468
-22.8033 131.635 6.66084
-21.7934 131.765 6.15303
-16.7765 133.055 5.59718
-1.32706 133.262 -7.37012
13.3891 141.671 4.80405
2.31109 136.713 -0.380233
-23.8565 127.806 -4.17398
-30.0835 128.732 4.02878
-24.4713 127.79 -3.7701
-23.8893 127.814 -4.23178
-24.541 127.764 -3.84916
-24.7848 126.428 -7.78427
9.95823 137.476 -5.32669
-24.9571 127.419 -4.7714
-24.4735 127.116 -6.17004
-24.5638 127.703 -4.33813
-24.0006 127.889 -4.3525
10.4354 138.74 -2.15293
-4.67206 136.097 3.15846
-8.16049 132.233 -5.45747
-4.88544 132.972 -6.12581
-25.0571 127.518 -4.82083
-16.6054 133.547 5.68203
-7.94608 135.062 2.5986
-8.04653 132.386 -5.42043
10.4488 138.997 -1.99387
-24.9014 127.665 -4.89996
-23.9047 128.565 -3.11985
-24.2477 127.823 -5.04394
-24.4467 127.711 -5.29757
-29.225 129.657 4.66158
-24.4526 128.702 -2.47045
-0.401393 134.197 -7.17198
8.10798 136.367 -8.18298
-5.64529 133.264 -5.65535
-8.62202 135.222 2.75847
-14.3535 134.271 4.92824
-11.6454 134.627 3.57106
5.58551 138.103 -1.22189
16.712 143.036 3.70387
10.1781 138.202 -5.05805
10.5792 141.204 3.50776
-16.3727 134.023 5.63054
-29.1711 127.669 -2.13323
-27.0406 127.897 -3.37018
-17.7001 128.829 -8.78067
-24.2118 127.089 -8.31692
16.0124 143.076 4.15191
-26.0327 128.34 -3.15037
-24.3466 128.863 -3.07467
-26.2384 131.557 6.56563
-3.19688 134.28 -5.51098
17.7882 142.599 0.811537
6.22842 136.295 -7.89074
-24.2103 127.85 -6.42618
17.1593 142.103 -0.157424
-30.7107 129.126 3.05558
13.0742 140.689 -0.888947
-24.4353 127.712 -6.79305
-11.4675 131.602 -6.54501
-14.3752 134.441 4.46328
-13.1263 130.936 -7.14441
12.3671 142.312 4.45167
10.5523 139.163 -3.54802
16.278 141.996 -0.284927
-31.338 128.002 -0.413872
-19.8692 133.717 6.58973
-5.85925 136.585 2.82988
-24.3282 128.614 -4.78317
2.87429 135.726 -7.4787
-25.343 128.385 -4.70053
17.9129 143.289 1.87958
-24.1897 127.786 -7.51051
10.8164 140.33 -0.820805
-26.5844 128.52 -3.33979
-23.1966 129.511 -3.6982
-26.5786 128.686 -3.30887
1.22193 138.621 1.92055
-9.0835 135.895 2.81008
-29.8621 128.001 -2.5494
-4.67341 134.588 -5.05492
-23.5173 129.533 -3.66815
-22.4972 128.064 -9.0164
-24.0474 129.041 -4.74712
1.68845 135.926 -6.91987
8.63497 137.594 -8.15037
8.38863 140.828 1.56163
-23.191 128.835 -6.62839
-10.7016 132.659 -6.19804
-23.5863 129.585 -4.08283
16.7576 142.962 0.455353
-27.4136 129.046 -2.50317
12.5929 141.654 0.0613545
8.11062 140.537 0.647918
-23.895 129.506 -4.30715
16.5909 143.004 0.494597
-7.39202 134.104 -5.17486
-1.50295 135.721 -5.57706
-23.7251 128.76 -6.95822
6.7705 139.833 -0.683927
-13.8172 135.244 3.578
-14.8966 131.041 -8.04365
-20.9209 128.797 -9.55912
-26.2242 129.175 -3.81317
-10.0515 133.225 -5.91103
-20.2299 129.218 -9.00547
-23.208 129.042 -7.00787
-27.135 128.876 -4.1297
10.4838 139.94 -4.12384
8.69136 141.966 3.45181
-18.0403 130.063 -8.70405
3.16272 136.661 -7.64571
-6.46088 137.288 2.56385
-22.6309 130.559 -3.3982
8.55791 138.177 -8.06572
10.975 141.302 -0.910756
-17.7799 130.187 -8.92996
-30.5363 128.694 -2.2296
-25.6898 129.792 -3.37489
-0.339457 136.281 -6.25967
-22.449 129.302 -7.72633
10.5416 139.919 -5.08423
-13.0723 132.258 -7.33899
-21.9026 129.119 -8.97029
-14.9727 135.657 4.3763
14.1915 142.822 -0.0109693
-3.14461 138.503 2.23781
10.5069 141.322 -1.31991
6.73103 140.451 -0.622123
-23.2424 130.669 -3.57813
-30.4774 130.702 2.79674
-11.2663 133.27 -6.52036
-28.2108 131.722 3.40827
-21.2564 129.708 -8.72105
-15.0649 135.905 4.24589
7.26074 140.925 -0.416961
10.6318 140.547 -4.50758
-15.6091 136.019 4.96462
-17.0366 135.797 5.54056
-16.4115 135.922 5.34961
-9.97504 136.858 2.47598
-18.0275 130.688 -8.90832
-11.6409 133.298 -6.71544
-27.174 129.492 -4.4676
-22.877 131.164 -3.3069
-21.3406 129.98 -8.27974
6.28438 138.263 -7.76751
-31.5746 129.605 -0.428927
-23.2076 130.925 -3.93766
11.5629 142.371 -0.244451
-22.2788 130.492 -6.06759
4.58765 140.109 -1.0769
-23.4371 131.054 -3.57194
-13.6888 132.494 -7.85814
-5.5967 138.459 2.71107
15.0491 143.888 0.677281
2.89004 137.924 -6.48137
-11.9744 136.618 2.61048
-15.4297 136.33 4.71106
-22.2129 131.69 -3.24789
-15.5344 136.36 4.83637
0.22923 137.312 -6.17898
-20.3216 130.383 -8.95125
-9.26006 134.743 -5.69746
-22.1554 131.782 -3.43086
-22.9336 131.2 -4.51553
-31.5214 130.033 -0.566651
-24.2655 130.961 -4.37033
-20.4057 130.599 -8.89279
-21.7744 131.272 -5.69684
1.59366 137.953 -6.24233
-23.536 130.817 -5.65286
-28.218 129.988 -4.05001
-21.4625 135.093 5.23953
-19.7897 130.971 -8.63344
16.5137 144.855 0.981031
0.775323 140.522 1.80695
-10.5248 134.523 -6.21552
-20.0797 130.878 -8.72684
-21.4492 131.627 -5.33705
-22.0933 132.204 -3.20816
-25.5466 130.412 -5.5506
15.0516 145.444 3.52111
-22.5703 131.921 -3.95006
-14.8939 136.89 3.86921
6.87001 141.812 -0.528127
-26.8822 130.532 -4.79442
-0.620786 138.109 -5.21207
4.44589 138.697 -7.9257
-13.7787 137.148 3.42307
-13.6034 133.291 -8.26842
-24.5178 134.665 5.20675
8.76792 143.232 1.53628
-17.9155 136.719 5.43052
-21.0302 132.96 -3.09692
-30.0642 129.834 -4.54083
11.626 145.084 4.17157
4.74473 141.407 -0.838671
-9.07529 138.215 1.73712
1.58419 138.824 -5.82438
3.37929 139.175 -6.38181
-21.1012 132.689 -4.43365
4.40471 139.091 -7.73684
-20.1571 133.352 -3.39541
14.9095 145.962 3.45892
-26.7686 131.17 -4.2638
-20.962 131.677 -7.85305
-20.162 132.44 -6.33286
-31.4174 130.931 -0.993436
-30.4574 132.227 1.74836
-10.5175 135.375 -6.39083
9.57139 141.725 -5.12304
-28.548 130.434 -5.5751
-0.795773 141.049 1.78633
-4.02277 138.081 -4.25648
-21.9865 133.269 -2.91447
-6.09422 137.485 -4.35109
11.5518 144.097 -0.111559
7.26072 140.366 -7.49368
2.75982 139.628 -5.80263
-7.13588 139.473 2.34807
-23.5062 135.392 4.45906
14.0903 145.209 0.779072
6.64488 142.648 -0.579181
-31.3325 131.507 -0.562335
12.006 145.801 4.12199
3.51883 139.871 -6.16713
10.4605 143.309 -2.01394
-11.7181 138.201 2.02686
-13.2001 134.308 -8.34788
-9.39209 138.758 1.52087
-24.8509 135.146 4.28037
12.8843 146.239 4.27462
-30.8595 132.229 0.725195
-2.00736 141.205 2.11142
-29.1352 133.106 1.64639
5.54131 142.591 -0.540339
-22.4704 136.056 4.38314
-19.9785 134.156 -3.49617
3.76185 142.272 -0.0751899
15.0904 146.58 2.79368
3.86279 142.341 -0.114272
-17.7454 133.751 -6.89323
-21.5266 136.966 5.99283
-20.9277 134.279 -2.56915
-20.5642 133.959 -3.852
-31.0789 132.176 0.00175386
10.6549 145.607 3.46644
-30.004 132.992 1.42597
2.97397 142.423 0.666494
-12.7885 134.821 -8.2216
-8.79059 139.304 1.61366
11.8077 144.896 0.172014
-21.252 133.21 -5.87117
-29.4304 131.82 -2.89091
-30.3397 131.879 -2.16893
-9.09638 139.336 1.47468
-24.8543 132.249 -5.90331
-19.8697 134.348 -4.06248
4.72631 140.548 -7.14565
3.24985 142.748 0.570963
9.05383 144.455 0.575149
3.85671 142.743 -0.0108634
-29.1877 133.554 1.3627
-8.6888 137.133 -5.92644
10.2628 143.327 -4.21692
-19.6255 135.186 -2.32881
-23.5663 136.09 3.78178
-29.1889 131.918 -3.78596
-10.4466 139.24 1.64758
2.03081 140.678 -5.0746
-26.6152 134.695 2.1357
-30.5123 133.142 0.905602
-20.0318 138.088 6.35354
-14.3713 134.45 -9.54517
-18.6113 134.271 -6.39706
3.26505 141.048 -5.39474
4.23029 141.135 -6.16653
-17.5302 134.874 -5.84648
-19.7327 135.188 -2.98047
14.7856 147.054 2.16
-8.189 137.622 -5.86399
14.0254 146.449 0.802576
-26.7363 134.879 1.98719
5.07969 141.184 -7.11074
-19.1878 135.181 -3.76249
-19.1687 134.834 -4.9164
-5.45023 139.039 -4.40671
-18.6387 138.915 6.57452
11.8556 145.717 0.009846
-28.8014 132.411 -4.09502
-25.08 132.635 -6.90106
4.01656 143.594 0.241233
-18.6512 135.176 -5.02594
-13.9793 139.254 3.02959
-18.3754 135.653 -3.99711
-28.5966 134.408 1.15721
-22.6616 137.244 4.3855
3.02115 143.7 1.12142
-22.458 133.42 -7.24392
14.0996 146.856 0.784667
14.9298 147.11 0.694124
10.5 144.44 -3.44293
-27.7463 134.833 1.38257
-29.6674 134.125 0.949963
12.2099 147.279 3.35377
-17.2847 136.077 -4.54678
-3.42476 140.385 -3.88067
-12.354 136.222 -8.5008
-20.3523 135.184 -4.68541
-18.4181 139.526 6.46433
2.34846 141.893 -4.68607
-5.52339 139.644 -4.53737
-28.2587 133.701 -2.36116
-15.7324 135.824 -7.07193
9.38744 143.806 -5.44089
-12.1053 139.992 2.00636
-24.9263 136.565 2.87155
-17.2723 139.504 4.92708
-19.1945 136.644 -1.93886
-29.7264 134.461 0.766961
-20.7489 138.831 5.89361
-7.81036 138.644 -6.07408
-11.1373 140.801 3.26872
-27.9005 135.187 1.14546
11.9355 147.598 3.20775
-4.64874 142.394 2.18049
-5.50978 139.897 -4.58152
-17.8014 139.896 6.08676
12.9646 148.009 3.25042
-12.0209 140.347 2.22878
-19.696 139.402 6.06996
-5.61863 142.236 2.16988
-23.6648 137.538 3.74934
7.43046 143.137 -6.79803
-11.7887 140.676 2.56291
-8.86135 142.244 4.6268
-7.19302 141.957 2.16733
7.13616 145.43 -0.157118
-14.1017 135.934 -9.92064
-20.4952 139.335 5.82006
6.45547 143.128 -6.71923
-9.20378 138.588 -6.71097
-7.93825 142.82 4.76099
3.75586 143.025 -4.92664
-0.7772 144.07 1.92223
-19.2918 136.799 -3.59373
0.284194 142.526 -3.74374
0.433012 142.566 -3.76531
-16.4605 140.402 4.49761
-8.35704 139.127 -6.46585
-6.51724 142.76 2.74449
-11.1944 141.825 3.91494
-17.7606 137.265 -3.95253
-21.829 135.613 -5.38545
-6.06824 140.378 -5.0623
-5.76901 143.393 3.6008
-22.7479 134.918 -6.90454
-10.2391 138.309 -7.81884
-2.76872 143.842 2.15575
-7.73772 143.499 5.48123
-9.30855 142.849 4.90843
-6.85579 143.886 5.83174
-12.9884 137.075 -9.13813
-18.1466 137.629 -3.0083
-9.70877 138.687 -7.25988
6.38776 143.698 -6.46376
-23.6487 138.542 4.42625
-20.7894 136.108 -5.35752
-22.5449 135.123 -6.7593
-29.8568 135.361 0.339351
-17.4942 140.677 5.29724
-14.9658 141.089 4.22419
-11.9386 137.643 -8.82992
-21.113 139.836 5.73215
-4.80049 143.439 2.05004
3.47583 145.606 1.26125
-13.5914 141.015 2.45937
-4.84227 143.519 2.25941
-29.7511 135.62 0.275079
-12.9605 137.398 -9.24655
-15.4781 137.438 -7.0124
-28.7494 135.14 -2.47696
11.5593 147.37 -1.47007
-12.2936 141.812 2.77597
-20.055 137.095 -4.72221
-20.2157 136.902 -5.24283
-17.9034 138.055 -3.83849
-26.7422 137.49 2.21045
-28.3393 135.383 -2.75279
8.40533 147.268 0.397321
-0.618646 145.308 2.40954
12.9418 149.385 2.57874
-17.491 141.296 5.08245
-3.03457 142.614 -3.68074
-14.8347 141.77 4.12517
-10.7594 138.717 -8.60371
6.7909 146.852 0.236976
-13.0736 137.806 -9.45658
-18.369 138.439 -2.98314
-2.50539 144.851 2.24538
4.0686 144.486 -4.65866
1.23818 144.133 -3.40131
-1.9191 145.324 2.82194
0.139304 143.932 -3.19408
-18.9703 138.368 -3.26173
-29.4312 136.417 0.074038
-17.9723 138.671 -3.28962
8.77937 147.844 0.529058
-28.4736 136.009 -2.27116
-16.2219 138.622 -5.21417
7.48546 145.294 -6.13973
-25.7276 138.581 2.83714
11.5173 148.626 0.118227
-24.5539 139.206 3.61288
-29.6578 136.49 -0.109936
11.7224 149.595 2.50341
9.61678 147.235 -2.73325
-3.73322 145.466 3.52909
2.66189 144.964 -3.58208
-12.243 139.074 -8.67446
-2.60004 143.598 -3.63651
11.8467 149.922 2.52109
4.39491 147.422 1.58224
6.31154 147.581 0.375353
-26.3242 136.73 -3.44503
-15.5329 138.821 -6.8359
-13.1183 139.129 -8.14359
-13.815 139.115 -7.64885
11.4097 149.914 2.39127
11.4787 149.994 2.45831
-25.3587 137.072 -3.95059
-12.901 139.379 -8.00322
-22.4896 141.08 5.45857
8.91049 146.83 -4.99056
-25.2865 137.137 -3.95572
9.53579 148.997 0.926649
-0.766658 144.673 -3.21634
-22.8327 137.109 -6.51252
7.62483 148.416 0.527971
9.27304 147.65 -3.36946
-24.1472 137.05 -5.73432
11.9754 149.902 0.684145
9.97134 148.241 -2.53022
-16.6565 139.577 -5.06369
-18.2979 142.773 5.87299
-18.336 142.786 5.91161
8.19423 148.821 0.618756
-11.2067 140.096 -8.43218
-5.49924 142.915 -5.03295
-25.6562 137.617 -3.26352
-17.4938 140.099 -3.16354
7.51866 146.674 -5.52991
-7.0198 142.138 -6.40334
11.1161 150.39 2.17497
2.24848 146.065 -3.05764
-19.7802 142.718 5.9617
9.11825 147.953 -3.85182
-16.4748 143.351 4.83165
8.55071 147.421 -5.06074
-4.4054 143.889 -4.47734
-20.9584 138.727 -5.38985
-19.3492 143.068 6.08425
-18.0297 143.331 5.70907
-18.0969 140.517 -2.6814
-9.58083 145.578 4.91385
8.98659 149.668 0.766105
2.87947 146.699 -2.92228
5.9536 148.99 1.16545
-14.1662 144.113 4.19613
12.6344 150.867 0.832935
-13.7665 140.418 -7.28292
-6.59635 142.877 -6.27724
-21.6448 138.622 -5.92068
-26.4981 140.145 2.74937
-12.1968 140.902 -7.55143
10.1483 150.603 1.77657
-9.3408 141.674 -7.8417
-22.5773 142.069 4.91175
-25.4352 138.414 -3.66435
-10.8504 145.468 4.5957
10.1353 149.284 -2.42396
-26.1759 138.772 -2.06512
-23.0826 138.716 -5.16345
4.86649 147.347 -3.95235
7.75651 147.834 -5.04331
10.1646 149.738 -1.61661
-17.344 141.41 -2.48299
6.8382 147.783 -4.6809
-21.099 139.637 -4.89097
-12.1858 145.078 3.49608
-21.5128 139.631 -4.59412
-21.0906 139.74 -4.75127
5.28197 147.729 -4.0513
-19.16 144.036 6.11333
-16.853 141.582 -3.44404
-24.737 139.304 -3.75373
-20.7301 140.472 -3.9254
-11.5866 142.091 -7.18766
-12.6695 145.332 3.42482
-0.443149 146.808 -3.01504
8.1703 148.844 -4.61661
-21.1748 140.715 -3.27955
6.41039 148.524 -4.15172
-13.8654 141.637 -6.97616
-14.946 145.337 4.98367
-5.21688 144.813 -5.19579
-27.0302 140.683 1.39296
6.69248 148.854 -4.12272
-16.9181 141.475 -5.80339
6.84938 151.086 1.98101
-16.5587 141.532 -6.08361
-12.3289 142.587 -6.73918
-8.49732 143.688 -6.90941
-16.9191 141.836 -5.13874
-12.2661 146.272 4.02759
4.77765 149.158 -2.72328
1.37972 148.23 -2.64494
-14.032 142.574 -6.05769
-22.2554 141.259 -2.85188
-26.2906 141.627 1.71132
6.65063 149.472 -3.87904
-15.2235 142.558 -5.49273
-13.9225 142.857 -5.83321
9.79455 152.275 1.08423
-21.2027 144.558 5.20999
-24.6481 142.916 3.25971
-25.4783 142.405 2.21591
8.60911 151.933 0.744636
-22.9912 141.592 -2.62401
-16.0411 143.445 -3.25518
-4.21637 146.448 -4.65736
-23.8357 141.718 -1.65336
7.82613 152.277 2.07073
-24.5277 141.676 -1.31888
8.62361 151.218 -1.95869
-17.5178 146.045 5.50579
-2.43795 147.343 -3.89483
1.59047 149.01 -2.53636
5.26174 150.125 -2.46372
-15.9203 143.655 -3.35813
-6.3011 145.568 -6.36486
-16.2761 146.574 5.34245
-17.7031 143.858 -1.89241
-7.02071 145.457 -6.60063
-25.6869 142.684 1.32299
-3.57914 147.278 -4.43645
-21.6281 142.54 -2.78219
-13.7693 147.296 4.5179
-1.44533 148.27 -3.50763
-19.1865 146.217 5.90398
-23.4638 142.479 -1.52714
6.93619 150.886 -3.25922
-13.1423 144.284 -5.54684
-3.36626 147.594 -4.36607
-17.5505 146.85 5.80519
-4.7662 146.986 -5.09641
-7.60042 145.662 -6.66987
-2.93923 147.867 -4.19281
-16.1399 143.824 -4.91633
1.59389 149.836 -2.52497
-25.4883 143.139 1.1915
9.435 152.831 -0.617899
-24.3864 142.808 -0.93142
-25.2836 143.35 1.2992
-24.5997 142.886 -0.830903
-8.20675 145.811 -6.75766
-16.5676 144.153 -4.57822
9.20335 153.679 1.04257
7.99679 153.725 2.15943
-15.9749 147.692 5.10724
-10.628 149.03 3.92569
-14.687 144.725 -5.41824
-22.8144 143.67 -1.62749
-8.03733 146.365 -6.62266
7.14667 152.591 -1.40771
6.04744 152.437 -1.49861
-9.36579 146.18 -6.74942
-19.876 144.488 -2.69132
-23.0882 144.184 -1.00012
-24.1491 144.398 0.460823
-17.0267 148.086 5.19971
-9.92503 146.286 -6.55825
-24.0888 144.361 0.0742495
0.188804 150.564 -3.1748
2.11521 151.479 -2.56453
-19.1342 145.275 -2.47733
-22.5314 144.792 -1.29035
-17.6748 145.989 -2.02629
-7.93953 147.358 -6.50447
6.8494 153.516 -1.26372
2.9858 152.037 -2.29981
-14.6482 146.109 -4.5933
-22.5813 144.944 -1.12127
-1.05301 150.422 -3.6532
6.00232 153.261 -1.4447
-13.4891 149.487 4.17418
3.53592 152.367 -2.18961
-12.9903 149.666 4.15735
-10.864 146.85 -6.24295
-23.0906 145.678 0.915146
-7.54968 147.802 -6.38112
-10.3165 147.035 -6.43442
1.64282 151.869 -2.72543
4.56772 153.02 -1.86137
-21.5582 147.199 3.50312
3.35168 152.63 -2.21622
-19.9213 148 4.30611
-6.31413 148.638 -5.78139
-15.7364 146.694 -3.57825
-22.0137 146.94 2.53124
-20.051 146.13 -1.75267
-21.7073 146.02 -0.898224
5.37394 153.862 -1.53651
0.0993957 151.845 -2.96019
-3.61557 150.316 -4.37168
-4.88417 149.784 -4.88036
-11.9679 150.676 3.64553
-6.8865 148.999 -5.92946
-11.3797 150.934 3.49003
-12.2021 150.729 3.54217
-20.8686 146.626 -1.12018
-13.2152 150.484 3.45112
-19.1437 147.156 -1.30316
-19.9874 146.964 -1.18408
-2.51858 151.23 -3.79991
-19.2773 147.332 -1.13495
-20.5861 148.311 2.89323
-14.8444 150.333 3.74587
-16.5292 148.492 -0.363127
0.511724 152.794 -2.47746
6.10363 154.942 -1.06421
-1.77254 151.86 -3.433
-18.5409 148.18 -0.297291
-18.5948 148.217 -0.260597
-12.1966 148.307 -5.76091
-1.1942 152.588 -3.04266
3.708 154.571 -1.54535
3.5482 154.581 -1.54247
-18.0991 149.043 0.689392
-11.3125 151.828 2.73248
-19.9775 148.436 0.150946
-14.5169 151.124 2.43336
-5.46396 151.93 -4.10068
-9.84692 152.86 2.41684
-18.7213 150.045 1.78964
-1.06018 153.869 -2.3418
-2.80475 153.266 -2.78455
-14.2699 149.736 -3.4191
-16.9911 150.868 1.98713
-10.0838 152.92 2.02948
-12.6871 150.047 -4.34205
-11.0269 152.668 1.96055
-11.3442 152.598 2.01546
-7.97465 151.214 -5.09447
-12.8965 152.123 1.90166
-11.1438 150.367 -5.00452
-8.94457 152.255 -2.06682
-10.6564 150.873 -4.75588
-8.46741 152.241 -2.63063
-15.9638 151.335 1.18164
-4.8896 153.323 -2.63589
-3.84712 153.721 -2.40663
-8.05179 151.962 -4.01908
-12.1521 152.395 0.840286
-9.28284 151.665 -3.99047
-4.92313 153.447 -2.54585
-10.7643 152.449 -0.581937
-9.92519 151.386 -4.58913
-13.2984 152.202 0.695068
-14.6379 151.531 -0.305372
-6.93144 153.326 -1.7169
-14.4177 151.458 -0.789261
-5.89581 153.792 -1.50439
-13.0849 151.252 -3.01638
-13.724 151.764 -0.941021
-11.1788 151.569 -3.98702
-13.1537 152.196 -0.606827
-11.998 151.635 -3.51309
-11.2027 151.812 -3.77571
-7.47838 154.203 0.00968931
-7.07365 154.421 -0.0195459
