ply
format ascii 1.0
comment Created by Open3D
element vertex 1851
property double x
property double y
property double z
end_header
22.6591 124.816 3.30253
-6.60874 114.722 14.5774
17.9834 125.625 7.68681
-3.84278 114.469 12.142
-3.24529 99.7871 -4.48544
-6.36368 114.486 14.0357
17.6373 125.481 7.67004
13.4475 124.524 9.79497
-7.88765 115.842 16.5716
15.0967 119.974 3.46793
8.09926 124.557 13.8617
-25.4162 93.95 5.8775
15.1046 123.804 7.59516
-2.01497 115.568 11.6091
14.2292 119.746 3.73708
-18.2197 95.3447 1.79557
5.27834 120.92 11.8787
-23.5699 109.964 21.9449
-26.9243 103.807 17.6794
-1.26293 116.063 11.4608
17.1138 125.5 7.71382
-27.9532 93.4298 7.01253
0.165727 100.915 -6.35378
-8.4201 116.146 16.987
-7.24606 98.6469 -3.18896
15.0211 121.387 4.72981
-13.1874 97.2893 -0.232838
-28.4334 93.4146 7.19596
-26.7609 104.994 18.65
-1.87132 100.532 -5.39814
-1.22157 100.761 -5.69989
24.527 125.3 1.53043
-29.7468 99.0975 14.351
-30.8996 97.5062 13.4708
-10.0667 116.306 18.1512
24.7367 124.727 0.678794
8.32402 109.342 -3.6636
22.138 120.925 -1.54433
-26.7191 94.1004 6.40425
-20.8363 94.4703 2.29316
13.2756 124.852 9.5375
10.746 114.884 0.476776
-27.0891 104.2 17.7406
21.3021 126.628 5.23835
-6.00944 115.264 13.6673
-5.60771 115.192 13.259
10.0088 111.603 -2.68258
-9.15691 116.635 17.5226
9.01462 125.825 13.6616
11.3265 116.996 2.15786
7.61616 108.976 -3.82635
10.472 115.949 1.63987
-30.3316 98.2317 13.4633
-6.61935 116.307 15.136
-5.40026 99.8571 -3.941
-11.9912 98.0514 -0.88612
10.7181 112.276 -2.67602
22.6557 125.696 2.90955
-30.1712 98.4353 13.4575
-13.2385 115.651 19.379
12.7853 125.137 9.80175
6.98882 108.644 -3.96601
15.2221 123.351 5.8766
-22.8035 94.4875 3.29455
-14.579 115.221 19.7904
-0.666394 101.433 -6.07005
-27.1112 105.239 18.397
14.9908 121.748 4.22598
-26.8104 106.312 19.2813
9.17173 110.707 -3.51044
14.9266 121.311 3.71627
-9.37621 117.039 17.6579
8.96449 126.14 13.4549
10.5478 114.954 -0.0810876
8.9693 126.163 13.4257
13.7995 120.114 3.0483
14.1543 120.833 3.55249
-5.14053 115.93 12.9251
-2.652 116.338 11.4574
15.3577 119.187 0.719453
-17.7968 113.879 20.3212
21.4927 128.488 6.12545
22.8861 126.011 2.32294
-29.2335 94.0836 7.19171
22.9283 122.543 -1.56686
20.9868 120.845 -1.97551
10.2779 117 2.00286
-21.4264 112.2 21.035
15.0626 121.652 3.40832
4.42962 107.258 -4.29071
-4.94665 100.764 -4.27008
-0.868549 117.517 11.0252
-29.4152 101.892 15.7359
2.42707 119.653 10.8045
-29.7198 98.9731 12.6956
-29.2051 95.72 8.7051
-10.5008 117.6 18.3926
-13.0033 116.578 19.181
10.0424 126.11 11.9305
-15.136 97.8054 0.0561618
1.63485 104.135 -5.90587
9.57741 126.319 12.3984
11.4213 113.84 -2.76982
-9.53311 117.898 17.764
-5.51497 116.625 13.2781
15.3961 124.496 5.87476
-21.4127 95.3955 2.10534
-22.2596 95.1963 2.52842
20.9546 128.993 6.45292
6.51468 123.469 11.4572
13.6966 122.295 4.62324
-3.31395 101.789 -4.9224
15.4559 124.593 5.71264
-9.27774 99.5008 -2.93295
-27.7716 105.319 17.6608
23.0854 123.277 -1.62381
-15.9371 115.707 19.9761
2.56926 105.172 -5.82441
23.8973 125.697 0.350192
17.861 128.608 8.15599
-8.30029 99.7481 -3.54257
-1.27493 117.823 10.9444
-22.4475 95.4357 2.52053
-30.0737 98.6253 11.8644
-8.78624 99.623 -3.39182
-29.4551 99.9374 12.7572
-21.3995 95.7672 1.93945
8.48189 111.312 -3.93528
-6.71559 118.503 15.6333
17.5935 128.599 8.04997
2.94825 105.981 -5.6815
22.8373 124.149 -0.985723
11.0934 113.946 -3.21351
-1.8968 102.594 -5.75207
11.0377 113.975 -3.22983
13.5949 123.91 5.72644
24.3588 126.751 0.57779
-22.2239 95.8016 2.27214
3.4751 107.034 -5.12623
6.32922 109.586 -4.5618
-27.0833 107.682 18.9758
-5.67192 118.059 13.9444
13.3698 123.822 5.63886
14.7707 118.36 -1.4794
-23.1741 95.7412 2.73578
-9.81245 99.8242 -3.02968
13.5281 124.658 6.32988
-23.8284 111.988 21.0159
13.0113 122.757 4.5797
7.71964 126.046 12.2477
-28.1866 105.922 17.6227
10.2994 126.942 11.2099
13.1009 126.946 9.063
-18.4708 115.17 20.327
-5.96686 118.729 14.6125
-9.12974 100.043 -3.54318
-5.82668 118.613 14.3488
-11.9285 99.4734 -2.04034
-2.99926 117.868 11.328
22.8517 127.183 1.71043
-12.1745 99.5516 -1.87217
13.981 124.975 5.98964
-12.4465 118.046 18.6449
21.3897 129.905 5.69703
-29.2386 98.2768 9.74557
-27.252 107.855 18.7487
-20.5971 114.292 20.723
15.2632 125.679 5.72723
-26.009 95.8606 4.59236
-17.6191 115.737 20.0185
-13.3232 99.5931 -1.10921
17.2217 129.084 7.8813
-11.0715 99.7919 -2.63565
20.8302 122.435 -2.2366
-26.9761 108.488 19.0957
16.853 128.419 7.38472
-12.1646 118.349 18.5412
-18.1267 115.59 20.0555
12.1858 127.37 9.71806
10.143 117.166 0.055233
-8.16303 119.66 16.7966
4.6469 109.139 -4.62785
9.81889 127.55 11.65
21.568 128.765 3.91351
15.2281 126.577 6.35683
-29.5808 101.937 13.5521
-20.7642 114.597 20.706
23.3886 127.316 0.809608
14.6122 127.116 7.31076
7.56391 112.148 -3.76392
19.2693 129.953 6.82955
14.7026 123.021 2.61745
10.943 127.746 10.6874
0.829124 106.044 -5.54753
13.491 128.005 8.88948
8.31679 113.325 -3.29946
-4.72942 102.758 -4.92137
-4.60943 118.795 12.6305
14.0891 121.326 1.04934
13.7798 121.533 1.51001
4.32955 109.27 -4.74281
10.0894 116.818 -0.924418
-28.3983 98.9314 8.92937
15.3409 126.35 5.52513
4.20643 109.244 -4.80823
13.769 121.753 1.59691
12.5383 123.869 4.83948
10.6153 114.573 -3.94209
0.0136685 105.186 -6.13275
14.3419 125.788 5.53397
-29.6563 100.908 11.9295
10.1708 128.249 11.3743
7.50027 112.935 -3.46398
-14.7972 99.7568 -0.86679
13.9971 123.273 2.90225
5.60204 124.194 10.345
-4.50423 119.198 12.6033
14.7561 126.524 5.85678
-29.7076 101.49 12.431
12.0523 124.516 5.70988
0.559567 120.508 10.1011
22.7945 126.172 -0.732356
3.16749 108.157 -5.5048
12.6047 123.402 4.00689
12.2917 128.501 9.85641
-3.61741 118.951 11.5471
-28.6683 98.5834 8.31708
18.5518 130.357 7.02226
9.61587 114.609 -3.45843
13.93 119.543 -1.35605
12.3524 123.642 4.33394
-7.72233 120.711 16.4467
-18.4133 98.4094 0.0550345
14.3641 123.396 2.37962
-20.2735 115.531 20.2905
-9.18841 120.565 17.2851
-12.2645 100.715 -2.23233
-20.9643 97.7017 1.10704
-22.6431 114.354 20.7127
-4.76664 119.968 13.164
-23.7145 97.2149 2.65849
-1.09744 120.039 10.4035
-6.65383 120.923 15.6344
9.78412 129.124 11.9502
-26.7247 110.169 19.1114
18.0348 121.82 -2.44205
-23.259 113.993 20.6301
-8.79485 120.837 17.0566
-25.8526 96.8926 3.78475
-19.6906 98.3197 0.504001
16.1231 129.521 7.28231
13.5614 127.949 7.5172
10.1795 117.049 -2.08835
19.2222 123.006 -2.51335
13.9523 127.779 6.76067
15.1959 123.763 1.3575
2.22139 108.295 -5.72119
9.75725 129.599 11.8619
10.1443 129.627 11.5908
5.27941 110.906 -5.34458
-5.5497 121.519 14.6237
-1.96076 120.311 10.5373
-6.80015 102.852 -4.96012
-9.10088 121.352 17.0986
22.8351 129.437 1.45896
1.65414 122.153 9.68799
-3.37283 120.364 11.5273
-21.5253 115.738 20.3091
-29.3989 102.906 12.2148
10.7998 129.603 10.707
8.2277 128.929 11.9297
20.8719 125.153 -1.96007
-28.8359 107.486 16.7384
7.73677 128.518 11.7496
14.6283 121.27 -1.52046
-28.1622 100.722 8.71212
12.9834 122.384 0.860889
-2.53621 120.726 10.8768
12.3499 122.82 1.74504
-4.13999 121.382 12.8144
-3.09054 120.751 11.2925
4.86735 124.709 9.518
13.3556 129.209 7.95313
-28.705 103.405 11.8333
-24.7455 113.722 20.1436
-25.2427 113.201 19.9454
-18.4457 99.5048 -0.340759
19.8062 124.513 -2.18668
14.6484 121.281 -1.79694
-9.39414 121.75 17.1569
12.5186 125.978 4.961
12.5249 126.217 5.17745
-7.54423 102.961 -5.01171
-10.3409 102.052 -3.87426
-10.337 102.083 -3.88897
18.7583 132.145 6.84033
-7.72341 122.317 16.3259
14.9201 123.989 0.731799
-19.7766 99.4367 0.33177
12.6714 126.321 4.99922
6.68243 114.675 -3.24063
-10.3069 102.188 -3.94816
11.2943 120.422 -0.483225
-28.1576 101.747 9.21785
22.711 128.322 -0.602333
9.06036 115.327 -4.47983
-24.7907 113.983 20.0191
20.9422 132.882 5.69818
12.8542 119.778 -2.51585
-6.6948 122.602 15.5832
19.5911 132.717 6.52612
21.8069 127.089 -1.39396
-7.55245 122.586 16.1777
-28.2247 109.195 17.3086
13.8055 121.964 -0.914443
15.6302 121.266 -3.08856
-11.4323 102.166 -3.33192
18.3663 132.284 6.91983
-26.3738 112.278 19.2401
7.6522 127.974 10.382
-9.25617 102.756 -4.49116
-28.1409 104.899 12.3464
21.6165 131.278 3.16165
21.5188 127.194 -1.29619
13.8484 121.978 -1.15683
-8.47452 103.132 -4.82513
10.1445 117.009 -3.85178
14.6713 129.954 6.88103
7.66224 128.942 11.0467
3.30796 110.741 -5.6763
22.8555 129.698 0.169224
-21.8224 116.671 20.0047
19.6692 125.67 -1.94168
-28.4936 108.904 16.5763
-20.7633 99.9793 0.686375
-2.50458 106.328 -6.41534
13.9044 120.179 -3.77967
21.7978 128.181 -1.03387
-19.1083 100.28 -0.351771
13.5197 130.944 8.32589
18.7158 125.141 -2.0551
-23.7941 99.4092 2.24939
12.7161 122.875 -0.0666702
11.0095 119.239 -2.76655
-24.405 115.139 19.8408
12.5626 119.834 -3.40637
11.0055 119.249 -2.86583
-20.5366 117.681 19.5747
22.6724 130.181 0.155931
-6.8728 104.792 -5.11578
-28.6341 99.3668 5.58755
18.4049 125.348 -1.97316
13.2581 122.581 -1.07209
-21.0464 117.508 19.6699
-26.6744 112.851 18.852
12.9566 131.24 8.64715
-2.43442 106.83 -6.3963
-10.6505 122.561 17.1922
-5.61955 123.822 14.696
10.0153 117.439 -4.36278
14.6545 120.642 -4.43927
8.56419 116.639 -4.19991
13.8833 120.504 -4.03725
19.2366 133.796 6.43634
-3.28873 106.454 -6.40243
18.6632 125.986 -1.81408
-27.9089 110.221 16.5642
-5.29052 105.972 -5.47301
10.5822 120.255 -1.96813
22.5116 130.454 0.0954428
-27.506 106.969 12.6173
11.2232 125.907 3.68582
-24.3537 115.642 19.6854
-7.59648 105.127 -4.7635
-8.11808 104.729 -4.81999
-12.1668 122.196 17.5036
20.7661 128.679 -0.643347
13.6275 131.955 8.42493
13.2711 119.342 -5.19922
-2.90065 123.413 11.685
-28.7084 103.062 9.09812
7.84964 129.341 9.91547
-12.0028 122.342 17.4124
-12.2593 103.561 -3.0956
-11.1961 103.603 -3.88449
11.8756 122.164 -1.18079
20.8142 134.166 5.1295
12.9822 119.726 -4.83404
-28.9184 100.173 5.8051
22.3976 133.706 3.25429
5.02129 126.563 8.69636
14.0159 124.596 -0.400706
-6.03321 106.352 -5.08623
13.7486 132.462 8.41719
-19.5535 101.16 -0.463323
10.2573 121.198 -1.43526
13.6659 132.623 8.51825
8.63255 131.314 10.9286
15.1076 122.315 -3.95462
20.0848 134.931 6.03997
-21.7007 118.123 19.6067
13.0664 119.741 -5.34364
-21.2837 118.411 19.5227
12.2368 120.21 -4.22514
-24.473 100.419 2.0534
13.7031 125.13 -0.0647013
10.5395 121.529 -1.62044
11.7984 123.817 -0.0968483
18.5864 134.442 6.36187
-27.3248 111.543 16.367
8.05299 131.031 10.5722
12.8654 119.883 -5.43248
-1.0066 110.332 -5.29579
11.4047 126.632 3.1033
-0.352162 111.028 -5.06243
-21.562 101.282 0.478143
-7.00049 106.658 -4.85078
-24.0045 100.836 1.78751
12.4437 123.534 -1.26396
1.3947 112.556 -4.93416
21.7311 131.745 0.566635
-12.9817 104.267 -3.04799
15.1854 123.33 -3.70518
-5.02015 125.428 14.0413
-28.642 105.701 10.4042
-1.93749 124.802 10.9123
13.3682 128.278 2.97636
-4.61157 125.481 13.6734
11.7029 122.815 -1.80977
18.8786 135.081 6.16279
-12.8633 123.024 17.2085
4.63522 127.176 8.32219
-2.6604 108.72 -6.38615
22.3501 133.215 1.36534
13.8565 127.218 1.27227
0.99194 112.649 -4.88667
0.369269 112.291 -4.81085
2.28682 113.409 -5.08659
13.4913 127.264 1.54208
11.7511 122.955 -1.86512
5.1973 127.722 8.31516
11.0692 121.453 -3.10303
-13.8381 122.724 17.3969
-28.0415 107.724 11.787
5.69094 128.149 8.35358
-17.6967 103.589 -0.736106
10.5677 132.78 9.66131
5.53091 128.082 8.31658
-2.74425 125.725 12.025
11.6646 126.975 2.34089
13.8287 126.973 0.648309
-29.2762 102.955 7.28496
2.14781 113.649 -5.08167
-28.6284 106.25 10.3877
-16.5905 121.474 17.8906
8.29843 132.193 10.5656
-0.422455 124.86 9.16723
13.8008 123.654 -3.07873
11.7999 124.143 -1.01103
15.8594 125.186 -3.0185
7.77945 130.357 8.85886
-19.6446 120.329 18.8735
12.7068 122.096 -4.01479
14.6141 134.039 7.65536
-15.5692 104.223 -2.02012
-7.45962 125.787 15.4358
11.344 124.474 -0.442972
-29.0349 104.313 8.31576
13.075 126.924 0.833986
-20.2206 120.205 18.9681
13.9927 126.585 -0.425562
13.8049 123.975 -3.16796
12.8599 124.473 -1.90813
-3.27918 109.308 -6.22848
-9.26413 106.501 -4.73114
13.0298 126.77 0.451663
13.209 124.834 -1.838
-21.1629 119.797 18.9151
1.56599 113.832 -5.09902
11.6057 133.998 9.37876
-11.3404 105.878 -3.9498
7.52138 118.757 -4.3002
13.1805 128.173 1.68813
16.676 126.71 -2.60568
-3.73501 109.496 -5.95107
-27.0778 111.781 14.3554
-28.6374 102.326 5.12552
14.4924 134.767 7.69306
12.7678 126.53 -0.0632448
-21.7681 119.58 18.7943
-16.7878 104.72 -1.39546
-28.911 103.533 6.59943
5.46534 117.733 -4.24465
-3.59458 126.79 12.6722
1.01132 113.936 -5.0571
12.4907 134.634 8.90119
18.573 129.775 -1.14629
11.0337 122.359 -3.52525
18.1645 136.105 6.08221
19.3063 131.522 0.0788543
-10.327 107.988 -3.07043
18.1952 136.189 6.05658
2.67552 115.011 -5.41935
18.3161 136.339 5.98691
-1.50138 126.743 10.5699
-24.9458 117.565 18.4504
9.498 133.863 9.92784
-28.804 107.078 9.83392
11.4208 127.08 0.963234
10.4698 126.208 0.698715
11.834 127.158 0.694926
18.9379 130.907 -0.640769
21.9005 136.656 3.38734
-13.1356 106.745 -2.64487
-8.30749 108.228 -4.72803
12.8474 127.944 0.711672
20.3331 137.371 5.32522
20.8129 136.933 4.47392
16.4232 135.944 6.72274
-29.0019 106.546 9.2369
-0.404891 113.766 -4.77183
-11.0066 124.917 15.6294
-18.2671 121.865 17.8413
-28.9237 105.892 8.40956
12.4116 127.611 0.52719
10.7577 125.695 -0.405949
8.18743 132.175 8.67291
-25.653 117.044 17.9957
12.2913 121.837 -5.85383
-14.9936 123.564 16.9833
14.9651 135.9 7.51048
-21.3501 120.568 18.4962
3.72367 116.359 -5.37882
-23.8596 118.836 18.5125
19.0537 131.575 -0.415483
-5.57843 127.531 14.0246
-1.3156 127.218 10.3785
15.9164 126.944 -3.2996
-26.1854 102.753 2.34741
-23.2027 103.255 0.590379
12.4821 127.681 0.0474661
-25.4208 117.539 17.9733
-0.471766 127.221 9.47716
-6.4703 110.198 -4.69536
11.9483 125.061 -2.54627
14.6929 128.261 -1.14115
11.1177 135.375 9.38692
-9.10773 109.995 -3.05961
21.6589 136.628 2.5619
12.8325 135.383 7.93504
13.8561 127.275 -1.82254
12.5697 124.702 -3.68121
5.53142 129.974 7.51761
-28.9237 107.67 9.36269
-27.4893 112.509 13.5775
-28.5937 104.981 6.13344
12.8238 127.96 -0.387785
17.9117 137.329 5.96267
14.0711 127.639 -1.75927
20.3554 134.208 0.628321
13.4385 129.875 1.13258
6.46591 130.871 7.54456
4.65258 118.515 -4.68213
13.001 135.666 7.76537
5.41215 119.607 -4.09411
6.08121 130.613 7.46464
-0.616185 127.943 9.65803
15.1545 126.433 -4.1194
-24.5598 103.825 1.48153
9.29676 134.975 9.73936
-8.67743 110.296 -3.66371
-28.033 103.895 4.14796
-11.1689 110.366 -1.69666
-28.4795 104.671 5.32399
-11.1885 125.534 14.9927
-16.6524 123.474 16.9025
13.6633 130.061 0.871944
-28.7166 108.469 9.62778
12.2584 125.544 -3.10642
4.03622 118.267 -4.82396
9.03188 121.405 -5.22618
-8.552 110.467 -3.77916
-3.11775 128.815 12.2066
-22.149 120.995 18.1326
-7.69453 110.644 -4.38528
-1.42684 114.314 -5.17907
-25.8103 103.965 2.13393
-8.36227 110.391 -4.19806
-14.192 124.722 16.0347
12.3918 126.308 -2.63723
-28.5113 104.887 5.15463
-28.633 108.776 9.49072
4.08232 119.104 -4.27969
-3.85083 112 -6.04473
-6.16322 111.564 -4.76081
1.70961 116.673 -5.20091
14.2048 128.223 -2.09067
3.52232 118.56 -4.545
-16.0122 124.271 16.6861
-15.8331 124.377 16.6571
-16.608 123.953 16.7739
3.59886 118.958 -4.26417
-28.3433 110.15 10.5447
-8.62226 111.963 -2.65003
-0.66905 115.362 -5.05605
1.22062 116.516 -5.26878
-6.96875 128.512 14.213
-28.7268 108.375 8.74524
11.2514 128.156 -0.181486
-24.5268 119.7 17.9604
5.31168 120.809 -3.7211
6.86478 131.919 7.29928
-28.1735 107.283 7.04179
18.043 138.443 5.8182
16.0354 138.139 6.9701
1.68363 117.295 -4.99187
-24.4391 104.776 1.2206
3.93822 120.417 -3.35239
12.8271 124.498 -5.68673
14.5288 130.327 -0.594777
-28.4124 109.704 9.64169
14.6583 129.217 -1.95916
-28.4153 109.686 9.60352
14.1106 125.913 -5.21162
3.05484 129.532 7.2476
8.58785 134.918 8.88647
-8.97329 112.805 -2.036
-28.3186 110.165 9.86138
11.1315 128.867 0.134965
-20.193 105.93 -1.06
-3.20123 113.666 -5.64611
-27.3155 115.154 14.4844
18.2372 132.184 -1.74643
11.5979 128.686 -0.512492
-20.3859 105.916 -1.05048
-12.3488 110.903 -1.75576
-21.2258 105.545 -0.877006
10.901 129.224 0.515195
20.3693 136.32 0.951924
10.9065 127.208 -1.83194
7.17158 121.131 -5.66731
-8.22053 113.211 -2.56923
-25.0448 105.301 1.59178
-9.35185 113.067 -1.90934
-0.433204 130.008 9.8789
-15.3117 125.226 15.902
-28.3787 106.973 5.75238
-3.55755 114.009 -5.56381
-9.78768 113.053 -1.83834
-27.2703 105.135 2.8626
-27.4843 114.231 13.0234
-28.2325 110.512 9.45556
3.79658 120.964 -3.6553
-28.0864 111.305 10.1681
15.5173 138.987 7.13325
19.3791 134.269 -1.03026
-5.32897 129.875 13.0816
21.7167 139.386 2.78056
-8.79062 128.409 14.0928
15.5083 139.102 7.12334
1.00622 130.053 8.28276
13.5875 138.262 7.63781
-3.85189 114.157 -5.5315
11.9223 125.741 -4.91493
7.15153 121.807 -5.74408
-2.08727 130.571 10.9884
0.197855 117.223 -5.47468
-27.5416 108.537 6.2197
-1.48605 130.752 10.6532
-27.1434 114.381 12.3102
0.381357 130.358 8.75306
-8.8629 128.672 13.9509
9.14606 123.14 -6.00415
-6.7842 129.886 13.5939
10.9508 128.947 -1.08098
1.48916 130.558 7.90173
11.6814 126.511 -4.4108
11.6691 128.072 -2.68917
12.4048 130.858 -0.260022
-24.8768 120.966 17.4532
-20.3341 123.64 16.9025
16.1687 139.889 6.72127
-6.5041 113.657 -4.75073
-27.7346 111.483 9.12238
20.6828 137.782 0.882369
-5.15076 130.634 12.8268
9.68271 136.826 8.2015
-17.9704 124.857 16.2523
-10.2131 128.156 13.9155
14.6382 131.342 -1.70371
19.9907 140.454 4.20565
-26.8417 114.467 11.5544
14.0646 130.24 -2.55113
13.1821 129.407 -2.80352
-13.913 111.177 -2.09881
14.3691 131.461 -1.5055
16.6641 131.7 -3.02682
-7.05483 114.01 -4.29243
-25.5296 107.065 2.20354
-14.3605 126.357 14.8371
17.3628 132.6 -2.65525
11.1019 129.027 -1.78839
-23.8019 122.383 17.6718
-26.2529 115.973 12.4049
-8.29481 129.696 13.7067
-27.4381 112.214 9.16149
10.7224 138.156 8.41366
-19.1216 108.646 -1.15214
0.0501936 131.58 9.32104
12.5534 129.086 -3.06847
17.6642 140.876 5.97854
15.0299 131.706 -2.11281
-0.716608 117.904 -5.25895
-23.7499 106.81 0.196482
-24.0772 122.258 17.3571
12.8371 131.554 -0.800842
-10.805 114.86 -1.0297
8.52422 136.004 7.39274
-1.66842 131.797 10.5566
5.48044 122.483 -5.22685
-17.699 109.948 -1.23482
-12.3252 128.233 14.7166
19.7736 136.687 -0.626659
-25.1917 119.804 15.2381
-16.9537 110.185 -1.66942
18.6186 134.658 -2.07154
10.5818 125.414 -6.07752
-7.24982 130.769 13.4935
-12.383 128.313 14.7063
-27.9669 107.623 3.8814
13.9029 132.021 -1.46942
-12.6008 113.718 -1.26971
-6.01408 131.36 13.0531
13.3546 128.378 -5.10172
0.461401 132.065 8.83865
-21.4596 108.427 -0.345148
14.7304 131.847 -2.35614
-25.2401 107.995 2.0455
-27.316 111.069 7.01289
-12.5756 128.403 14.7518
-25.8406 116.268 11.5631
0.144248 132.281 9.23324
-27.9347 107.798 3.77714
-15.4708 126.565 14.8398
-1.20418 118.415 -5.07976
-21.6927 124.157 16.7886
-9.33419 129.733 13.3902
11.8598 127.17 -5.70064
-27.8382 107.825 3.4793
14.5709 140.542 6.91643
1.68139 132.17 7.5898
17.9772 134.316 -2.58536
11.6531 127.186 -5.61066
-3.38786 116.65 -5.668
-3.2032 116.799 -5.69834
-21.8977 108.521 -0.498451
20.7222 139.514 0.8833
-27.5321 107.676 2.86506
-25.6502 116.455 11.071
-3.21411 132.246 11.1459
19.3321 136.784 -1.22109
12.483 129.776 -3.67902
17.4645 133.915 -2.95458
9.73155 137.72 7.1658
-4.2845 132.27 11.9051
16.5358 132.83 -3.48413
-27.0393 110.655 5.5389
-15.7499 126.901 14.7237
-18.2674 125.901 15.4744
11.8084 132.007 -0.914272
-23.2763 124.039 17.2449
10.2879 138.546 7.40764
-25.5355 117.599 11.8404
-8.68221 130.611 13.2088
8.24206 136.266 6.40935
-11.3168 129.383 13.7813
10.3437 138.691 7.38341
-5.87442 132.36 12.7604
13.1044 132.773 -1.46733
2.84513 124.103 -3.18817
-25.4563 118.209 12.0464
3.54885 133.372 6.45504
-21.4417 109.399 -0.774344
-10.5555 117.116 -0.65348
10.8651 131.255 -1.54739
-11.6352 116.125 -0.953858
11.2724 127.762 -5.81815
13.0994 140.609 6.89116
13.4631 132.555 -2.27183
3.1733 124.423 -3.32251
-5.87252 132.612 12.6283
-1.76549 133.274 10.1897
-22.0694 109.1 -0.842451
1.91791 123.69 -3.29767
2.65183 133.507 6.82939
-6.57629 119.07 -1.9728
-8.08691 131.546 12.9096
-21.7781 125.319 16.5528
19.0799 137.423 -1.50496
7.67865 136.003 5.66758
-25.1377 120.178 13.4426
-21.7684 109.537 -0.918529
-13.4505 129.676 14.8023
-25.2257 117.419 10.3354
-5.56307 117.854 -4.28155
-12.5803 115.924 -1.03032
12.4298 132.111 -2.41969
15.9043 133.02 -4.12862
-6.47228 119.36 -2.02101
3.21146 134.096 6.7321
1.54005 133.957 7.84093
0.700878 134.244 8.79352
-15.8371 127.931 14.5224
-23.6957 124.443 16.6824
-1.34626 120.077 -5.28244
-3.0905 118.577 -5.5949
-1.06626 120.428 -5.24114
10.8933 131.231 -2.56971
7.72988 136.311 5.43603
-21.1396 110.304 -1.02364
-24.7766 120.82 13.3191
-17.9507 111.478 -2.21846
-24.8052 122.225 14.85
10.1095 139.227 6.59143
-18.1292 111.532 -2.22506
11.0014 131.127 -3.0956
13.451 132.399 -3.58303
4.87913 134.865 5.68247
11.088 130.962 -3.42413
17.9837 136.933 -2.23255
-16.1133 113.847 -1.48991
9.75038 138.939 6.262
-15.2639 114.513 -1.42347
-23.9969 124.492 16.1349
-20.4228 126.621 15.6977
3.92829 135.515 6.78461
-23.4633 125.187 16.4123
17.4033 143.634 5.23836
13.567 141.955 6.32871
11.9828 133.088 -2.21716
-24.5368 122.548 14.2087
18.9907 143.519 3.86532
-26.3391 116.356 8.75889
-13.4282 116.54 -0.986746
2.67005 125.806 -3.17513
-26.5337 116.055 8.39533
12.9506 131.924 -4.45527
-5.99912 121.09 -1.8395
15.1733 133.34 -4.62235
0.816483 124.119 -3.83259
2.64794 135.579 7.35651
13.0342 134.61 -1.7057
-19.7982 111.572 -1.89235
-5.57622 120.31 -3.19966
3.87817 136.002 6.68184
-17.1628 113.559 -1.87138
-5.2499 134.173 11.6575
-11.2778 119.112 -0.309732
18.2931 138.88 -1.29454
-27.2543 113.98 6.25288
3.79457 126.3 -4.05367
-5.48744 120.669 -3.13016
1.09332 135.367 7.82186
-0.781596 135.647 9.54182
-15.2902 115.933 -1.01816
-5.34463 121.524 -2.64631
-14.625 130.75 14.6103
14.3311 134.374 -3.6263
-17.0301 114.268 -1.7554
-24.2325 122.796 13.1461
-2.66846 121.199 -5.16894
14.538 134.902 -3.30299
-16.1238 130.05 14.8151
13.7244 142.872 6.01305
-9.10475 121.217 -0.378105
-10.1792 132.105 12.3684
-12.4567 131.745 13.7149
-4.62796 134.925 11.1983
-10.1249 120.75 -0.228036
14.2399 136.101 -2.09423
8.13764 138.453 5.02699
-18.2754 128.654 14.5041
4.34077 136.599 5.85008
11.5015 142.16 6.38961
18.0494 140.251 -0.7632
-20.8895 128.101 15.7359
-0.881014 136.259 9.32807
-16.8635 130.044 14.7094
7.97737 138.574 4.96555
-19.3187 128.634 14.96
-25.9059 111.194 0.812363
14.7415 135.443 -3.71936
19.8598 144.319 2.04043
-0.374855 136.35 8.80158
-14.2761 117.914 -0.836909
-15.0627 130.909 14.053
-10.6541 121.358 0.0473675
-24.8456 122.447 12.1345
10.5797 130.478 -6.24682
14.8569 144.306 5.5527
-11.4797 132.413 12.6659
-12.6017 120.02 -0.111631
-20.8747 128.592 15.665
-26.4082 111.476 1.0784
7.57992 128.896 -5.86495
-7.78583 123.371 -0.15484
-7.35 134.701 11.9268
16.043 144.706 4.9785
-6.64469 124.091 -0.3914
18.0856 141.141 -0.633947
15.3634 137.589 -2.45769
-23.4341 126.348 14.9479
-14.3793 118.38 -0.778258
-10.2664 122.162 0.0929985
10.0098 130.786 -6.00678
7.27139 138.737 4.84087
13.9086 135.172 -4.18566
-15.34 131.019 13.673
18.2097 145.285 3.61397
-22.9242 126.916 14.9466
-9.99817 122.488 0.102414
-5.53135 124.288 -1.42535
-19.7632 113.487 -2.41575
-22.1908 112.285 -1.89196
-18.4907 114.932 -1.82692
-0.918763 124.753 -4.54763
-16.0153 131.018 13.9053
-27.8036 114.538 4.81079
-22.3653 112.27 -1.88375
-24.5512 124.297 12.9955
13.1209 137.873 -0.995237
-12.9831 132.538 13.1697
13.5667 137.627 -1.76713
9.79453 141.397 5.17949
-25.6629 120.825 9.75529
11.8666 132.618 -6.09055
-13.9173 132.508 13.5482
-26.143 118.812 7.86164
15.6007 138.602 -2.40923
6.43612 129.615 -5.27528
-19.2209 114.886 -1.85248
4.32814 128.739 -4.72317
-7.4332 124.867 0.0348115
16.0275 138.733 -2.77147
-19.1292 129.861 14.4423
18.9243 145.52 2.32291
8.62381 140.443 4.61608
-14.4297 132.457 13.4617
6.57607 139.187 4.72362
8.85566 140.751 4.68725
-14.5427 132.351 13.3962
13.8787 137.01 -3.29527
11.6967 143.504 5.50188
-6.62129 125.772 -0.0260252
-19.8676 130.001 14.7579
14.0341 145.346 5.5558
-5.00714 136.374 10.2978
-2.52735 137.292 9.37155
-10.1863 123.802 0.407212
4.7696 129.419 -4.90338
2.31447 138.561 6.96486
2.68177 129.275 -3.55036
-6.89709 135.823 10.9676
-3.09958 137.158 9.51501
1.01827 128.383 -3.34781
-14.3971 120.578 -0.138412
-7.82684 125.59 0.313536
-25.9637 113.004 0.367202
13.6085 137.918 -2.61175
-15.0519 119.895 -0.450605
-27.5032 114.213 2.80852
-4.46809 126.391 -1.52139
-13.4961 121.581 0.0838351
-25.6901 113.049 0.0330535
18.2472 143.847 0.190573
5.07867 139.223 5.16209
-9.44956 124.878 0.479723
-2.42631 125.31 -4.46117
-9.64431 135.08 11.7759
-24.6801 113.176 -0.85251
11.0341 133.283 -6.16252
6.6667 140.158 4.68248
-0.00486999 127.773 -3.89074
17.1081 146.467 3.53268
-26.2996 119.555 7.22108
17.0909 146.487 3.52523
10.4684 143.314 5.10498
-26.1793 121.352 9.0574
-27.649 115.404 3.63499
-1.50043 126.253 -4.50551
-25.523 122.74 10.0552
3.89189 139.172 5.49494
6.30651 140.271 4.8335
-26.5402 119.321 6.97854
6.06841 140.264 4.93359
10.8388 133.531 -6.16782
-10.0023 135.22 11.6839
-21.1509 130.23 14.7419
9.14026 132.871 -5.64129
-18.2809 131.615 14.0195
-10.9647 124.441 0.510295
8.15598 132.568 -5.23766
-22.5335 114.041 -2.0917
14.9779 146.713 5.06423
16.6171 142.688 -0.629772
16.7557 143.552 0.185782
-25.4163 123.175 10.0791
16.009 146.67 4.11215
-26.507 114.165 0.904318
15.6216 141.349 -1.52232
-1.493 138.619 8.56273
4.23659 130.622 -4.6854
5.46607 131.534 -4.63172
2.49849 130.275 -3.75082
-20.0406 116.295 -1.84994
-20.7008 129.975 13.699
11.8601 144.931 5.14324
-27.4753 115.087 2.43667
15.2727 141.692 -1.14168
10.3144 143.642 4.80806
16.0777 142.454 -0.936329
-8.91332 126.494 0.679938
10.8027 134.019 -6.23874
1.101 139.871 7.63589
-21.5651 129.32 13.4195
16.4921 144.458 0.835227
-20.7377 129.512 12.8759
-6.87642 136.719 10.1421
1.777 139.879 6.96916
-26.4954 121.244 8.03767
-8.2085 127.296 0.623159
4.09534 140.421 5.56253
-20.5943 129.141 12.0778
8.71937 142.171 3.91034
-25.6104 124.279 10.4393
-11.9101 135.011 11.6376
-22.5788 129.626 13.8666
-22.6442 115.124 -2.06162
7.58176 141.797 4.06933
16.8649 147.338 3.01976
-10.8759 125.508 0.286831
-12.4301 124.425 0.234851
-3.52408 138.365 8.70045
10.6043 134.594 -6.29397
3.49725 131.357 -4.40649
-26.8735 119.839 6.22862
-16.8761 131.803 11.6595
-10.0061 126.472 0.508888
-26.7074 121.186 7.49866
-19.8963 129.526 11.4081
5.48344 132.752 -4.52885
-0.323009 129.356 -3.83196
-25.8703 115.078 0.0455565
9.15443 142.998 3.88012
-8.24274 136.815 10.2557
12.8698 138.477 -4.1226
-15.0546 133.763 12.121
5.97785 133.343 -4.53266
-17.8267 119.691 -1.28507
-3.40517 129.127 -1.98209
-15.7153 121.822 -0.629623
-22.3893 115.817 -2.12823
12.4211 140.365 -1.84382
-25.4243 125.783 11.1123
6.01239 141.958 4.73006
-22.661 129.624 13.1176
14.9645 145.041 1.1858
-2.39165 128.955 -3.26091
17.1522 146.392 0.921697
-25.6022 125.531 10.7159
11.8633 137.505 -5.00869
-7.58486 129.096 0.632205
12.3581 140.904 -1.74309
-0.807559 129.537 -4.14627
-18.7561 130.799 10.9552
14.0013 147.569 4.25807
3.95397 132.511 -4.60225
-27.1135 120.632 6.11715
-5.4667 130.424 0.272673
-25.7314 124.891 9.71853
1.95408 141.252 6.42523
-10.8775 136.438 10.9738
7.22359 134.611 -4.93945
6.84191 134.469 -4.80948
-9.23842 137.079 10.3975
-11.3195 126.173 -0.0248886
-20.4912 129.292 10.425
4.31371 142.033 5.15559
-13.8072 135.308 11.5677
1.8702 141.587 6.4218
7.11989 134.965 -4.92837
-23.7428 128.463 11.5827
3.99012 142.015 5.20489
-20.8913 128.89 9.77715
-16.4102 122.19 -1.09175
-17.5005 132.338 10.9035
4.11946 142.209 5.13393
3.57002 141.96 5.2775
-24.5702 127.063 10.4781
0.0636502 141.386 7.27688
16.5643 147.332 1.11214
15.6127 148.463 3.07259
-18.3713 120.609 -1.49436
-12.9695 125.6 -0.171583
5.55444 134.615 -4.477
13.9385 148.057 3.84687
-20.0544 131.698 11.93
-20.915 129.433 10.0907
13.6017 147.895 3.85419
-27.2922 120.992 5.63473
-18.3937 132.224 11.1554
-3.51582 131.653 -0.962216
-11.9106 126.444 -0.255362
-27.0275 119.356 3.54357
-17.5363 121.431 -1.46319
-24.4442 127.267 10.2439
-26.5986 117.538 1.19065
-13.3882 135.879 11.2034
-4.64896 131.93 0.0893369
-9.60924 137.741 10.2159
-3.37114 132.051 -0.915327
-2.35691 131.7 -2.08624
-19.6309 132.096 11.5045
9.92391 136.474 -6.42311
-1.39315 131.864 -2.81538
14.0563 148.484 3.58551
3.26374 134.021 -4.1062
-7.42097 130.803 0.552587
8.77143 144.637 3.33921
-26.2802 123.363 6.78897
-25.788 118.467 1.01007
-23.898 128.62 10.7245
-9.4513 128.957 -0.00288696
-1.78275 132.404 -2.10457
-22.3553 117.839 -2.41989
-27.1929 120.72 4.44969
-9.36665 138.109 9.86444
-26.2358 117.462 0.096008
-25.143 121.368 3.53428
-0.657308 132.273 -3.26468
1.8828 133.495 -3.90494
-2.14932 141.126 7.54867
-25.1109 126.427 8.96422
-6.29244 131.877 0.444726
-26.1513 123.621 6.5989
-10.1858 137.825 9.92378
-13.7159 126.026 -0.375351
3.73733 143.072 4.9742
7.33472 136.342 -5.21453
-23.3731 129.69 10.8086
-25.4221 120.99 2.74377
-13.3401 126.533 -0.458567
12.5336 148.248 3.5485
-14.6737 125.552 -0.572404
-22.6671 118.283 -2.45762
-15.9173 124.388 -0.941542
12.7585 141.62 -4.1169
-22.8338 129.172 9.48001
-25.2778 121.277 2.65923
-2.10277 141.683 7.28649
-25.0358 121.404 2.54102
-23.034 129.009 9.34654
13.5183 147.219 1.27842
-10.691 137.957 9.58591
-23.11 121.98 1.52075
-23.3095 129.685 10.0552
-9.17608 129.933 -0.539226
-23.9204 129.328 10.0803
-24.314 128.469 9.40818
-26.3881 124.814 6.96841
12.7327 142.212 -3.92038
-24.67 127.314 8.38498
7.42674 145.159 3.36245
-7.37539 131.972 0.21533
-23.9589 129.294 9.98223
-27.5131 122.123 4.81229
-23.3802 118.596 -2.26436
0.449041 142.835 6.0873
-22.9353 118.765 -2.51801
3.69518 135.811 -4.23561
-23.3257 128.45 8.3756
-22.1714 122.134 0.533711
6.29372 144.94 3.75362
13.9225 148.11 1.35275
-25.6673 127.3 8.83274
3.87925 144.272 4.82549
-24.5582 121.387 1.44542
-6.78442 132.666 0.210031
1.62128 134.586 -4.13592
-2.54052 134.97 -0.544056
-24.9855 128.069 8.98087
-24.7173 120.501 0.441773
-17.8138 133.526 9.42908
-8.59518 131.022 -0.406263
-24.9149 127.181 7.8776
-19.4285 122.485 -1.5388
-25.4217 125.574 6.44529
-15.7994 135.516 9.94306
-23.8298 128.947 8.8629
-21.6167 122.54 0.0734792
13.3658 148.364 1.61557
-23.8104 127.264 6.9187
4.87352 144.901 4.28445
-4.2722 134.838 0.214306
13.4996 149.804 2.9279
-26.3292 123.042 3.97347
-24.9206 119.625 -0.904339
9.95212 139.373 -6.00909
-22.7604 119.755 -2.55751
-22.0725 122.146 -0.491243
-9.36646 130.618 -0.939084
-8.53508 138.283 6.85209
-23.2844 128.156 7.01382
-15.276 136.096 9.57056
-5.01416 134.851 0.304579
-8.95853 138.026 6.82316
-7.85477 138.891 6.9112
-9.89793 137.955 7.43559
-8.04343 138.27 6.33632
-26.064 125.873 6.50523
6.63774 145.966 3.45091
10.7193 140.651 -5.53576
-10.1962 130.068 -1.1384
9.90002 147.67 2.78031
4.10703 145.139 4.42465
-12.7271 137.16 8.54836
-7.77251 138.84 6.57855
-12.8031 137.487 8.94967
-25.6469 127.036 7.26252
-9.98992 130.263 -1.25232
-24.4457 120.09 -1.38018
9.85298 139.842 -6.01302
4.57779 137.281 -4.82746
-14.9202 135.641 8.28368
-21.5551 130.945 8.1031
-1.81481 142.987 6.10458
-16.6314 125.805 -1.43775
-22.8394 123.734 1.01886
-3.41185 136.43 0.0651751
-9.17722 131.475 -0.977554
-19.8417 123.271 -1.83161
4.57471 145.739 4.14521
-15.3988 135.615 8.32475
-14.055 135.875 7.5727
13.1774 147.622 -0.418963
8.54769 139.463 -5.8494
0.959071 135.935 -3.90738
1.72841 136.23 -4.1872
5.79424 137.858 -5.52992
-15.9546 135.403 8.43807
-24.8449 124.305 3.01169
13.0152 148.796 0.875683
-10.6939 137.481 6.62095
-7.09844 139.244 5.78534
-24.3698 124.142 2.37784
13.0846 147.443 -0.80657
7.83577 139.411 -5.66775
-14.6061 135.966 7.75586
-15.7259 135.543 8.12106
-4.69737 135.935 0.0280988
14.1411 150.623 1.66257
-26.0886 126.235 5.66264
-24.9876 124.518 2.84141
-25.296 124.437 2.97371
-25.9727 125.676 4.79061
-26.2378 126.764 6.18068
9.44342 140.65 -6.0019
6.78145 139.165 -5.59706
11.4337 143.427 -4.48022
6.13745 146.949 3.42696
-17.3826 125.678 -1.93567
-25.5979 124.324 2.85848
-19.5933 132.867 7.64263
-22.2105 131.701 8.28082
8.38585 148.04 2.76939
-27.6664 127.403 7.69161
-2.65276 143.239 5.81479
-23.7758 123.11 -0.133254
-22.9065 125.572 1.89748
-14.283 135.888 6.62252
-26.5478 126.274 5.45164
-23.6468 124.788 1.57959
-21.3064 124.692 -0.340526
-23.5855 124.678 1.38741
-4.00047 142.694 6.09957
-9.32403 132.214 -1.35292
-25.8261 126.29 4.76065
-12.2712 129.572 -2.03533
-24.5825 130.96 8.92986
-22.6676 131.594 8.11984
4.07355 146.564 4.06444
-23.5295 124.31 0.762957
-1.62773 138.035 -0.986865
-3.83596 142.767 5.85425
13.7346 150.887 1.26217
-16.7113 126.947 -1.7111
-20.7603 124.911 -0.864756
-9.53213 138.773 5.757
7.83324 140.692 -5.46904
-20.8495 123.6 -2.30536
5.51013 139.29 -5.33824
-21.8042 132.14 7.75262
-21.0851 132.525 7.6239
-11.77 137.813 6.27409
12.2491 148.875 -0.0116225
-7.36812 134.668 -0.589597
-17.9562 134.004 6.79194
-19.9364 124.425 -2.25185
-21.8569 126.185 1.14851
-23.0082 126.282 2.12461
-4.15821 137.215 -0.324704
12.3253 147.098 -2.15676
-15.8026 127.875 -1.73988
-11.7585 137.907 6.16932
-28.201 127.432 7.25339
-2.97924 143.27 5.29375
-14.0697 128.476 -2.54175
-22.808 125.81 1.21971
-21.1387 125.138 -0.868364
-1.71895 138.727 -0.837933
8.42934 141.446 -5.63896
12.3569 148.005 -1.49201
-3.71816 142.146 4.31017
-22.2369 132.107 7.42408
-23.5697 131.47 7.7212
-19.5296 125.161 -2.32187
-25.8124 128.22 5.7607
11.6546 145.307 -4.21007
11.7345 149.157 -0.041585
-17.0202 127.357 -1.95741
11.3151 144.815 -4.52883
-21.4144 132.676 7.16072
-4.57947 141.219 3.5992
-23.9082 126.137 1.83621
-23.66 127.186 2.78778
-28.5941 127.655 7.02862
-21.6504 126.812 0.762689
-20.8907 124.862 -1.96566
-22.0403 125.452 -0.472224
12.3475 151.184 1.44049
-4.42573 141.393 3.51823
-2.87903 139.121 -0.27483
11.4607 145.691 -4.09476
0.132682 145.239 4.00445
6.92755 141.77 -5.0318
11.6385 147.465 -2.39975
12.3717 150.757 0.652848
3.23123 139.772 -4.48626
-21.8918 125.792 -0.63944
8.4116 142.516 -5.56469
-23.7312 125.836 0.748814
-27.5106 127.886 5.88596
11.9906 150.613 0.540062
10.1577 150.872 2.2086
-28.9673 127.846 6.88864
6.69406 149.019 2.75231
10.3845 144.713 -4.86006
-21.9203 127.336 0.814809
-23.3602 126.394 0.747254
-25.5287 127.879 4.01163
-1.28662 140.292 -0.956243
-27.3581 128.346 5.86739
-28.1367 129.133 7.29729
11.153 147.43 -2.74415
11.8213 151.609 1.33325
-20.4036 126.592 -1.4616
-25.8197 131.646 8.24377
-22.0738 126.763 -0.0331306
-21.9527 127.985 1.20388
-26.8855 128.299 5.3309
-27.9747 129.507 7.40482
-18.6968 128.162 -1.22496
5.47427 149.393 3.55942
-1.6206 143.785 2.79269
-1.71177 143.74 2.79118
7.422 142.95 -5.11233
-24.2202 126.352 0.893302
-11.511 131.501 -3.19975
6.96336 149.795 2.743
-27.7965 128.753 6.25786
-1.09878 144.084 2.55948
-27.1967 128.113 4.95705
-9.39627 140.619 5.0058
6.68212 142.995 -4.72624
-16.0093 129.62 -2.0302
-23.1118 126.183 -0.408149
-19.8462 127.8 -1.13952
-16.0906 128.747 -2.9805
-16.6261 128.642 -2.69388
-27.652 125.906 2.74323
9.94604 145.151 -5.00584
-22.1872 126.743 -0.633575
6.3978 150.107 3.13052
0.596547 145.28 2.26834
-22.9575 126.842 0.0240523
-6.11471 140.843 2.45929
-16.6652 128.721 -2.79762
0.418157 141.553 -1.80554
-17.3959 136.037 5.77118
-23.6948 125.93 -0.530891
-16.5232 137.174 6.31711
-22.1432 128.544 1.1041
-27.8671 126.507 3.25402
-13.3836 138.294 5.04804
-5.26187 138.485 -0.975166
10.6657 146.922 -3.92697
-12.0106 131.387 -3.61507
-19.8528 135.154 6.52391
-2.76339 143.43 2.50984
-22.2383 128.035 0.517429
10.6136 149.075 -1.58914
-28.301 129.044 6.20303
-27.2656 131.134 7.6677
-13.2288 138.429 4.91719
-7.30361 136.87 -1.46364
-28.4274 128.078 5.06831
-15.6614 130.723 -1.82146
-10.951 139.734 4.46659
11.2977 151.521 0.311937
3.37098 142.152 -3.95853
-17.3007 136.979 6.1317
-28.2425 128.782 5.48414
-29.2114 129.738 7.24002
5.11876 143.215 -4.2854
10.5037 147.772 -3.43125
7.97661 144.512 -5.15788
-21.8272 129.64 1.34487
1.2787 142.295 -2.47593
-30.6755 128.397 6.73671
-26.3613 129.521 4.66012
-28.578 128.71 5.46485
-20.4498 129.748 0.278898
-28.8761 129.678 6.66425
-7.93974 136.463 -1.94171
-27.4176 128.546 4.23488
-26.3997 129.711 4.72537
-14.2635 130.843 -3.37137
-30.1292 128.682 6.42439
-23.0813 126.55 -1.34742
-30.5524 128.498 6.37178
7.63013 151.932 2.84306
6.03141 144.41 -4.22386
7.28619 152.169 3.34506
-26.1281 130.103 4.65245
-30.0039 129.385 6.72115
-8.4755 135.909 -2.6293
10.1229 149.015 -2.48782
-18.8259 129.235 -2.075
-8.27336 136.319 -2.39541
-12.4203 139.335 4.09609
-19.0558 129.55 -1.59973
-19.2029 129.701 -1.34097
-15.0709 131.147 -2.933
-18.0363 129.622 -2.37036
-19.0113 129.946 -1.27515
10.1358 148.249 -3.529
-23.1335 126.683 -1.72711
-20.4214 128.804 -1.49346
-0.852658 142.844 -1.08427
-25.4079 125.941 -0.843194
-8.48548 141.422 3.16359
-23.279 127.259 -1.06657
-13.1332 139.013 4.07076
-12.555 139.392 3.99196
-25.6124 130.721 4.29891
-12.0392 139.867 3.90016
-25.2143 130.452 3.64129
9.86066 149.2 -2.73777
-20.8595 130.784 0.577625
-22.1716 130.187 0.91589
-29.4779 128.856 5.03383
-18.4158 138.035 6.62498
-10.1346 134.659 -3.46741
-31.9789 128.117 6.04909
-13.756 132.622 -3.03146
-12.8447 133.393 -2.89823
-22.1757 130.014 0.515351
-20.5735 129.932 -0.810176
-15.025 133.474 -1.17458
-0.157305 143.726 -1.31249
-29.7487 125.884 1.71265
-29.2555 129.014 4.73396
-28.6492 125.858 0.793185
9.68341 151.577 -0.37014
-21.5599 131.09 1.05396
-13.7064 133.561 -2.2587
-22.278 130.38 0.784
-8.61707 136.481 -2.99965
-1.93756 143.225 -0.74417
-11.4387 133.602 -4.06209
-29.3794 128.943 4.58002
-5.51413 142.309 0.965344
-31.0431 129.243 6.16504
6.86427 146.153 -4.36337
-14.78 133.936 -1.21328
-21.4562 130.488 0.0657213
-28.6387 129.817 4.82896
-23.6724 127.625 -1.44261
-16.2656 133.684 -0.476468
-22.5159 127.817 -2.14535
-30.4625 129.834 6.12839
-29.9752 125.925 1.43239
-20.7729 132.042 1.09861
-25.8327 133.231 6.26496
-27.6579 132.071 6.33896
-24.1403 127.601 -1.31542
-21.1324 130.819 -0.119403
-30.7027 129.871 6.14834
-21.4627 130.914 0.19605
-1.52129 143.896 -0.874955
4.93887 145.796 -3.74766
-27.7484 130.557 4.55376
2.95815 145.141 -2.98556
-19.6938 137.879 6.38118
9.70063 152.396 -0.20942
-20.4578 132.268 0.779713
-6.62328 139.606 -1.77613
-22.0874 128.652 -1.98085
9.32822 151.198 -1.3059
-21.93 131.193 0.660234
8.44766 147.846 -4.37588
-27.5489 130.649 4.30566
-21.889 129.512 -1.38384
9.40442 152.139 -0.508307
-18.9637 132.724 -0.150736
-21.7632 136.64 6.28172
-6.78832 142.035 0.718587
-28.255 131.891 6.03362
3.46321 145.605 -3.24668
-21.9484 130.3 -0.582008
-18.3602 132.871 -0.53382
-16.99 134.097 -0.32444
-24.6599 126.987 -2.31411
-30.7343 130.303 5.98028
-10.3566 142.799 4.06333
9.68363 154.26 1.26687
-28.18 124.842 -2.19196
-23.9299 126.489 -3.65707
-29.8667 126.347 0.724919
-12.874 134.688 -3.1471
-19.1324 132.774 -0.470234
-7.44929 138.961 -2.67653
-24.3278 125.846 -4.17402
-32.5726 127.538 3.98661
-9.4 143.061 3.2587
-25.121 126.452 -2.97732
-28.1769 124.246 -3.11706
-28.616 131.878 5.60867
-27.7235 130.441 3.28569
-25.44 126.299 -3.06421
-11.7282 135.073 -3.99227
-25.6671 126.437 -2.80922
-27.4513 125.068 -3.02485
-4.26719 143.003 -1.09593
-26.5265 124.893 -4.06756
-21.7257 130.161 -1.98849
-3.55911 143.736 -1.00681
-20.009 131.436 -1.9358
-21.8073 130.116 -2.04895
-26.8767 125.135 -3.65586
-25.5714 124.696 -5.15076
-30.921 126.491 0.896351
-27.5493 124.781 -3.59389
4.08726 147.3 -3.10682
-29.2076 126.974 0.0698153
-19.1363 135.025 1.18928
-28.4106 124.764 -2.99891
-26.0894 125.959 -3.48231
-25.9129 124.575 -5.14305
-18.9215 134.981 0.939236
-28.2048 125.462 -2.4339
-26.8737 126.101 -2.77024
-0.692473 145.87 -1.18591
-31.5872 130.181 5.22051
-14.1631 141.045 3.77581
-27.6811 124.561 -4.0297
-24.0556 128.673 -2.32647
-22.0059 129.04 -3.52194
-26.8872 124.658 -4.61064
-25.5189 126.08 -4.11663
8.67958 152.239 -1.65362
-28.5686 125.974 -1.9659
0.30392 146.624 -1.46624
-18.1202 135.501 0.357907
-24.232 128.815 -2.33667
-18.6804 135.665 0.90029
-30.517 131.134 4.85411
3.11808 147.911 -2.61339
-17.453 140.693 5.21223
-31.8648 130.171 4.65833
-18.872 133.94 -1.34457
8.41536 154.35 0.12219
-12.7378 136.64 -3.15203
1.41258 147.821 -1.8998
-20.2229 139.794 5.85111
-30.1425 131.58 4.30916
6.91624 150.489 -3.36021
-20.5026 132.362 -2.26059
-19.5924 140.504 5.9753
-0.305258 147.306 -1.37057
4.33489 149.161 -2.9202
-26.5395 127.067 -3.5333
4.28196 149.187 -2.89625
-24.4569 129.195 -2.89322
-32.6404 129.483 3.67779
-16.1475 136.763 -0.976103
-27.9098 133.086 3.89765
-16.714 137.373 -0.0436821
-17.9588 136.769 0.229734
-9.36594 144.813 2.46846
1.69454 148.574 -1.92835
-10.0895 138.98 -3.44622
-14.9013 142.019 3.53988
-23.7171 129.483 -3.58618
-2.25183 146.645 -1.22244
-9.0248 144.985 2.09154
-25.8679 128.066 -3.70651
-31.9053 128.02 0.861893
6.31026 151.149 -3.04177
-22.4078 139.252 5.85587
-23.9254 136.592 4.07406
5.65987 150.866 -2.95666
-28.3118 125.671 -4.62578
-20.7777 132.548 -2.89217
-32.0855 128.272 1.02007
-16.7704 137.672 -0.652211
-0.463014 148.31 -1.48106
-8.85794 140.36 -3.81686
-17.8007 137.178 -0.458788
-32.1922 130.487 3.21164
7.19901 154.32 -0.813099
-21.4484 131.292 -4.21285
-32.0738 128.612 0.924799
6.46793 152.08 -2.83651
-28.2911 125.962 -4.89744
-18.4998 142.567 5.82841
-31.9584 131.013 3.43267
-19.1017 136.171 -0.809391
-17.5554 137.329 -0.776254
-28.1676 126.582 -4.50067
6.90772 154.165 -1.16964
-9.38603 145.618 1.71343
-16.5291 142.923 4.18831
-32.1265 129.54 1.40665
-26.6126 135.107 3.22072
-20.6325 133.96 -2.69309
3.67367 151.113 -2.48937
-16.6967 139.22 0.0516196
-31.987 128.766 0.255001
-32.0753 129.361 0.954615
-24.3344 129.625 -4.74908
-23.8935 130.867 -3.72313
-7.6919 142.459 -3.5678
-11.7541 139.464 -3.76399
-10.79 140.072 -3.84526
-15.5352 143.68 3.62847
-12.1518 144.985 2.42921
6.04368 154.337 -1.31069
-0.504997 149.474 -1.63651
5.02451 152.638 -2.42611
-25.9249 136.342 3.31722
-18.9429 137.625 -0.656151
-26.9093 135.29 2.84683
-22.0688 132.813 -3.60856
-8.59918 141.974 -3.8739
-18.2162 143.585 5.20258
1.34832 150.703 -1.98324
-2.03665 148.854 -1.46706
-28.5906 127.284 -4.82035
4.10569 152.27 -2.46828
-11.0752 140.414 -3.9177
-14.9371 144.454 3.46529
-30.6069 128.133 -2.55585
5.85944 154.804 -1.24762
-26.3911 130.662 -3.0895
-26.4285 130.558 -3.19974
-25.8664 131.555 -2.54213
-13.7999 139.441 -3.14555
-26.4032 129.887 -4.04081
3.49907 152.302 -2.35991
3.44167 152.292 -2.33793
-28.5801 127.832 -4.70581
-11.5712 146.009 2.15567
-3.83111 147.857 -1.84119
-15.8903 140.573 -0.666835
-27.0257 130.254 -3.48488
-21.0312 142.67 5.54015
-17.5502 144.424 4.77792
-14.7621 145.219 3.50385
-29.9292 133.404 2.13808
-15.7318 140.769 -0.725549
-30.5525 129.786 -1.46988
-31.2783 129.206 -1.58803
3.80837 153.23 -2.09746
-30.9418 129.264 -1.85021
-20.9277 143.021 5.50433
-11.8951 141.409 -3.22461
-29.9083 129.899 -2.0858
-9.69189 147.874 2.17046
-5.7355 146.133 -2.79785
-29.4632 131.055 -1.1816
-26.3538 132.218 -2.29266
-17.721 144.877 5.00438
-21.1825 142.873 5.37318
-27.6353 132.102 -1.59469
-19.9269 135.956 -3.28569
-21.1255 142.996 5.37827
-16.9687 145.512 4.92662
-18.2602 144.814 5.14264
-12.4874 146.519 2.47735
-1.1558 150.618 -1.73593
-28.504 131.527 -1.77399
-28.7354 131.479 -1.66539
-9.99967 148.234 2.31812
-28.8733 130.672 -2.56074
-31.2361 132.61 1.21616
-1.26526 150.841 -1.75238
-29.3788 132.117 -0.821821
-15.5863 142.341 -0.211663
-17.3396 146.327 5.44313
-13.6095 146.796 3.06485
-18.646 145.67 5.59004
-15.6644 142.674 -0.00632218
-17.4089 141.698 0.244278
-19.8916 136.784 -3.31379
-19.889 137.089 -3.07491
-20.4621 136.475 -3.35171
-25.0238 133.655 -2.96198
-3.44788 149.754 -1.8792
-19.9449 137.606 -2.64817
-16.8176 146.721 4.93802
-18.0827 141.319 -0.0892638
0.583872 152.515 -2.15109
-23.8036 134.767 -3.02495
-23.9276 134.804 -2.95227
-15.1786 141.454 -2.39601
2.24454 154.314 -1.64904
-16.851 142.925 0.395899
-18.7942 140.831 -0.526675
-7.36625 145.69 -4.06861
-4.22654 149.843 -2.06397
-21.6596 138.337 -1.35715
-13.6237 148.164 3.19543
-4.34778 149.834 -2.1088
-30.5991 133.349 -0.127985
-23.3677 135.609 -3.41708
-15.3244 147.843 3.80031
-19.8441 145.786 4.97924
-19.0308 141.782 -0.0658791
-30.1321 134.73 0.574488
-25.5555 135.532 -2.05592
-7.43623 146.397 -4.04124
-25.7292 135.469 -2.03103
-17.235 143.269 0.026434
0.895873 154.341 -1.78937
-25.4215 135.965 -1.88797
-15.6042 144.116 -0.45685
-18.1813 147.19 4.6514
-29.6459 134.449 -0.650941
-26.254 136.127 -1.52936
-23.749 136.369 -3.214
-27.0597 139.136 2.3388
-7.72172 146.904 -4.06556
-14.5821 144.35 -1.67661
-12.5053 150.187 2.75597
-26.7745 136.882 -0.963563
-29.3494 135.482 -0.533536
-3.18324 152.403 -2.0542
-23.6851 138.701 -1.44529
-26.2758 140.343 2.3202
-17.3626 148.271 4.18258
-22.3447 139.587 -1.54806
-12.9313 144.626 -3.24441
-21.6333 140.422 -1.25466
-14.7967 145.897 -0.552016
-28.7574 136.49 -0.223208
-26.8258 137.634 -0.455672
-28.8388 137.228 0.629828
-13.3894 150.167 2.91471
-11.3379 151.074 2.32074
-23.1035 143.692 3.22069
-13.8836 150.03 3.08175
-28.3468 138.151 1.0008
-19.3179 143.014 -0.634234
-20.4267 146.466 3.91314
-8.93444 147.13 -4.27441
-13.4117 145.797 -2.31646
-23.0873 144.003 3.10515
-12.6417 150.789 2.55282
-19.5659 143.024 -0.68601
-13.2688 150.557 2.73683
-24.1021 139.935 -0.661679
-5.90341 150.461 -3.12061
-15.328 146.939 0.20633
-20.8972 146.249 3.69116
-11.0413 151.728 2.08364
-27.2187 138.77 0.19156
-10.8219 151.905 2.05228
-4.16929 152.69 -2.25398
-22.5033 140.778 -1.34355
-15.303 149.886 3.07884
-27.2025 139.569 0.83343
-4.72378 152.475 -2.33934
-5.97422 150.953 -3.06493
-20.9598 146.471 3.45275
-11.5497 146.63 -3.69816
-25.4435 138.956 -1.51676
-17.6044 148.786 3.22893
-20.6604 146.786 3.30599
-13.3697 146.957 -2.13049
-5.4625 152.256 -2.69368
-19.6197 143.939 -0.994484
-13.2891 148.175 -1.23477
-26.6338 139.927 -0.119943
-26.0644 141.141 0.756055
-8.36455 149.222 -3.9763
-26.0534 141.039 0.441588
-19.2032 148.065 2.90399
-14.3936 148.735 -0.0789476
-5.61993 152.556 -2.65894
-13.4403 151.413 2.05114
-25.6796 141.781 0.703845
-23.2672 144.361 1.6205
-6.27237 153.306 -1.5888
-8.12696 150.143 -3.65464
-10.1836 148.405 -4.01656
-15.4995 150.803 2.3747
-7.38341 154.394 0.0952626
-12.671 149.435 -1.42184
-9.0029 153.401 0.0769221
-23.9501 142.579 -0.402649
-21.5321 143.476 -1.31854
-9.42131 149.853 -3.64335
-10.5926 149.004 -3.75293
-21.3879 143.76 -1.28503
-24.3031 142.7 -0.331189
-19.4546 148.213 1.89736
-8.41664 152.002 -2.42217
-8.85798 153.672 -0.260209
-8.76089 152.05 -2.2721
-16.1648 148.658 -0.32534
-9.97932 152.969 -0.366617
-22.4776 144.753 0.174979
-20.3933 147.446 1.51064
-19.3079 146.201 -0.76474
-9.40738 153.344 -0.597508
-9.37152 151.8 -2.36999
-21.3286 145.697 0.0739301
-14.785 150.824 0.568721
-10.52 152.331 -1.4226
-11.783 150.734 -2.53304
