ply
format ascii 1.0
comment Created by Open3D
element vertex 1540
property double x
property double y
property double z
end_header
11.1431 105.451 7.11711
-13.2288 137.624 -0.371049
-8.87789 126.859 6.08698
16.1225 100.173 7.44429
-16.1651 137.513 2.8113
-13.2924 139.498 -2.10069
-15.2047 130.302 9.08035
-3.74862 118.785 9.02081
30.2661 82.1302 11.2275
13.6335 104.739 5.46077
-6.20233 119.608 10.7313
23.2685 100.246 0.196618
-14.0555 128.942 9.38703
-11.7322 126.892 9.14409
-13.0294 127.714 9.6715
14.2941 104.079 5.66072
3.62168 111.577 9.06319
-5.06083 119.694 9.80418
29.9481 84.5183 9.51086
-17.6701 132.057 10.3229
2.08554 113.158 9.20703
-12.9588 128.039 9.59425
11.1519 106.462 6.75467
18.3955 109.821 -3.96546
-18.022 135.894 6.981
-18.8893 133.974 9.82164
5.46889 109.908 9.22438
-13.2297 140.03 -1.98952
20.7574 90.0697 13.5934
-0.277298 127.184 -2.24627
-2.73586 129.614 -2.18397
-6.84558 121.153 10.4924
14.7603 114.341 -4.61374
2.07875 125.916 -3.32166
9.29291 119.335 -4.01592
8.59712 119.531 -3.46308
10.9382 118.337 -4.64297
19.5436 108.942 -3.93348
21.7561 89.448 13.3857
13.2748 106.26 5.17369
16.9501 112.874 -5.19122
13.7681 105.662 5.30262
11.9011 117.382 -4.40501
-6.95205 125.562 6.57002
-9.37622 127.387 7.20855
-10.1693 139.879 -4.42714
-12.7226 138.817 -0.762413
-11.9658 140.125 -2.8361
19.8675 91.2202 13.9026
-0.576655 116.349 9.49171
-5.22968 120.423 10.1608
25.7294 95.9558 3.27177
-3.6842 120.004 9.078
23.2102 87.5339 14.3941
15.8943 102.425 6.91515
-17.7384 136.554 6.88321
25.6959 96.2065 3.21481
-9.89036 128.245 7.28867
-12.642 138.95 -0.645659
10.0391 119.602 -4.27651
15.4525 114.6 -4.75129
16.005 102.442 6.92639
-11.7779 140.549 -3.04526
-1.80567 118.221 9.22298
14.1558 106.041 5.25892
14.522 105.61 5.41916
-6.71405 125.891 6.77839
-6.98424 124.394 8.55943
8.05136 108.404 9.31929
-12.7992 130.044 8.81992
-12.1335 140.842 -2.69318
-6.95254 124.726 8.25002
12.6194 107.889 5.25976
25.5673 97.1615 2.86759
-9.52631 128.324 7.32974
31.3651 80.5538 13.7421
17.0663 98.2732 10.5388
17.1693 97.1242 11.5935
11.7362 108.359 5.88007
-4.51348 120.969 9.76542
23.6687 87.6223 14.6513
1.36185 127.654 -2.83416
26.0764 96.1889 3.6246
7.74907 109.014 9.44915
0.217088 116.327 9.79163
-2.69463 131.258 -2.23162
-17.2212 137.427 6.35728
1.7638 114.877 9.6943
19.8304 110.333 -4.06697
-8.85823 140.568 -5.19286
-11.1124 141.159 -3.48551
5.73277 123.65 -2.9655
-12.0318 130.587 8.14877
-16.4441 139.007 4.19353
-6.28562 138.583 -5.70032
29.5532 89.5813 7.07935
-18.1978 136.463 8.61997
-6.40009 123.628 9.50218
10.4516 108.436 7.60962
21.2798 91.3238 13.7798
6.16539 110.884 9.55309
23.3273 88.572 14.4972
-6.58694 138.95 -5.62757
12.3171 118.372 -4.19577
10.8445 108.74 6.98296
22.1848 104.289 -0.073937
-0.00302914 116.871 9.86684
-8.67727 128.451 7.07026
-10.2085 129.354 7.75326
17.3164 113.992 -4.81051
-16.817 133.239 10.6265
26.0616 84.8879 15.5506
-7.99426 128.566 6.36352
27.305 83.125 16.0699
-2.18908 120.09 8.97871
22.4965 103.71 0.335667
22.5454 103.636 0.40049
32.0485 83.5349 10.914
-10.4533 129.732 7.83448
19.8405 111.293 -4.45303
17.8209 113.65 -4.72798
9.92037 120.44 -3.50088
32.1379 83.5025 10.979
-8.43531 140.913 -5.34549
-12.9178 141.414 -1.25595
5.27594 124.599 -2.87204
8.57757 109.317 9.15065
25.9939 97.5719 3.23845
-17.9018 134.911 10.4219
4.68617 112.765 9.67561
23.9609 88.1151 14.8239
-12.9146 141.452 -1.19643
32.2745 83.3631 11.1651
13.5781 108.516 4.96489
-2.03503 131.035 -1.75547
23.4175 102.544 0.986695
6.61283 123.156 -2.59952
10.2167 120.54 -3.63544
5.64933 124.317 -2.75581
17.1198 114.956 -4.99023
23.5911 88.847 14.6594
-17.7885 137.574 7.85149
10.3719 109.163 7.74453
28.2967 93.0929 5.65976
15.8504 105.477 5.91734
21.8197 106.863 -1.4843
23.0439 103.242 0.909686
-10.4806 130.169 7.9909
32.434 80.949 13.7751
-0.715747 118.925 9.40904
0.447261 117.224 9.97138
14.3799 108.235 4.84832
7.77085 122.3 -2.54112
-9.76308 141.902 -4.30754
9.22041 109.562 8.90956
18.7918 94.2409 14.5923
13.9415 108.995 4.79335
26.1472 98.1337 3.2838
-6.21592 125.789 8.48717
-4.32703 135.997 -3.67637
15.7288 116.903 -4.90512
13.2272 109.653 4.9337
-12.7551 140.153 0.759276
-6.61846 128.406 6.30976
-14.3381 140.317 2.25914
2.93595 128.053 -2.89664
-17.3856 138.213 7.58102
14.9385 118.081 -5.08252
16.9327 104.187 6.85813
-12.4806 142.011 -1.08673
3.36382 127.798 -2.92723
32.6259 80.9023 14.3959
22.5452 91.5373 13.985
15.4134 118.864 -6.14614
16.5536 117.478 -5.88743
28.9459 92.6597 6.42519
5.11468 113.404 9.85251
28.0083 82.9215 17.2097
-10.3587 130.674 8.32263
9.17276 110.23 8.97852
27.0586 96.4507 4.64554
14.976 118.724 -5.33915
-8.4562 130.219 7.00427
17.634 97.6403 13.1662
0.887359 118.291 9.6587
32.2174 85.9226 10.2891
21.8835 107.83 -1.18689
16.5386 116.796 -4.74136
11.9893 122.745 -6.0701
-3.31537 134.836 -2.62824
11.7988 122.935 -6.03184
11.0808 110.91 6.7875
17.5247 103.01 8.18844
32.271 85.968 10.326
1.05425 130.32 -2.41894
9.51766 121.977 -2.5832
7.74784 123.606 -2.366
17.9889 116.106 -5.21094
11.6654 123.364 -6.06317
1.73075 118.097 9.35051
-3.31659 135.226 -2.68017
12.2938 122.246 -5.51251
32.4026 82.4613 13.972
17.8367 101.858 9.32583
11.8506 111.939 5.32052
-8.09697 130.743 6.74108
4.42938 114.814 10.019
10.5699 121.686 -3.07304
13.9689 120.739 -5.57366
31.0937 89.4426 8.44702
10.5175 122.014 -3.29511
17.8857 100.63 10.6966
29.1231 93.133 6.80647
-14.7231 134.225 10.1895
28.0917 84.1661 16.8919
17.5036 104.189 7.65053
-4.08938 126.039 7.68714
12.0152 112.22 5.19848
14.0399 120.282 -4.94638
19.1425 114.8 -4.62326
17.8429 99.5084 12.0649
23.8465 103.516 1.97625
10.0539 124.071 -4.60461
10.5019 124.37 -5.32199
-9.4369 131.11 8.19446
9.68577 123.422 -3.50846
7.37742 112.64 9.67455
2.24354 118.373 9.14923
26.3931 99.7833 3.30137
-1.33509 132.733 -1.55492
-12.2862 133.184 9.16607
-16.7924 137.008 9.91158
17.4875 104.754 7.43239
-16.4431 140.302 6.28071
12.657 123.545 -6.49267
2.17533 130.005 -2.29187
-3.63284 125.267 8.38236
12.9425 123.38 -6.57365
10.1738 111.379 8.31438
18.7482 116.373 -5.39518
12.7633 121.337 -4.28245
21.3665 94.0418 14.3813
-6.20232 141.171 -4.86555
8.87738 111.959 9.12896
-3.69083 126.161 7.66346
3.1033 117.747 9.22451
10.0175 111.587 8.39576
16.1147 119.297 -5.5426
12.699 121.378 -4.1529
17.3427 105.512 7.05088
7.79134 124.46 -2.21367
-3.45438 125.45 8.26916
-16.3331 136.475 10.3121
31.5429 89.2916 8.9719
26.6932 99.5307 3.66461
18.0152 100.006 12.0204
18.129 101.278 10.6319
27.0256 86.6604 16.2874
9.27925 123.396 -2.52881
26.3986 87.5784 16.0191
18.0588 102.784 9.25178
8.54849 124.029 -2.39782
21.5387 109.69 -1.2169
26.3453 100.472 3.21122
8.91254 123.832 -2.48775
28.7595 95.2581 6.0233
12.6089 124.248 -6.62115
33.1096 85.6419 11.2799
-9.14953 144.288 -4.5951
9.71066 112.093 8.54716
-7.31379 143.122 -5.27674
-3.53077 137.425 -3.37907
28.499 84.4968 17.1667
28.1031 96.4854 5.54482
29.7009 81.5153 18.9494
2.96207 118.571 8.97648
22.3884 107.969 -0.141127
-15.0867 135.106 10.7539
24.2128 91.304 14.7573
-3.20819 125.683 8.15126
30.7888 90.9523 8.46528
11.1425 112.361 6.96288
34.0334 83.0966 13.0563
28.7306 95.5123 6.01753
14.0837 112.058 4.33114
-4.96382 129.47 6.25697
-4.9495 129.49 6.25328
-3.43099 126.662 7.55752
6.3312 126.429 -2.10499
3.57114 118.172 8.99173
3.96575 129.083 -2.33774
26.3794 100.706 3.36457
16.7187 107.738 6.13654
26.6764 87.7408 16.0892
15.5206 110.17 4.98761
-2.95465 126.057 7.88053
-9.3581 132.028 8.40339
22.8572 106.997 0.770178
32.5491 87.7891 10.1935
-16.366 139.838 7.71315
12.9079 124.742 -6.84213
8.06196 113.437 9.44774
4.95376 116.306 9.8049
-12.4935 142.145 1.66339
13.3944 124.478 -6.92803
7.51679 113.923 9.65899
-4.93045 140.287 -4.13565
9.31088 112.901 8.87615
16.6643 118.412 -4.04865
-2.32495 124.218 9.48525
9.36129 126.092 -4.25581
24.3558 104.216 2.47983
-9.38718 145.317 -4.44224
30.6206 91.9492 8.45056
-0.857318 122.903 9.40152
-5.46497 130.726 6.26501
3.34261 119.506 8.62927
-4.74998 130.399 5.95272
-3.52126 128.213 6.92815
-11.6046 144.825 -1.4806
-16.2915 139.154 8.98523
31.136 91.1579 8.92915
1.7768 131.646 -1.82834
-2.26889 125.312 8.65604
12.4678 114.139 4.8961
-11.1827 133.526 9.53889
-6.90803 132.464 6.26653
18.831 98.3066 14.4039
9.43535 126.926 -4.69926
33.772 85.1966 12.4488
30.0961 82.4821 18.9959
20.2106 115.098 -3.663
25.2242 103.143 3.2551
22.4406 94.5332 14.7336
-3.11253 128.389 6.76389
18.5757 103.274 9.91962
1.41156 121.23 9.3737
7.82382 114.573 9.55253
-0.67988 134.018 -1.31261
27.0147 88.7138 16.0039
11.4195 114.346 6.15266
-9.11135 145.761 -4.46498
-12.6501 142.775 2.15574
15.5234 111.61 4.79902
-2.16216 126.641 7.71191
33.3895 83.3655 15.0026
2.71818 131.213 -1.76453
7.91253 114.715 9.52003
29.4716 94.994 7.38817
-4.50432 131.054 5.79926
19.662 116.188 -3.85673
5.76816 128.318 -1.85062
8.84366 126.793 -3.44475
-6.50298 143.74 -4.84397
18.6127 99.3646 14.1594
17.3755 117.775 -3.05404
11.832 127.177 -6.69215
5.97782 116.64 9.83985
21.7415 95.6274 14.9286
-12.2739 143.001 1.99745
33.7291 83.3675 15.1191
8.60231 126.893 -3.00923
24.1183 93.3678 14.8717
23.1529 107.671 1.49816
-15.4569 138.2 10.1876
32.9237 88.1327 11.2484
16.4434 121.41 -5.37229
-14.6617 142.937 4.6603
15.7905 111.914 4.83523
7.88947 126.948 -2.18341
29.4075 85.1833 17.851
20.8986 114.412 -2.78455
13.0061 115.497 4.21236
0.0905777 123.528 9.3241
-10.4075 146.415 -2.96153
30.4073 83.0197 19.1643
-1.93907 127.188 7.75632
15.1317 113.233 4.43107
14.8453 124.76 -6.83574
25.7236 91.7781 15.2682
-1.24788 135.82 -1.47706
-4.30161 132.108 5.36039
1.80691 122.11 9.24795
-3.717 131.138 5.81708
0.030542 123.8 9.4084
2.81814 121.613 8.77903
33.9716 83.3628 15.5055
-15.1236 142.72 5.90836
5.25676 129.81 -1.78495
33.3154 82.7099 16.9967
21.413 113.429 -1.72208
1.70542 133.084 -1.3899
-13.1457 136.803 9.99725
18.8537 100.518 13.8772
-11.1814 146.58 -1.76479
-3.68462 140.429 -3.16827
-4.24825 133.084 4.78204
3.55097 131.665 -1.69969
-2.37653 138.285 -2.3124
19.4 99.6735 14.3408
-11.0804 135.543 9.36069
15.9132 123.421 -5.80537
13.8679 127.194 -7.49184
6.07064 118.427 9.25241
-5.17127 134.29 4.81342
19.2856 99.9789 14.383
7.31814 116.98 9.56285
-2.98952 131.468 5.50857
11.4199 116.356 6.04088
5.10041 130.776 -1.98397
18.8131 117.011 -2.09748
15.8624 124.225 -6.3367
-6.82583 145.584 -4.68548
15.8887 113.267 4.65839
26.6265 91.6154 15.537
-8.15737 134.219 8.17208
9.31662 115.894 8.83787
-11.5177 136.185 9.68732
19.6359 115.842 -1.57426
-3.82866 133.267 4.81445
-14.0243 138.819 9.66394
11.8178 128.73 -6.48666
-14.5791 143.626 5.42974
5.53583 120.318 8.37491
17.5028 118.678 -2.1178
-11.8571 136.802 9.55824
-11.7018 136.604 9.60065
19.1529 104.707 10.2779
6.26453 119.033 9.04252
15.3677 114.516 4.35131
30.3582 95.1275 8.57305
-3.22991 140.471 -2.76615
24.5908 106.763 2.7861
-10.4262 136.241 8.83287
26.7036 102.885 4.54764
31.1237 84.0402 18.9677
-13.1346 138.237 9.60111
-10.3908 147.571 -2.55282
-5.11757 134.917 4.794
19.2066 104.601 10.4867
25.7063 93.2054 15.3423
12.8052 128.61 -7.0542
27.7042 101.453 5.0712
-13.6856 143.798 4.68233
26.0176 104.426 3.81538
25.1582 106.004 3.11469
18.7439 117.518 -1.90098
-14.6882 143.271 6.26324
17.1454 111.476 5.8245
3.02346 123.486 8.16471
21.5191 114.531 -1.65678
-4.62608 134.537 4.86054
3.88679 123.138 7.66868
6.13116 130.745 -2.2488
-0.934103 127.429 8.27672
-6.75743 135.827 5.78841
16.4768 113.17 4.9556
-1.44206 128.519 7.80686
24.0801 95.1223 15.3713
-6.52804 134.757 6.74581
10.7503 130.021 -6.01083
-0.109928 127.201 7.88152
16.7782 123.28 -5.35902
-6.43718 134.615 6.96523
-7.1949 136.331 6.05655
0.809598 135.494 -1.19639
10.0039 116.536 8.5109
0.246329 126.672 8.27904
-1.0422 130.031 6.21976
16.2833 113.962 4.74571
-1.03294 128.156 8.11722
4.60122 132.827 -2.26101
4.80442 122.943 7.46873
19.6038 101.217 14.2628
-10.7901 137.344 8.93147
17.608 111.218 6.2812
30.4478 96.0551 8.44971
29.5865 98.3968 7.0029
29.3225 88.314 17.4098
17.6239 120.033 -2.50973
-2.23408 139.9 -2.249
32.5949 90.513 11.9412
27.9 101.844 5.37207
19.5259 122.314 -6.65338
-7.37773 136.541 6.46084
5.71471 121.51 8.23188
-10.5963 148.273 -1.98847
-4.06247 142.925 -3.26238
-5.37097 144.961 -3.9713
33.3651 85.2159 16.5954
10.7566 117.124 7.57968
32.3103 91.4801 11.4383
24.0429 108.689 2.57668
22.3194 97.6981 15.3901
1.82732 127.021 6.82191
26.163 105.319 3.90304
9.2536 131.497 -5.15086
-12.3818 144.506 3.81779
19.5248 105.324 10.7095
17.7002 111.528 6.38928
19.3963 102.835 13.4073
8.39414 132.178 -4.82666
14.7114 117.278 3.75225
32.6598 90.2916 12.6168
-3.73305 142.779 -3.00735
7.05179 133.565 -4.72937
17.7677 123.233 -5.25528
30.4261 86.7224 18.5209
31.8919 89.3299 14.4309
5.7629 132.871 -2.67692
23.5953 111.144 1.02522
19.5769 106.207 10.0705
11.9883 118.902 5.05892
2.4155 126.963 6.708
8.25536 132.484 -4.77254
22.8957 97.2073 15.7462
2.38146 127.141 6.58479
26.5284 105.003 4.27685
19.3699 123.505 -7.01049
17.8586 123.558 -5.51453
9.68693 131.777 -5.44224
6.93914 133.682 -4.54697
29.6541 88.4609 17.7436
0.345559 137.155 -1.30088
-10.9245 148.394 -1.11099
19.5395 123.648 -7.24588
3.92432 125.351 6.93424
18.2188 110.492 7.32693
-2.71653 141.365 -2.36534
18.2153 110.511 7.32322
12.7318 130.991 -7.64507
18.2571 110.428 7.37553
-13.0176 144.512 4.99231
22.7741 97.9322 15.349
22.3182 98.895 14.8577
9.09531 132.228 -5.08567
-12.0911 139.194 9.49217
31.8124 88.9038 15.3334
12.2222 119.511 4.54579
10.6 117.825 7.90066
17.0289 124.61 -5.41819
31.57 86.1024 18.5288
31.9563 88.1146 16.1248
13.4628 119.279 3.65826
1.67276 128.082 6.81836
1.14675 136.695 -1.25609
18.8302 109.492 8.1258
-11.0329 138.825 9.06617
32.2946 90.6511 13.3521
-11.2503 147.909 0.199875
31.9291 93.0145 11.387
32.177 87.5165 16.6584
15.9609 116.203 4.3609
21.8317 123.18 -8.57992
10.6196 118.146 7.89163
17.2885 121.145 -1.89467
16.6854 122.485 -2.61365
19.4188 108.1 9.0664
17.9142 125.339 -6.7046
16.2958 123.39 -3.10133
15.0141 117.868 3.75343
19.0433 117.643 -0.109515
19.1714 108.796 8.6536
-4.94067 137.626 4.27296
19.7563 103.644 13.2776
23.5357 97.2946 15.8138
15.3269 117.568 3.87398
-12.5475 139.91 9.80882
32.4895 91.5381 12.5837
26.3055 106.217 4.14592
27.8664 103.259 5.5426
22.0195 115.144 -0.438928
6.48596 121.985 8.51482
27.6538 103.664 5.39003
-10.5759 149.292 -1.49807
-13.8211 142.247 8.9114
15.5382 126.402 -5.03619
16.9793 114.807 5.14273
-4.76326 138.011 3.97675
-4.94494 145.787 -3.61719
5.2888 134.482 -2.66575
-3.8434 144.034 -2.95728
29.8493 89.073 17.9656
4.02558 135.171 -2.02911
6.76788 134.926 -4.56105
-7.66326 138.637 6.40553
16.9551 124.369 -4.30419
15.699 117.262 4.13745
21.0682 124.204 -8.23709
6.94678 121.627 8.80534
30.9827 87.651 18.4785
-8.2277 138.484 7.36543
14.2033 130.45 -7.3249
8.62148 119.811 9.04491
-5.16992 146.507 -3.7213
-12.6562 140.835 9.5964
21.8 123.855 -8.3945
12.3383 132.15 -7.08918
-3.75924 144.285 -2.89253
16.7444 124.741 -4.12624
31.7676 87.3347 18.1749
17.778 126.151 -6.43409
-12.1087 140.376 9.69154
29.6883 89.7399 18.0209
-12.3734 146.06 4.27773
26.1384 95.0276 16.3802
31.4161 87.9037 18.1707
21.7435 124.105 -8.32207
19.3681 117.808 0.428132
12.0744 120.941 4.75287
-5.13473 139.307 3.89483
20.0755 122.274 -4.64988
15.7801 125.485 -3.42352
14.7404 127.384 -4.26024
30.5809 88.5665 18.5906
24.8843 96.8531 16.1048
31.6742 90.038 16.0425
-12.5023 146 4.85755
13.4735 121.049 3.50497
24.8288 97.054 16.0557
14.2984 120.456 3.29009
20.7309 102.557 14.7301
12.6322 132.632 -7.13416
21.6457 101.161 15.303
-12.4232 146.362 4.59968
13.7637 121.041 3.38531
-4.62746 146.352 -3.31153
7.76696 136.223 -5.75149
-0.899662 140.917 -1.61644
15.9762 125.62 -3.41162
-1.54021 135.201 4.79937
17.2311 123.94 -2.97045
-8.32005 149.814 -2.9496
18.1793 126.583 -6.58253
24.6481 97.7085 15.8347
-8.15163 139.888 6.89152
9.07043 120.535 8.82953
17.1065 116.132 5.08286
22.5787 100.345 15.426
17.6104 123.235 -2.4877
31.7789 90.5819 15.8948
29.0774 91.5745 17.6597
-4.51429 146.455 -3.21245
-9.0964 150.186 -2.20993
31.417 95.2048 11.7674
20.2217 105.904 12.4184
16.2654 126.803 -4.53029
17.6895 125.271 -4.34534
-12.6877 142.729 9.04449
15.8651 119.013 3.83098
23.7081 124.748 -9.85838
29.7715 100.881 7.94798
20.2541 104.79 13.7456
-10.377 149.691 -0.13904
6.43181 137.287 -4.63425
3.17663 128.84 7.17549
12.1333 133.715 -6.81269
21.899 116.023 1.025
13.0984 133.319 -7.36869
11.1662 121.522 6.47041
23.5889 125.027 -9.63776
31.2924 96.6566 11.0071
-5.96527 140.803 4.6637
17.1921 127.596 -5.6227
5.00659 127.094 7.33428
5.17575 126.897 7.3861
18.8069 112.347 8.13374
-9.52402 140.826 8.38007
1.38062 132.389 5.82387
0.602488 140.66 -1.6861
4.50426 127.804 7.2622
18.9949 122.102 -1.72643
28.8309 93.3376 17.1837
-2.71517 144.623 -2.16541
16.7951 125.805 -3.11794
3.05982 138.862 -2.24028
14.7919 129.47 -4.73019
11.0638 134.958 -6.43847
15.9874 129.444 -5.91141
16.4205 118.883 4.24922
15.8829 127.792 -4.10056
1.17416 132.902 5.7735
-0.336883 135.482 4.72475
11.4668 134.967 -6.73557
-12.3186 145.432 6.96492
15.4007 130.663 -6.39952
28.8389 93.6914 17.0688
18.5894 124.686 -3.59888
21.6527 125.552 -7.58386
14.1028 133.763 -8.1303
-8.97646 141.219 7.8669
2.33253 139.511 -1.91233
3.79381 128.846 7.31517
-4.53009 140.829 3.76564
-11.2791 142.362 9.09811
5.51138 138.454 -4.05459
12.4787 122.948 4.45568
31.7663 92.1128 15.7875
14.2945 122.309 3.26033
25.7995 98.2685 15.7106
20.3037 123.355 -3.76283
4.45019 128.363 7.36405
15.3299 121.211 3.51589
20.8485 118.329 0.796801
32.0433 93.391 14.4672
19.685 124.236 -3.89232
-5.49413 149.342 -3.45902
15.5977 120.925 3.60908
30.2502 92.6513 17.1265
5.85016 126.782 7.72398
26.1418 98.2355 15.7475
9.48142 136.99 -6.19269
25.067 112.533 2.57523
15.4833 121.288 3.55691
-8.11474 141.987 6.79928
0.935451 134.152 5.54196
3.25199 130.38 6.9727
-5.5271 142.178 4.06481
20.3689 123.314 -3.34237
24.9341 113.18 2.19284
-8.20144 142.076 6.96533
15.6243 130.741 -5.8459
18.2124 124.381 -2.05205
9.17557 122.797 8.7328
31.4409 96.437 12.5589
3.58517 129.885 7.33822
-8.47101 142.026 7.44637
16.8512 126.113 -2.30878
31.2833 97.2792 11.9569
15.2822 131.614 -6.2229
-10.2967 142.435 8.98838
14.6681 129.82 -3.72074
15.7127 121.495 3.61944
-11.3261 145.47 7.06835
9.03564 138.288 -6.42887
18.4767 128.439 -6.12674
-2.86562 140.12 3.86676
23.7206 101.29 15.8111
31.8153 94.835 14.0781
5.94658 140.079 -4.94285
7.09062 139.988 -6.00324
14.409 129.757 -3.17605
21.0897 117.969 1.8876
8.45223 139.25 -6.59439
-10.2805 149.417 2.27301
24.5685 125.801 -9.46421
24.9478 114.026 1.98417
12.7083 124.089 4.34141
16.3552 129.751 -4.99061
27.4074 107.797 5.81468
1.96349 133.675 5.73312
-10.3698 149.23 2.6682
10.8359 123.507 6.91988
17.0512 126.149 -2.04345
22.4031 122.844 -4.16002
-10.1303 142.92 8.80289
21.0154 106.061 14.1319
12.6614 136.553 -7.91275
18.17 128.831 -5.75965
5.0852 140.527 -4.18875
28.7092 104.721 7.7299
-9.64929 150.63 0.699535
29.4737 102.87 8.85458
-9.32612 150.924 0.0980578
17.7832 126.84 -3.29807
18.6685 115.256 7.42932
30.5973 93.8016 16.9058
24.0438 101.518 15.8307
16.4562 129.806 -4.79593
19.1175 123.884 -1.54833
2.18422 141.673 -2.16239
-0.0176234 143.572 -1.77186
-0.36512 137.705 4.49629
31.2907 94.2927 15.8917
15.1403 132.698 -6.21615
21.3262 117.744 2.53838
20.4293 123.181 -1.98165
18.8063 115.185 7.69754
-1.85143 145.694 -1.89808
23.0267 127.418 -8.83013
13.2642 136.743 -8.24913
15.2983 131.908 -5.46045
15.9216 131.571 -5.73077
25.59 112.768 3.31582
15.6263 122.802 3.4264
24.0238 102.119 15.664
30.9821 99.1679 11.5646
26.5 99.7658 15.5638
7.44179 140.704 -6.11263
17.0323 128.477 -3.57285
6.96988 126.872 8.27511
26.5111 99.8449 15.5572
15.1544 133.087 -6.23515
5.50325 128.883 7.82089
16.2366 127.485 -1.68533
2.73251 133.795 5.76592
18.9249 115.116 8.09109
20.2861 110.714 11.1547
7.83484 140.772 -6.34388
4.58927 130.198 7.57112
14.7816 132.155 -4.75337
-1.62903 139.796 4.28388
26.3526 110.119 5.70137
22.5307 122.318 -2.63169
19.2357 129.091 -6.06409
30.0428 95.5327 16.6308
19.324 125.026 -2.05819
24.192 127.259 -9.22574
31.3433 97.4889 13.3958
7.68721 126.513 8.34569
4.11709 131.841 6.63252
-6.85039 144.518 5.07932
10.2429 139.468 -7.1866
22.7964 116.296 3.32941
21.4124 108.218 12.8664
21.3913 106.676 14.4767
-9.12778 150.626 1.48493
-6.75939 144.924 4.87587
21.8488 120.599 0.203275
27.4603 108.709 6.44177
22.4772 122.871 -2.65852
16.2139 127.544 -0.967835
-0.0157059 144.912 -1.81391
24.9442 126.896 -9.09697
23.0869 122.339 -2.63282
21.5182 123.059 -1.69715
19.7792 113.377 9.7993
-2.80849 148.23 -2.19297
22.0268 120.571 0.311988
-4.24895 150.038 -2.50318
15.5934 134.019 -6.6025
14.4182 132.118 -3.48398
-9.20732 149.712 2.89802
22.2012 117.86 2.92064
20.8829 123.835 -1.72747
22.2375 105.975 14.8237
19.8515 129.16 -6.01971
22.0483 122.429 -1.49409
25.0084 127.822 -9.89574
30.7767 97.8195 14.3563
0.417948 144.754 -1.87196
25.4168 126.44 -8.91581
-9.40239 149.416 3.45126
18.985 115.506 8.61384
21.298 121.968 -0.173722
21.6157 107.151 14.4118
20.1661 124.491 -1.51117
21.9363 106.498 14.7658
9.51908 140.763 -6.9565
25.7383 126.197 -8.82244
4.89191 142.948 -4.35297
-8.58798 151.259 1.06836
24.3355 103.617 15.4053
16.5832 131.174 -4.36245
0.0340469 145.524 -1.87186
15.417 129.176 -1.10506
18.0076 131.66 -6.2323
22.627 118.15 2.65709
22.3814 117.089 4.00119
12.5361 138.872 -7.74452
17.8246 119.582 6.25206
19.0118 115.757 8.90517
26.0503 101.538 16.0345
27.3003 100.572 15.794
26.0229 126.599 -9.01001
28.6806 98.7924 16.2001
21.4592 109.516 12.8091
29.2289 104.166 10.291
11.4218 140.178 -7.70106
25.0121 103.063 15.7448
22.0086 123.234 -1.44407
27.6391 100.267 15.9012
17.2051 133.329 -6.66696
-8.01154 147.857 4.40217
-8.03508 147.197 5.11566
22.9061 119.411 1.54134
22.7286 117.442 3.7136
17.7443 120.264 5.95989
15.9829 128.387 -0.397368
17.1178 131.13 -4.29834
28.8387 98.8086 16.2303
24.9088 121.809 -2.83595
7.45084 128.339 8.36999
19.0714 125.598 -0.694574
18.8637 125.738 -0.623617
25.7788 121.279 -3.16134
-8.12409 148.453 4.09271
23.1172 118.897 2.01128
17.9549 132.776 -6.65241
4.23507 143.891 -3.83682
18.8259 127.824 -2.38429
9.2105 141.962 -6.76082
25.6233 125.648 -7.07342
14.4227 127.399 2.56561
28.6336 99.4934 16.1921
20.69 111.204 12.5197
28.8391 99.2666 16.2311
24.1986 129.03 -8.88519
18.4066 128.306 -2.23658
19.7954 114.654 10.0567
26.0964 127.8 -9.53962
17.283 126.929 0.30933
17.0837 130.294 -2.83796
-0.111576 146.961 -2.06381
-2.04986 148.826 -1.93387
17.7417 131.04 -4.20047
6.20266 143.75 -5.2179
23.0255 120.15 1.3941
23.8987 122.112 -1.45196
28.5986 107.068 8.9024
18.0395 128.739 -2.09492
18.3102 129.262 -2.88615
10.3187 141.767 -7.29015
24.6537 121.931 -1.95401
24.573 104.878 15.2657
-8.03121 149.866 3.29055
26.3629 113.767 4.54125
15.238 131.02 -1.45337
7.40326 129.275 8.26934
30.0472 99.6903 15.0363
15.3303 130.774 -1.13787
29.1986 105.616 10.0154
8.77622 127.926 8.42108
17.8509 120.868 6.28492
-7.96649 150.499 2.81639
15.459 130.264 -0.676228
25.4758 128.364 -8.92238
29.2449 99.9095 15.8049
15.531 130.022 -0.467518
24.3969 105.374 15.2634
29.3154 100.21 15.533
21.0307 110.997 13.1347
27.5227 101.364 16.2041
25.3006 129.149 -9.4205
19.1328 116.401 9.65109
9.78603 127.588 7.93618
18.7894 117.222 9.18262
12.8514 127.353 5.06615
15.9913 136.228 -7.02948
26.1112 128.851 -9.90379
6.54557 130.815 8.03414
30.1934 100.573 14.4091
16.7149 124.493 4.14547
28.0491 101.746 15.4658
17.3109 133.741 -5.71385
4.51359 134.751 6.29206
17.1758 135.189 -7.02272
21.0281 130.187 -5.90269
29.1305 100.578 15.5785
9.61472 127.952 7.95658
6.923 130.557 8.10153
23.3148 106.609 15.4896
23.8496 116.502 5.04592
20.6883 125.924 -1.15692
18.1251 132.566 -5.17877
27.9871 102.829 14.6718
19.2877 116.352 9.99577
5.58236 145.057 -4.85405
18.3457 132.035 -4.76348
-7.57289 153.473 0.0926458
8.60328 143.554 -6.39781
-6.00317 148.228 3.78928
-2.47054 145.005 3.45746
9.05075 143.402 -6.6196
12.8392 128.275 4.73377
3.50355 146.124 -3.65228
-2.37405 150.34 -1.90449
29.525 101.314 14.9116
0.849506 147.681 -2.44348
-4.61717 152.959 -2.17278
6.35636 132.387 7.32313
-7.35056 152.622 0.963865
13.5472 129.36 3.06207
17.9011 134.932 -6.95325
28.7848 102.707 14.3344
26.9084 103.435 15.5262
7.46519 144.428 -5.80843
-4.07722 152.485 -2.12474
24.4948 106.082 15.4063
15.9567 131.346 -1.22759
18.3502 119.085 8.71025
26.9794 112.751 6.36787
8.54433 144.108 -6.34205
27.3937 111.485 7.24219
17.1112 124.577 4.58716
23.6298 129.316 -6.75466
16.4362 129.304 0.583695
28.9726 103.419 13.8164
-1.83282 144.951 3.50353
22.5641 109.218 14.6091
6.52145 132.781 7.29181
2.81945 138.816 5.02577
29.8084 103.069 13.597
28.1976 110.213 8.09705
27.3438 112.169 7.01293
23.357 107.877 15.4274
-6.7125 151.59 2.16339
25.8055 130.084 -9.31268
-6.69948 151.562 2.21955
17.7548 123.179 5.84888
1.42815 148.398 -2.7734
27.4575 112.135 7.17968
18.3432 132.729 -4.20869
9.24896 130.247 7.53468
6.36277 133.61 7.09545
16.5619 131.987 -1.62232
15.6065 128.776 2.61156
1.01355 141.936 4.28518
20.3564 125.157 1.48826
19.3011 117.131 10.6189
9.39387 144.487 -6.73033
8.54636 130.839 7.86612
16.8467 134.014 -3.73856
15.7275 135.845 -4.42646
11.6182 129.152 6.48644
9.06877 130.693 7.54729
19.7969 133.861 -6.54057
5.21959 135.271 6.87822
17.0048 134.564 -4.38933
24.3003 118.572 4.27899
21.8226 123.923 1.43505
17.6743 136.504 -6.97059
29.2585 104.459 13.4475
16.7644 129.557 0.985575
28.7132 104.661 13.8675
-6.955 154.012 0.658021
14.6229 138.959 -6.16584
9.17936 131.083 7.37687
17.5059 124.914 5.10236
17.345 129.394 0.786437
1.47836 149.081 -2.8264
15.9389 135.075 -3.44733
14.5407 131.202 1.87004
24.67 107.748 15.1855
-4.22004 154.081 -1.87992
24.6479 107.889 15.1229
26.9023 122.689 -2.02079
0.479336 150.07 -2.58187
17.2579 132.085 -1.59468
9.13046 145.289 -6.56272
20.8992 113.694 13.1822
18.0679 134.551 -4.83604
22.0573 125.398 0.297317
19.686 130.614 -2.50437
17.4757 125.408 4.98782
21.444 126.201 0.159236
17.0986 126.415 4.37502
19.6725 116.901 11.3162
8.20404 145.819 -6.03223
23.351 120.652 3.85269
27.2145 105.82 14.8275
0.80932 150.046 -2.69813
26.9141 123.726 -2.82644
24.4226 108.737 14.7636
13.0137 132.567 2.52759
27.7327 105.804 14.4726
24.6858 130.854 -7.56001
16.361 136.063 -4.31675
23.5165 130.539 -6.04095
20.3706 128.032 -0.313865
16.6845 137.596 -6.09155
6.06642 135.615 6.72521
18.4671 120.062 9.76003
26.5515 106.548 15.125
17.4069 135.974 -5.10535
0.101517 150.953 -2.52047
19.6061 130.311 -1.63682
28.3044 106.229 13.7165
20.9891 125.473 1.8826
13.3033 142.054 -6.9261
9.0259 132.01 7.51015
17.2051 136.055 -4.85842
26.8466 126.805 -5.36863
21.1743 126.519 0.703703
25.1475 108.591 14.6771
26.7638 127.997 -6.44028
11.9442 133.228 3.39009
15.4477 130.759 2.31394
8.50167 146.212 -6.11006
20.2359 128.308 -0.0703675
12.8949 142.378 -6.7249
20.5837 127.378 0.51153
22.7 124.001 1.76082
20.3156 116.057 12.2229
3.03298 140.979 4.78769
2.28914 149.697 -3.19173
7.3756 146.881 -5.50992
12.1197 130.769 5.87379
27.9537 112.902 7.70681
26.1083 131.447 -9.02588
2.64472 149.604 -3.35641
12.2951 131.158 5.37843
21.9015 125.573 1.21578
27.2562 106.964 14.4682
24.7192 109.511 14.5047
25.7018 108.571 14.4559
20.9961 114.518 13.2787
14.823 140.042 -6.0548
11.66 143.831 -6.62452
17.3714 126.676 4.78506
1.77634 150.308 -3.06384
-1.48806 152.537 -1.89073
23.02 110.947 14.9691
13.9092 132.984 2.12771
20.4371 127.662 0.866011
17.1103 135.982 -4.09754
13.5337 142.248 -6.74167
-2.87769 153.992 -1.79699
2.9733 141.472 4.96071
27.0094 128.241 -6.16366
27.4593 109.52 12.2425
16.9604 137.751 -5.39569
27.0232 128.297 -6.13582
17.8137 123.555 8.03063
28.226 111.78 9.25998
27.5876 114.241 7.44788
20.4614 127.482 1.55049
27.7639 113.809 7.90301
19.7406 136.522 -6.68514
0.366844 152.12 -2.62544
14.1869 142.022 -6.54723
15.8868 137.939 -4.13697
2.13433 142.739 5.0379
22.1939 125.153 2.30592
21.5597 125.963 2.20619
23.9441 120.338 5.45017
19.6425 136.837 -6.722
18.7804 132.765 -1.75578
5.18459 149.09 -4.30701
23.0305 124.729 2.03263
23.7049 121.866 4.2498
24.2313 122.789 2.82679
22.0344 113.486 14.4156
20.0148 117.469 12.4746
24.6929 123.936 1.2321
16.8818 138.685 -5.61429
7.61947 136.651 5.89209
2.8793 142.157 5.19514
24.3036 122.418 3.23913
19.6299 130.851 -0.46575
11.336 145.182 -6.37163
19.7058 129.377 0.986155
0.873211 144.524 4.95993
27.623 124.134 -1.78361
27.2159 110.893 11.9361
8.84666 134.016 7.46628
8.1409 136.352 5.86751
1.32469 143.987 5.14914
20.7945 126.923 2.47533
20.3053 127.304 2.64206
17.8607 138.631 -6.23069
8.5513 147.68 -5.82061
16.9441 137.942 -4.56481
27.3184 115.235 7.67428
18.4315 129.811 2.1101
27.1285 112.461 10.6775
3.46432 141.777 5.35969
27.2726 123.668 -0.679153
0.581858 152.74 -2.70341
1.49035 151.939 -2.78986
22.3708 125.41 2.62808
18.9177 128.957 2.5997
17.6646 127.309 5.61532
19.0384 130.699 0.815268
24.8849 111.465 14.2231
1.50401 152.157 -2.79134
25.0591 111.499 14.0806
10.1775 133.402 7.23996
23.3819 125.164 2.135
19.6661 129.325 1.80055
17.8588 126.269 6.70696
20.8534 126.82 3.12545
9.90259 133.667 7.4246
25.7736 123.917 1.09349
10.9806 134.808 5.21212
19.602 129.469 1.8472
20.9431 126.699 3.278
14.2594 143.074 -6.35902
22.5411 125.805 2.60034
9.85508 147.317 -6.07841
14.5893 134.838 1.64947
19.3316 131.923 -0.241725
25.698 112.41 12.8834
24.0799 112.518 14.4267
27.1173 125.808 -1.98021
24.5115 113.299 13.2295
17.47 139.368 -5.73488
26.9276 130.56 -6.49701
23.065 125.677 2.34466
26.7386 131.878 -7.61266
27.976 125.33 -2.2646
16.5374 131.315 3.43175
12.4482 136.877 2.01194
13.1545 144.301 -6.15109
29.1375 124.058 -2.05003
25.7997 132.703 -7.2977
27.3157 124.971 -1.05276
19.8722 119.288 12.2634
25.2417 119.794 6.36974
23.5693 123.06 4.88779
19.1097 130.643 1.84439
24.5121 123.49 3.55408
2.85445 152.023 -3.04287
12.2743 145.582 -6.15527
5.74737 150.311 -4.23196
20.6373 127.461 3.67974
29.0999 124.241 -1.68602
22.8782 126.415 2.52612
23.6499 114.418 13.8482
26.3726 124.665 0.821999
23.877 126.081 1.97526
11.2627 136.898 3.98824
19.3134 130.541 2.22492
25.4397 115.197 11.4082
15.7996 139.124 -2.78621
25.9094 118.961 7.20554
18.1643 123.592 10.4395
25.5191 132.919 -6.39683
26.8641 116.788 8.44678
10.5037 135.444 6.46309
26.2624 118.188 7.8291
13.5017 137.421 1.52039
10.3951 138.755 3.37521
23.5303 115.044 13.8334
20.3351 129.562 2.52763
1.72291 153.416 -2.45691
1.50513 153.519 -2.33841
26.5518 117.491 8.34715
27.2185 126.732 -1.57764
3.51681 152.35 -3.14763
27.3639 131.559 -6.48196
27.2786 125.85 -0.653235
27.5225 131.203 -6.24579
20.1299 130.248 2.29432
5.13412 151.417 -3.69531
22.197 136.678 -6.2576
3.94459 152.234 -3.30449
19.8848 138.921 -6.12136
12.242 138.424 2.15686
4.02615 152.26 -3.31301
13.3726 145.437 -5.95814
26.6729 128.474 -2.42359
16.627 132.62 3.63917
29.8408 125.159 -2.29431
22.0214 129.064 1.83685
11.992 147.056 -5.99981
16.278 140.262 -3.52638
8.53595 137.818 6.81771
18.467 140.381 -5.82863
22.4645 128.648 1.90468
8.55391 137.84 6.8351
22.7991 128.256 1.96466
17.9424 128.127 7.05971
10.0265 139.745 3.45499
22.8723 128.22 1.96597
24.3432 133.789 -5.08362
14.6124 142.268 -3.67909
23.4053 123.294 6.51549
22.694 128.723 1.80695
19.6924 121.627 12.0294
23.3881 117.593 12.3698
14.3958 143.135 -4.09627
26.3072 130.05 -2.99529
17.3852 130.482 5.65505
18.2726 124.742 10.577
15.9661 134.976 2.67349
23.5778 118.041 11.9314
15.7766 140.78 -2.90373
23.4981 135.433 -5.33588
20.4002 120.75 12.5655
17.4608 130.354 5.95117
26.4083 129.59 -2.35864
13.5598 146.096 -5.83566
4.08382 152.933 -3.0564
23.6925 127.398 2.68074
22.1267 137.837 -6.17814
27.5321 128.221 -1.97301
23.4643 128.193 2.21147
17.3739 130.781 5.81231
14.7631 142.351 -3.12246
26.0461 118.13 9.82109
23.5698 122.092 8.36674
16.7401 133.353 4.01698
24.8115 121.113 8.20341
23.5042 129.457 1.18385
24.0752 127.196 2.937
3.22065 143.842 7.45865
9.97136 141.739 2.7056
20.0057 139.974 -5.72832
16.9331 132.701 4.71805
25.7936 118.856 9.64674
23.8034 127.919 2.67608
27.2579 133.322 -6.23619
11.032 141.237 2.4104
24.248 125.207 5.07085
23.1679 130 1.37166
10.4986 142.264 1.96332
11.4272 140.662 2.64538
21.3459 120.437 12.8568
23.7764 122.14 8.69078
26.7584 131.973 -4.15539
19.1433 141.03 -5.47447
10.9273 141.78 2.14582
26.7158 126.998 0.94736
17.7216 126.93 10.166
17.3254 129.201 8.29659
26.8435 132.2 -4.3856
18.5311 125.67 10.6521
27.4876 129.153 -1.9519
24.21 125.369 5.20647
17.6501 128.736 8.5016
23.8393 128.397 2.60624
23.3239 129.888 1.68128
4.37647 153.381 -2.53315
16.8307 133.964 4.31856
20.9392 121.902 12.304
13.9807 146.215 -4.9971
26.3144 135.035 -6.30714
7.07271 140.816 7.54972
23.4388 129.731 2.0589
14.8983 144.084 -3.63225
21.2949 139.984 -6.00387
14.0991 139.787 1.55379
23.8678 136.546 -5.07363
7.14103 140.839 7.6563
23.7559 129.82 1.82251
21.9483 121.049 12.5467
5.35043 142.904 7.60767
21.8673 139.675 -5.83434
8.60185 141.437 5.92442
8.21826 144.215 3.59928
20.7718 128.326 6.78279
13.2411 140.73 2.02976
23.8698 129.552 2.48558
17.2395 129.764 9.02017
20.3353 127.566 8.12879
12.5509 141.509 2.06242
5.84587 153.175 -2.82345
23.2156 138.212 -5.46782
16.4797 142.644 -3.05974
17.7855 128.379 9.95725
22.9475 127.813 5.38418
19.9932 128.288 7.92686
21.7102 130.745 3.75793
19.9231 127.889 8.44491
19.6662 127.646 8.953
7.48671 152.502 -3.55171
17.5798 142.884 -4.16302
8.03046 141.834 6.65291
18.5532 127.038 10.8068
21.5179 123.012 11.9447
25.4381 128.217 2.84372
9.08267 142.294 5.41214
13.7847 146.951 -4.02392
19.9581 126.238 10.5733
8.84028 142.503 5.55812
26.8102 133.637 -3.80391
8.50965 142.36 6.061
7.58331 144.186 5.19448
23.9885 128.762 4.00181
26.719 133.225 -3.25071
23.828 122.752 10.3568
26.1957 135.758 -5.08781
22.8435 125.71 8.41065
7.5336 144.132 5.50866
19.5028 126.212 11.3276
22.3442 130.336 4.31048
9.9393 145.489 1.74267
22.7647 124.624 9.64476
22.7489 124.713 9.64873
22.8177 125.628 8.67025
7.83536 143.331 6.14595
22.9012 123.03 11.3057
17.1967 131.851 8.29983
25.3585 128.802 3.06858
14.1357 141.82 1.47145
16.2033 137.76 3.45303
21.0712 129.678 6.62971
27.2463 130.436 -0.296159
22.558 129.564 5.38154
20.1316 142.295 -4.82814
21.7316 125.835 10.1459
22.5021 126.255 8.9766
23.7374 131.658 2.29953
16.3789 134.918 6.56638
5.32051 154.405 -1.68393
28.0416 128.84 0.874721
19.8665 130.216 7.82937
23.8942 131.668 2.29465
16.0965 136.472 5.40544
16.1596 138.68 3.14696
26.4135 133.381 -1.9138
11.2006 150.693 -3.76329
8.02908 145.083 5.11079
10.2774 146.375 1.59379
15.8286 144.972 -2.47608
5.53094 154.518 -1.55279
21.8365 131.394 5.11987
13.8812 143.203 1.36621
25.4737 137.431 -4.57019
21.7844 141.922 -5.25429
20.7947 142.54 -4.85477
11.1299 146.328 1.40995
17.0028 134.087 7.73498
19.7288 131.143 7.94601
19.2141 131.121 8.53332
26.1443 129.726 2.94453
20.4268 143.025 -4.57816
18.6798 131.514 8.78567
11.7347 150.695 -3.32443
8.75943 147.86 2.56217
26.3343 129.761 2.8602
6.29662 154.275 -1.34814
18.3407 132.166 8.61972
12.4538 150.174 -3.44657
13.6439 149.058 -3.46687
12.8316 149.906 -3.43826
27.0348 135.651 -3.57431
20.4945 132.685 6.08084
12.1976 146.069 1.21745
22.6843 141.556 -4.89205
22.0079 133.383 4.09794
23.3617 132.889 3.23378
26.1285 137.861 -4.48052
28.9723 129.835 0.706464
9.21271 148.632 1.98266
22.7942 141.697 -4.7886
26.6976 137.471 -4.47995
19.8732 133.854 6.11536
10.161 148.664 1.41022
24.0057 140.082 -4.0356
8.36014 153.676 -1.65513
10.4074 148.609 1.36448
20.1773 144.474 -4.32669
18.4225 135.299 6.69601
13.0738 146.249 1.1713
17.1814 136.27 7.02349
15.7625 146.804 -2.0072
16.2766 145.732 -1.44207
9.98075 152.553 -1.60197
11.9065 147.897 1.2
26.9891 132.996 0.937878
21.6158 134.761 4.63563
26.7442 136.282 -1.9973
14.6099 149.09 -2.49601
26.31 133.729 1.13103
26.936 132.619 1.65326
13.4942 150.205 -2.28972
16.6549 139.082 5.71669
14.9633 144.066 2.51297
25.6662 132.789 3.10596
11.2513 149.273 1.26246
27.4595 134.267 -0.140323
13.0297 150.57 -1.82359
26.6563 136.572 -1.60466
19.9963 145.833 -4.11234
21.3008 135.874 4.89755
24.4214 141.12 -3.47504
20.5653 136.398 5.19914
20.4988 136.392 5.28908
24.0392 142.101 -3.88087
12.9423 150.817 -1.27121
18.8628 137.988 5.68461
26.7934 136.774 -1.15478
21.7376 144.974 -4.18871
14.0167 147.257 1.40083
14.4503 146.013 2.25546
18.1149 138.32 6.30283
24.6454 136.015 2.09709
16.3621 142.28 4.23864
19.5295 146.547 -3.25589
14.1721 147.205 1.56107
16.6315 147.886 -1.27661
26.5876 135.909 0.856412
10.4149 153.658 -0.482654
14.4076 150.374 -1.23263
26.9002 139.533 -3.05508
9.33813 153.023 1.46846
10.9353 151.51 1.44578
10.0408 154.192 -0.0318387
16.9975 148.858 -1.70681
17.4214 140.803 6.03692
15.378 145.071 3.86727
15.8314 149.778 -1.14169
23.1148 144.856 -3.54908
14.7302 147.777 2.22349
16.7363 143.391 4.6883
26.2411 139.838 -1.39172
10.5307 153.541 0.899463
11.35 152.297 1.35677
18.2586 141.189 5.51643
26.2327 141.016 -2.3972
18.3866 141.216 5.44798
14.8332 148.033 2.29182
12.0357 153.526 -0.193181
13.1408 150.957 1.26713
25.9878 139.563 -0.328551
18.0422 142.531 4.88332
14.9359 148.235 2.37877
23.2586 140.61 1.57783
18.7307 141.893 4.90379
17.354 144.431 3.84611
14.2237 149.571 1.94097
25.4621 142.477 -2.31395
21.7073 140.756 3.28048
21.2574 140.648 3.84637
17.9166 144.405 3.79184
20.6226 148.205 -2.74665
14.7309 151.944 -0.404919
23.4675 141.737 1.21825
23.164 142.085 1.40211
20.0086 142.564 4.15291
19.5358 149.17 -1.98958
13.7639 152.57 0.499649
13.481 152.132 1.2983
22.4611 147.193 -2.67658
23.6214 145.169 -1.80812
14.9136 152.713 -0.479932
20.8512 142.715 3.66961
24.2546 142.301 0.626173
22.5859 147.185 -2.32073
16.0557 152.135 -0.299028
14.9961 152.101 0.883145
21.9379 147.255 -1.26633
23.9969 143.247 0.740583
20.5914 144.757 3.10722
19.7589 149.469 -0.736733
20.9725 148.562 -0.915761
18.8559 147.338 2.58322
16.8301 150.12 1.86256
19.5131 149.213 0.16034
19.0454 149.206 0.650717
19.2244 148.887 0.796615
21.6852 144.845 2.43055
16.9825 150.773 1.29931
21.531 147.566 -0.101887
17.4792 150.87 0.754361
18.7245 149.224 1.27344
18.0673 150.075 1.12507
17.92 148.83 2.68831
