ply
format ascii 1.0
comment Created by Open3D
element vertex 1922
property double x
property double y
property double z
end_header
18.0409 103.068 -3.48969
19.5271 120.843 -15.4218
24.518 105.062 -2.42603
35.5761 109.072 -0.983393
25.2072 104.646 -1.79147
30.5567 114.865 -6.94765
12.5198 95.8352 -0.37452
17.9225 103.523 -3.71864
12.5017 95.8305 -0.351748
6.02949 91.092 0.549287
34.2228 103.866 2.27377
14.5882 117.977 -15.0722
-3.27581 105.851 -13.3083
21.6624 105.682 -3.71849
29.7474 101.824 2.07052
-1.52875 106.749 -13.2279
15.9768 101.615 -2.97422
7.2714 113.763 -14.8054
35.8342 107.957 0.121107
20.571 105.351 -3.81338
-9.14412 92.1651 -5.77727
25.5669 104.829 -1.53191
15.4515 118.333 -14.8183
16.9449 103.209 -3.61498
-11.689 98.3763 -11.051
4.53643 111.469 -14.1109
23.8378 106.037 -2.97247
21.155 106.028 -3.96169
9.33071 91.8717 1.52145
17.8093 104.12 -3.87299
28.771 117.478 -9.1109
-0.0811832 91.8285 -1.98534
3.68081 91.8356 -0.529816
-7.76721 103.143 -12.8114
29.1046 117.299 -8.72895
-12.1995 97.9168 -10.6419
13.116 117.469 -14.7456
4.20443 111.702 -14.0505
28.1943 118.26 -9.56918
8.52939 91.7807 1.63507
18.1791 122.107 -16.0376
2.28279 92.167 -0.941758
5.42299 91.6025 0.647402
3.61408 111.513 -14.0339
-9.92369 101.459 -12.068
26.3128 118.795 -10.4848
-8.82161 103.109 -12.6868
-3.60066 91.4369 -2.49173
12.377 96.6153 0.0219561
-4.60498 106.169 -13.1199
5.6492 113.134 -14.0964
15.5923 101.852 -2.38835
22.1132 119.731 -12.4893
-11.1397 99.7728 -11.0384
2.71611 111.367 -13.9397
-0.321928 107.951 -12.677
1.86832 109.933 -13.2187
-2.6597 91.4753 -1.94607
29.8722 117.511 -7.89398
-8.52655 103.816 -12.7293
10.7184 115.36 -13.5374
25.661 106.599 -1.69348
26.394 104.703 -0.0271148
9.30366 93.2493 1.57564
30.5427 116.86 -6.96417
19.278 106.9 -4.20846
-6.12399 104.126 -11.8635
34.7991 105.717 2.52308
-7.50809 104.251 -12.4228
-3.50042 106.544 -12.5036
-10.2226 102.051 -11.8577
3.47531 112.132 -13.7478
-3.32974 91.8454 -2.04832
1.96351 92.694 -0.585325
19.9343 107.527 -4.20622
26.6345 118.858 -9.61775
-7.14948 92.0064 -3.52392
23.5913 108.27 -3.30196
4.90232 92.3131 0.874477
-0.123409 108.466 -12.3847
20.511 107.943 -4.15198
30.6575 117.06 -6.7081
18.2106 123.003 -15.5996
-9.37046 103.735 -12.4886
-7.42183 104.556 -12.3095
15.435 102.289 -2.05829
1.02515 109.617 -12.6301
32.2617 115.088 -4.63168
28.0557 118.606 -8.67919
4.29096 112.888 -13.6473
27.7596 102.827 2.33552
33.7372 113.041 -2.58327
12.7697 118.84 -14.5589
27.6481 103.135 2.14805
-2.58483 107.273 -12.2006
10.9211 96.1391 0.75234
15.845 119.786 -13.9886
18.7793 107.633 -4.22853
-2.33154 107.572 -12.1783
22.2639 108.808 -3.72695
-2.72346 107.434 -12.1924
27.9481 103.321 2.31923
-1.17554 93.0111 -1.44823
34.7961 109.852 0.334448
22.1878 108.908 -3.75304
-9.56997 103.786 -12.1634
31.035 104.557 2.68465
27.7879 103.767 2.08273
13.5261 119.771 -14.5277
17.6107 123.644 -15.6926
-5.87432 92.7506 -2.83499
-6.46589 92.6686 -2.99556
3.74256 113.164 -13.5385
21.7417 126.796 -16.3062
3.89585 93.0342 0.702191
-10.0109 103.426 -11.8719
24.6607 109.098 -2.71288
28.894 118.818 -7.92891
-11.8535 100.01 -10.1
9.09611 95.0458 1.33394
16.6251 120.386 -13.6223
34.4951 107.868 1.97462
-2.19624 108.258 -12.1805
-8.74849 94.5602 -5.01445
-12.4678 96.0013 -7.25439
17.1956 122.626 -14.721
8.43056 94.8029 1.52858
26.3379 108.575 -1.36645
3.14631 113.339 -13.4453
32.6886 106.277 2.72241
-12.1322 95.5933 -6.7019
22.7477 126.254 -15.0228
33.7641 111.802 -0.678608
6.6374 93.1258 2.19083
-0.415502 93.5807 -0.794233
29.7591 118.599 -6.9341
-0.974282 109.049 -11.8301
22.0821 109.974 -3.73679
15.336 120.605 -13.704
17.6238 107.091 -3.32758
17.6466 124.733 -15.6787
-13.2858 98.4893 -8.88821
26.679 123.912 -11.6194
19.3795 122.681 -13.5094
-11.2701 101.314 -10.0877
-4.94032 93.1649 -1.94303
29.777 125.33 -11.4112
23.0016 123.803 -12.8893
-11.428 102.252 -10.7613
-3.14545 108.757 -12.1811
-8.13046 94.6472 -4.12121
20.072 109.858 -4.13513
26.9621 123.954 -11.4316
1.85307 93.7639 0.310025
10.6202 118.746 -13.9274
29.7865 125.924 -11.7
33.9793 107.366 2.95152
21.96 121.02 -11.192
7.34638 94.5303 1.99013
28.3182 124.141 -10.7901
-2.61817 93.69 -1.06544
9.32266 117.214 -13.0534
-12.8479 97.9288 -7.87367
21.0933 126.093 -14.8189
8.92128 117.231 -13.1739
-6.38433 107.52 -12.1323
20.936 127.664 -15.9515
4.9299 94.018 1.67501
-13.4272 99.0237 -8.7615
5.07659 94.0409 1.77761
19.9599 122.411 -12.5271
22.8458 123.901 -12.4763
20.9594 126.468 -14.9647
12.992 100.759 0.117268
5.88132 93.8951 2.25177
-13.3529 99.1843 -8.74707
27.2895 124.142 -10.8945
-6.0664 93.7239 -2.11316
-11.1419 95.7964 -5.4917
20.9214 128.441 -16.285
33.7248 111.811 0.263167
16.737 123.373 -14.2661
30.6147 128.174 -12.3736
8.3797 96.125 1.77694
21.3821 111.106 -3.83062
19.8581 110.714 -4.11502
-11.9123 100.755 -9.14109
13.9564 121.353 -13.8016
18.4674 110.004 -4.09038
7.52001 95.5655 1.94407
22.0547 127.903 -15.2774
20.7434 128.135 -15.9289
20.3076 110.972 -4.00309
17.9682 109.694 -3.97773
1.52441 112.632 -12.217
8.77507 96.778 1.7474
27.2511 110.171 -0.621091
10.1995 98.161 1.37233
17.5387 109.634 -3.90664
16.6074 106.106 -1.76929
16.3795 124.16 -14.5002
22.5998 127.972 -14.7977
32.4779 131.939 -13.8415
-5.96793 94.1908 -1.81216
3.12587 94.5425 1.3875
12.2814 121.24 -13.9127
22.3109 120.717 -9.72445
11.4931 99.7927 0.895668
-0.246226 94.6001 0.108155
13.0809 101.727 0.15774
-12.7913 100.381 -8.64492
22.995 121.272 -9.77999
2.79848 115.165 -13.1212
2.68926 94.5581 1.34301
-12.5168 100.699 -8.69814
13.785 121.981 -13.6761
33.6293 111.348 1.3436
22.6076 124.082 -11.7752
28.7962 125.105 -10.1348
-7.35818 95.6578 -3.11473
25.3332 124.328 -10.8935
-7.14696 95.2754 -2.75948
23.2148 129.778 -15.5207
0.541599 94.7551 0.529379
0.146221 111.452 -11.3539
31.2841 119.118 -4.92298
11.9525 121.24 -13.7364
15.0687 122.684 -13.5567
32.3335 131.328 -13.0931
23.0018 127.611 -14.0084
22.5004 129.95 -15.8318
27.6129 108.935 0.886334
7.24883 118.11 -13.2773
23.5772 121.106 -9.19037
14.5457 122.511 -13.5955
23.7697 128.877 -14.5718
30.4909 107.888 2.74099
23.5105 124.552 -11.6189
25.5445 124.949 -11.1221
14.4077 103.62 -0.327852
32.6963 116.163 -2.21782
-5.19401 109.026 -11.5241
23.5643 124.47 -11.4845
22.5772 124.138 -11.6144
26.5739 125.066 -10.7248
20.3637 128.036 -15.1346
8.45632 97.394 1.91564
32.9171 109.117 2.94837
32.304 134.87 -15.3944
28.8513 108.09 2.20175
28.4823 107.97 2.17
23.6362 120.64 -8.57129
21.2895 112.91 -3.9988
23.9542 122.919 -10.0247
-12.9543 100.743 -8.3997
32.8216 134.682 -14.9142
23.0703 125.41 -12.07
21.6204 125.139 -12.4002
3.6381 95.2178 1.83458
32.2952 133.77 -14.4024
-0.49299 95.0333 0.460951
24.1213 121.233 -8.63621
32.9312 134.675 -14.7437
24.8992 120.431 -7.72422
25.9931 121.872 -8.31513
25.4723 122.869 -9.18716
2.75755 115.991 -12.8603
3.54297 95.4128 1.93794
20.571 113.189 -4.10697
33.1429 110.684 2.45142
18.4038 112.112 -4.12798
-5.98898 109.8 -11.7282
23.412 130.757 -15.3026
19.0226 112.616 -4.19153
24.4224 123.633 -9.89211
31.6091 135.406 -15.4372
-9.54995 106.887 -10.944
21.1526 126.413 -13.0375
-12.7547 99.0292 -6.59016
26.8749 131.709 -14.5298
27.9421 131.53 -13.9803
31.7949 135.365 -15.2095
33.0209 111.149 2.29868
5.74115 118.735 -13.3614
31.6475 133.784 -14.0877
10.7221 121.219 -13.1231
-2.24202 95.2893 0.212732
8.76705 99.2662 1.61757
26.6342 120.42 -6.48738
2.01572 95.4248 1.77878
30.0717 127.654 -10.2602
-5.48242 110.882 -11.9013
14.7274 123.749 -13.2744
16.187 126.661 -14.7621
-5.58986 95.4709 -1.06169
-8.45389 107.973 -10.9345
25.6807 123.804 -9.12718
18.5664 127.325 -14.2932
22.6211 126.324 -12.0275
16.9668 111.551 -3.7566
24.6451 124.822 -10.177
9.26251 120.906 -13.2299
12.3071 102.926 0.588821
23.3139 131.377 -15.2323
31.9064 131.406 -11.9774
21.0046 114.369 -4.11161
14.4825 123.855 -13.2386
23.1592 125.923 -11.4011
8.08444 98.9868 1.84455
-0.107961 112.433 -10.7129
11.4771 122.083 -13.0922
13.8731 105.01 -0.137464
27.3388 132.3 -14.2193
-2.45471 95.5017 0.37683
17.9547 112.736 -4.00789
30.8163 135.421 -15.0888
24.8458 124.682 -9.79013
32.2903 134.965 -14.1676
-11.9819 105.052 -9.88626
20.8656 127.252 -13.0385
30.5004 135.344 -15.0801
26.5246 131.574 -13.9026
9.84286 101.255 1.10434
25.5055 114.079 -1.93899
25.5317 124.533 -9.28122
18.6529 113.582 -4.15568
31.4002 135.608 -14.8142
22.5633 125.159 -10.8117
26.4473 131.083 -13.5024
18.5721 127.547 -13.9475
27.3869 120.67 -5.76143
-12.8519 99.6265 -6.18743
23.2905 115.245 -3.45708
-11.8486 103.315 -8.37222
-11.0308 98.2721 -4.49668
-1.50877 112.334 -10.7762
16.2523 127.827 -14.9443
29.2103 110.51 2.20587
3.80287 118.315 -12.8392
-5.8819 96.3526 -1.01715
-8.61957 109.908 -11.5658
23.6284 126.376 -10.8931
29.9094 120.741 -4.52903
22.1177 132.043 -15.4278
2.35278 96.2388 2.29729
-13.446 101.164 -7.13387
26.7916 125.051 -8.68971
21.5944 125.706 -11.0524
-2.30069 95.9343 0.851751
26.8043 124.045 -7.89087
-7.748 110.97 -11.7377
21.08 125.591 -11.0937
29.573 110.826 2.50862
23.1972 125.455 -10.1455
21.3381 127.957 -12.6015
20.3455 124.41 -10.4626
25.9053 132.001 -13.6648
27.7999 112.199 1.0491
26.2288 114.329 -1.03595
5.97983 120.461 -13.0076
4.13968 119.254 -12.8372
24.5229 115.86 -2.66709
-12.3003 99.8656 -5.35759
-4.07863 96.1913 0.345024
1.59092 115.568 -11.1151
8.4503 101.497 1.39115
30.3952 129.587 -10.049
0.20415 113.847 -10.3928
25.0722 115.646 -2.21021
24.8961 115.792 -2.37446
31.3225 133.021 -12.0306
21.0224 128.09 -12.4293
11.9409 123.161 -12.4006
-11.6841 107.162 -10.0618
25.5049 131.682 -13.1629
31.4185 111.727 3.12211
31.5863 115.125 0.814302
-4.68762 97.0201 -0.143646
-5.05924 97.2131 -0.413173
25.9873 133.031 -13.7651
27.2798 134.399 -14.1955
27.0442 125.792 -8.21159
-11.2508 99.6749 -4.33357
-2.42407 96.6185 1.16297
31.3744 119.567 -2.16552
-6.92491 112.07 -11.3427
30.0136 129.295 -9.45177
25.6085 125.457 -8.36886
13.4475 127.622 -14.4817
-11.8058 107.033 -9.53877
1.13187 115.383 -10.5009
23.8358 132.117 -13.6091
3.67361 119.703 -12.5123
-11.1572 100.002 -4.25713
13.7197 125.094 -12.4743
-1.17676 113.742 -10.1061
4.5698 97.7645 3.3306
21.1984 128.04 -11.6128
14.4295 129.062 -14.8913
-10.3044 110.296 -11.0538
26.8894 122.944 -5.86091
30.7429 134.223 -12.2937
-3.21444 96.9673 1.10979
26.1569 134.009 -13.7973
-10.4388 110.303 -10.9859
13.4361 125.448 -12.5941
18.5921 127.387 -12.0023
26.7867 125.81 -7.73886
9.63129 103.932 1.17345
-11.7598 108.877 -10.4008
29.2973 135.667 -13.6304
23.8924 126.095 -8.94246
0.778852 97.306 2.5757
12.5 124.269 -11.9474
-4.28144 113.668 -10.845
28.2868 112.688 2.19236
30.6349 134.521 -12.2546
0.0197753 114.876 -10.0032
26.753 114.228 0.583052
30.6202 112.435 3.31009
30.1147 112.01 3.4498
-1.59761 97.3344 1.76896
1.65541 117.004 -10.8319
12.1444 124.035 -11.791
23.4971 132.96 -13.7405
14.6635 108.418 0.174163
5.52738 100.07 2.5891
6.86819 122.336 -12.5408
24.0708 117.827 -2.84742
3.22755 119.593 -11.9753
20.51 132.71 -14.6493
29.3779 136.298 -13.8131
-7.29575 99.1431 -1.53751
13.6146 128.989 -14.5989
-12.1258 101.609 -5.06248
1.87306 117.601 -10.9878
22.0576 126.648 -9.69497
21.7981 134.021 -14.9651
22.2792 134.022 -14.7565
29.8305 112.113 3.51918
26.112 134.995 -13.8817
21.1076 133.521 -14.7343
-4.90008 113.916 -10.6908
23.6238 126.993 -9.06095
26.0389 134.862 -13.6646
5.30762 122.021 -12.4781
23.4501 127.069 -9.14404
-2.72134 114.388 -10.0742
26.7773 124.614 -6.03933
30.752 120.617 -1.70766
23.7731 126.964 -8.81312
-10.8166 101.346 -3.88841
-9.12439 112.474 -11.0724
30.0273 137.425 -13.7847
-13.7148 103.389 -6.40446
30.8584 135.833 -12.3184
5.25834 122.156 -12.3947
26.0775 135.501 -13.8951
26.2331 123.709 -5.49378
2.83952 98.3081 3.51547
19.625 132.722 -14.2602
30.435 116.667 1.13492
-5.13464 98.9818 0.102175
24.3753 118.493 -2.43809
20.7758 119.096 -4.22324
6.75994 102.983 1.8195
15.4999 131.706 -15.0628
-8.57839 113.078 -11.0766
26.0041 135.398 -13.6727
29.7378 138.044 -14.0943
-2.5399 114.679 -9.86178
10.4991 123.889 -11.3738
26.5948 136.413 -14.0587
3.61529 98.8051 3.69703
30.7061 119.225 -0.395924
20.0731 133.327 -14.336
1.88845 98.2721 3.44792
29.1714 135.846 -12.6176
26.6868 136.551 -14.0354
25.895 135.147 -13.3069
24.0961 119.005 -2.62186
14.8688 110.152 0.112844
18.6846 129.117 -11.7692
6.93923 103.6 1.7297
16.8089 131.781 -14.333
28.0894 137.435 -14.0286
30.0904 113.699 3.43217
5.58338 122.858 -12.2819
18.9616 129.14 -11.6317
30.4167 115.312 2.45717
25.9077 127.027 -7.47056
-0.00198829 116.046 -9.55364
17.5035 128.993 -12.0033
14.7676 131.583 -14.8605
20.1878 129.124 -11.0365
3.18284 120.761 -11.5458
-8.50032 99.9663 -1.31692
24.7976 118.949 -2.00795
17.5533 129.372 -11.9635
29.4515 138.713 -14.0218
6.91964 123.827 -12.0739
29.7897 122.143 -2.22616
25.2218 126.9 -7.30087
-2.76128 115.203 -9.6647
26.6171 125.141 -5.51497
25.5461 126.922 -7.03621
11.6939 126.016 -11.6106
18.5433 131.52 -12.863
28.8771 137.876 -13.4158
6.581 123.93 -12.047
-4.22048 99.2649 1.22826
11.9458 128.482 -13.1925
4.21812 100.429 3.60995
23.4417 127.312 -7.99353
6.44905 123.968 -12.0373
19.8306 134.204 -14.1482
19.5854 129.937 -11.2352
21.6298 128.059 -9.12108
21.8855 129.666 -10.1469
27.3986 137.801 -13.7554
28.7744 129.814 -7.58332
-3.54558 99.094 1.80534
-6.48384 114.837 -10.3541
27.1674 115.203 2.18598
28.3421 129.284 -7.24682
0.168571 99.1878 3.25154
30.0667 119.158 0.544304
17.0507 132.424 -13.7069
5.84354 103.747 2.26868
17.7889 131.44 -12.6783
18.3955 130.456 -11.754
19.2938 133.99 -13.8898
23.8901 128.824 -8.51521
20.9103 130.148 -10.5656
17.8101 131.143 -12.328
-0.306366 99.3561 3.1798
-9.77918 113.661 -10.4673
7.4539 124.62 -11.6429
18.9958 130.573 -11.4482
29.942 119.073 0.787964
-9.64123 101.384 -1.74709
29.1026 138.284 -13.0054
28.8931 123.471 -2.64769
26.9139 115.612 2.13666
-13.7272 107.684 -7.65926
-5.27149 115.433 -9.9024
-2.6882 99.3284 2.42047
-4.45551 115.621 -9.69941
26.3467 117.197 0.858895
12.162 130.251 -13.6845
27.0074 115.601 2.25408
3.93129 100.92 3.85795
19.1942 131.677 -11.9624
29.8768 118.447 1.41959
24.1302 127.177 -6.85495
13.6765 110.494 0.933535
3.09098 100.397 4.03395
29.3428 122.834 -1.79791
25.0505 135.397 -12.2572
28.6762 115.291 3.27821
15.0495 114.997 -1.66334
22.1607 130.46 -9.83842
19.1573 121.033 -4.30231
-13.8465 106.912 -6.85382
23.2146 129.623 -8.78678
29.7533 118.366 1.63155
22.5765 127.849 -7.66001
-10.3127 113.773 -10.1817
0.404119 118.047 -9.12372
-8.29561 101.225 -0.562515
22.6178 136.769 -13.8338
17.9818 130.916 -11.3715
6.15445 105.331 2.1782
25.7923 129.314 -7.23783
10.8458 126.431 -10.8495
18.362 121.213 -4.33126
19.2746 130.916 -10.7964
3.21458 122.467 -10.9346
10.0281 108.104 1.76884
-1.53072 100.015 3.11396
26.439 126.142 -4.66458
-13.512 105.432 -5.21869
23.9664 128.532 -7.2638
27.0857 127.408 -5.25659
26.7366 129.26 -6.65622
29.8405 134.617 -9.21316
1.72652 120.219 -9.71163
29.1329 120.616 0.430857
24.8533 119.253 -0.226498
-4.55192 116.681 -9.53656
3.83705 102.118 3.88706
29.0755 131.881 -7.47559
28.751 123.742 -1.83962
29.0985 135.131 -9.69716
29.276 117.782 2.58832
-2.9895 100.462 2.54927
-0.886937 117.549 -8.66642
26.4245 125.724 -4.06787
24.9724 136.691 -12.2808
14.4365 113.313 0.170627
10.0197 126.305 -10.6293
19.3143 129.926 -9.62365
-0.251935 118.278 -8.73171
28.766 123.739 -1.5429
14.6119 114.365 -0.305507
12.3733 132.04 -13.5806
10.863 109.43 1.78071
-10.1564 103.959 -2.3299
29.0555 121.575 0.161748
18.116 131.935 -11.2315
15.2287 119.062 -3.22785
28.6002 117.707 2.7909
26.7674 117.224 2.47954
-6.21489 116.955 -9.7967
18.6444 135.362 -13.3046
14.8834 118.747 -3.02975
22.2026 131.009 -8.84809
27.0162 124.442 -2.40202
-13.6309 110.258 -7.80462
26.1497 129.846 -6.51309
18.6987 131.725 -10.637
22.4793 137.783 -13.4342
14.6781 134.883 -14.2986
-5.93195 117.292 -9.6927
-2.28327 100.99 3.15955
26.0643 129.521 -6.16718
-13.2799 111.626 -8.46698
24.2553 120.607 -0.566653
-6.26155 102.12 0.897944
21.5748 131.222 -9.02148
0.71278 119.679 -8.76536
23.6847 128.686 -6.35764
0.81139 101.104 4.37734
-9.03631 115.818 -9.67315
-10.2023 115.011 -9.53455
26.1922 130.637 -6.72641
24.4537 120.157 -0.0123371
26.0869 129.168 -5.7208
5.28653 106.088 2.66567
13.4574 112.367 1.35882
17.7508 132.172 -10.9134
21.463 131.381 -8.84166
-9.37643 115.704 -9.49509
29.705 135.121 -8.34641
27.2185 124.648 -1.89875
27.025 128.209 -4.44147
13.7395 112.964 1.25211
10.9064 110.555 1.91391
18.4464 132.791 -10.862
-9.17014 115.982 -9.48895
23.8592 138.323 -12.6822
22.7961 128.798 -6.36132
14.2033 116.461 -0.908093
-1.28576 101.356 3.85047
28.3073 138.526 -11.0825
19.5478 124.261 -4.29036
28.2818 124.281 -0.948409
18.8936 136.886 -13.366
15.2699 120.541 -3.23963
13.7634 135.101 -13.9957
22.252 124.928 -3.62415
11.8968 111.436 1.94327
6.94304 108.353 2.28482
26.9878 129.443 -4.95061
-7.75602 103.136 0.449998
-8.93762 103.987 -0.58585
26.881 118.285 2.94133
-0.147658 101.699 4.38189
13.1614 134.733 -13.8059
18.6158 124.21 -4.32745
24.8291 130.971 -6.70549
7.78042 108.943 2.33059
10.5032 129.932 -11.3519
18.2103 133.661 -11.0297
14.1796 118.633 -1.98607
9.12703 109.926 2.22896
26.8615 128.034 -3.78192
-8.26132 117.549 -9.70798
23.1897 129.214 -5.97363
2.78546 103.589 4.32982
0.393231 102.01 4.54663
24.9202 132.108 -7.32663
25.0092 131.695 -6.99103
3.1184 123.823 -9.71664
24.6929 120.011 1.14288
29.1581 133.991 -6.97361
-14.1284 108.226 -5.23292
20.3597 134.049 -10.2907
25.4498 119.073 2.18229
23.4124 138.715 -12.3658
27.6321 137.529 -9.92826
26.4066 126.033 -2.30626
18.5355 134.084 -10.9478
8.70939 109.981 2.29247
-14.1436 108.634 -5.41334
7.53258 127.281 -10.3067
9.96879 110.972 2.12683
-7.62881 103.604 0.646838
-6.90368 103.062 1.31836
16.9192 124.072 -4.43443
10.3817 131.651 -12.2275
25.556 131.878 -6.62287
19.4292 132.226 -9.1329
22.6143 123.981 -2.11427
23.6689 138.899 -12.1114
3.68513 105.576 3.75542
27.0493 119.422 2.90561
21.3988 129.136 -6.062
-0.119241 102.463 4.58946
19.1199 135.768 -11.5298
26.1539 125.598 -1.71295
10.1386 111.458 2.18788
-8.68676 117.93 -9.47765
-3.00103 119.253 -8.22551
24.3064 131.178 -6.22256
2.81649 104.568 4.41293
23.8149 129.947 -5.46085
21.8658 131.487 -7.27202
27.2988 120.441 2.556
-13.7664 112.951 -7.71187
13.9859 120.14 -2.24008
-0.285262 120.425 -7.84419
25.5004 132.595 -6.61858
16.5598 124.67 -4.43049
23.9904 130.578 -5.76414
20.3492 126.573 -4.30338
27.9465 123.871 0.527656
18.0911 136.01 -11.7156
26.2567 120.015 2.64386
18.0241 136.013 -11.7217
19.14 130.49 -7.37552
17.2958 135.271 -11.4326
-1.44056 120.045 -7.81111
7.56149 128.041 -10.0092
13.5914 117.832 -0.541307
-7.16055 118.915 -9.14053
17.9069 136.413 -11.9512
27.0335 120.139 2.97969
20.4063 126.963 -4.3289
21.3256 134.354 -9.17671
20.6713 133.072 -8.51673
-13.7436 113.375 -7.69177
23.1321 122.899 -0.341001
9.88602 130.198 -10.4835
-0.0904647 121.001 -7.77301
-8.00867 105.045 0.463054
-11.6882 106.756 -2.13231
5.5879 109.155 2.7261
-8.75303 118.441 -9.22505
20.0431 135.899 -10.5773
17.904 126.166 -4.53322
-10.5268 116.666 -8.60502
15.6568 124.036 -3.84506
25.2079 132.834 -6.38215
6.92077 128.181 -10.0153
-10.6076 116.704 -8.55404
23.3643 130.039 -5.06291
18.2931 126.628 -4.56537
27.7371 141.915 -11.7366
13.8299 121.036 -2.29671
-13.2981 107.717 -3.17609
7.40803 128.408 -9.88061
5.93597 128.024 -10.1665
23.9207 131.198 -5.58593
27.7481 141.642 -11.4812
-1.14157 120.946 -7.78007
-5.43365 103.972 2.53354
-6.30464 119.288 -8.56338
16.3925 137.333 -12.6296
-7.12141 104.626 1.48552
13.4163 116.436 0.960294
10.2108 133.354 -12.1253
17.3201 134.168 -10.0014
11.0909 113.256 2.37814
19.4149 134.319 -9.25351
14.7181 137.981 -13.5854
-14.0089 113.406 -7.1793
26.7933 125.569 -0.258021
25.9286 121.082 2.59188
-0.161936 103.74 4.91032
25.9847 126.156 -0.943062
22.261 130.381 -5.32313
-5.352 119.457 -8.07549
2.61467 105.798 4.59542
-12.9048 115.709 -8.24079
9.92133 112.815 2.44631
8.01468 128.97 -9.63373
17.2913 134.54 -9.92286
6.61211 128.698 -9.84441
9.46436 130.276 -9.87356
3.64554 107.665 3.89433
4.97274 127.994 -9.89553
14.6075 138.306 -13.4809
20.2908 132.775 -7.43341
20.3012 140.476 -12.8441
19.5076 130.991 -6.47264
13.1881 118.158 0.184881
13.4152 120.58 -1.4245
25.3266 139.499 -10.2182
-1.11683 121.781 -7.77121
-7.78048 107.241 -0.0450039
24.4953 133.408 -6.20769
26.3333 126.129 -0.31207
18.9394 138.158 -11.4865
0.911392 104.753 5.18951
-3.9499 104.59 3.46942
-14.4411 111.693 -5.47326
27.0594 140.561 -9.99827
18.1418 128.219 -4.68217
23.0191 123.103 0.770002
3.54784 126.632 -9.07279
28.2923 138.021 -7.68681
26.1615 140.473 -10.1948
20.8839 130.69 -5.31298
27.2393 142.3 -11.0703
20.3055 133.762 -7.68542
17.312 134.742 -9.49796
5.90047 111.044 2.85251
21.8081 127.351 -2.57793
23.593 122.588 1.49901
9.19122 133.505 -11.6085
17.8808 132.738 -7.76584
26.5586 141.287 -10.4906
17.3648 139.246 -12.5308
-7.13994 107.189 0.742878
8.54729 112.797 2.75019
17.3407 128.099 -4.66471
3.08911 107.665 4.35987
-12.2901 116.826 -7.89626
23.4241 122.836 1.41381
8.94277 130.514 -9.46356
1.34564 124.257 -7.89254
20.4619 135.781 -8.7173
3.58751 108.688 3.98857
16.9165 136.745 -10.6896
20.2467 132.934 -6.72449
-4.86347 105.051 3.38016
-13.6486 116.144 -7.73982
27.9492 135.215 -5.3819
27.8363 137.733 -7.162
19.9151 131.791 -5.98018
-14.5437 110.775 -4.25059
22.3846 131.435 -4.7869
19.93 131.789 -5.92005
21.1228 132.64 -6.06363
-12.3519 117.084 -7.76846
11.4156 114.918 2.77068
8.83323 113.38 2.9099
25.6206 129.104 -1.78373
23.8195 123.097 1.82012
24.4647 130.383 -3.05264
19.5888 129.73 -4.42554
20.2426 131.653 -5.52928
27.6029 137.003 -6.49503
17.8486 139.496 -11.9365
-13.0059 108.61 -1.89613
13.7427 138.85 -13.0311
25.2 140.157 -9.60365
14.7495 126.397 -3.86072
7.79294 112.912 2.9927
-6.46215 120.548 -7.77379
17.5244 129.125 -4.68659
2.99733 108.29 4.49943
18.2781 129.568 -4.66439
-5.62586 105.749 3.0401
-13.9197 115.818 -7.17598
24.0457 134.296 -5.75864
18.4041 136.138 -9.18127
3.25084 108.846 4.29278
2.29387 107.465 4.91879
16.8989 136.554 -9.96584
-12.3617 108.422 -1.19395
15.1308 140.376 -13.2533
22.0088 132.074 -4.80441
-1.07344 105.385 5.22502
21.7249 131.484 -4.47373
26.384 125.942 1.19965
-2.75031 123.035 -7.78702
21.8956 131.989 -4.71101
2.49765 107.907 4.87925
24.1875 140.809 -10.0026
12.9853 122.118 -1.07342
27.854 141.872 -9.29059
27.3723 136.077 -5.36674
23.7289 141.334 -10.3822
5.98284 112.583 3.12318
18.285 139.776 -11.3277
26.6801 142.744 -10.232
8.5737 133.98 -10.914
7.13032 113.171 3.2014
6.73164 130.412 -9.05295
8.02853 131.042 -9.0049
13.4083 123.797 -1.82919
-3.73509 122.743 -7.55676
-4.38753 106.03 3.96879
23.7519 141.529 -10.3296
19.3259 130.825 -4.4743
7.52117 113.505 3.28494
-7.54568 121.22 -7.81822
21.739 127.628 -1.20313
8.6366 134.836 -11.1865
21.7192 129.073 -2.09013
24.4586 124.37 2.29839
17.2075 130.398 -4.68201
-13.7587 112.486 -3.78854
21.028 130.131 -2.99132
12.4232 118.935 1.63004
28.0495 139.984 -7.24656
-13.9179 117.29 -7.12822
-8.25439 121.519 -7.95376
17.9633 136.708 -8.61493
24.2552 128.8 -0.619632
-12.7278 109.352 -0.946181
23.401 142.484 -10.5112
-12.1855 119.111 -7.51046
8.00562 133.453 -9.93259
-1.42106 124.422 -7.1509
18.0886 137.567 -8.93055
15.6235 129.61 -4.24185
20.8458 130.755 -3.06174
19.1338 139.028 -9.51397
25.1913 126.754 1.43215
-1.73886 106.543 5.4542
22.2054 143.11 -11.1612
20.9429 142.928 -11.4675
0.80549 125.851 -7.06966
4.08198 111.945 3.98212
3.54733 111.291 4.30743
10.6304 137.405 -11.3656
-10.5155 109.319 0.382006
23.4849 128.745 -0.383235
17.7934 139.52 -10.1025
-11.2165 120.115 -7.40741
6.47069 131.289 -8.52587
8.05046 135.129 -10.6238
3.79453 130.063 -8.63751
0.229822 107.693 5.74665
3.22281 111.132 4.54726
24.6151 142.331 -9.27487
14.352 128.247 -3.22561
0.634534 126.165 -6.94347
-13.7122 111.801 -2.25907
23.1126 128.688 -0.171069
24.765 135.722 -4.47288
9.29536 136.79 -11.0594
24.3211 127.731 1.10034
-0.0125385 125.908 -6.793
0.311362 108.342 5.68744
21.398 130.307 -1.77332
18.1711 139.031 -9.10755
21.2522 128.533 -0.5524
-5.5543 123.712 -7.30515
5.8222 114.099 3.86826
18.51 139.858 -9.41754
16.4107 132.005 -4.67872
-8.98999 122.467 -7.58884
3.40603 130.211 -8.30416
6.67115 132.148 -8.4208
0.462707 126.565 -6.84197
-13.4318 113.7 -3.02255
12.2089 122.494 0.536619
25.4928 142.838 -8.72963
21.0705 131.025 -2.05939
25.1746 142.46 -8.52836
15.1893 130.862 -4.09615
-11.0118 121.859 -7.68227
7.32402 134.14 -9.3689
20.0392 143.411 -11.0717
6.54407 132.45 -8.42955
8.69983 116.164 3.86752
0.214795 126.685 -6.73969
0.82415 127.263 -6.90652
-7.71271 122.891 -7.05133
11.357 139.769 -11.6128
-7.86094 110.938 1.41567
-7.44583 123.705 -7.38835
12.0884 122.65 0.811559
0.521949 109.685 5.55212
12.8094 142.14 -12.6026
-12.8765 120.311 -6.96109
-6.21254 125.117 -7.7933
-11.4183 110.567 0.477064
2.67315 111.885 4.88767
2.56671 129.555 -7.57
26.9375 139.915 -5.57696
11.7001 120.027 2.64225
-8.1208 123.57 -7.30816
-9.54246 123.013 -7.38879
-11.3069 122.415 -7.60451
26.5438 142.362 -7.20272
-8.32577 123.583 -7.19881
25.3863 138.301 -4.75221
-7.29189 111.469 1.76121
20.9789 130.329 -0.77985
-11.1078 123.055 -7.7892
13.9751 142.316 -11.7988
-11.8008 110.928 0.532825
19.0761 143.224 -10.4598
0.0488585 109.977 5.72074
-6.88766 111.503 2.04746
6.57495 115.549 4.30902
9.72729 138.931 -10.9403
19.4304 133.908 -3.7207
-12.3547 111.24 0.185532
17.8599 134.367 -4.58024
18.4833 140.515 -8.65462
-12.4177 121.371 -6.87805
9.3074 119.868 2.4328
23.0702 134.265 -2.47815
1.00563 128.431 -6.71286
-7.97996 125.537 -8.07552
-4.31488 126.38 -7.25457
-8.37326 124.613 -7.4939
20.5227 130.616 -0.745889
1.2037 128.819 -6.75362
16.5856 134.605 -4.97007
3.74537 131.716 -7.78656
1.95541 112.192 5.29103
23.3348 136.292 -3.5469
-7.21898 111.784 2.1176
2.01076 129.865 -7.04188
-9.42539 111.675 1.4369
-4.72486 126.67 -7.30543
26.2757 140.024 -4.93344
10.6327 120.978 2.54792
-13.0408 120.49 -6.05528
14.3124 130.106 -2.41338
-12.9593 119.4 -5.12372
-8.32477 126.517 -8.33954
12.9677 126.203 -0.0345472
-2.43936 127.273 -6.60377
11.6287 122.973 1.75619
9.48017 140.091 -11.0698
15.7005 134.326 -4.6387
-12.6586 112.163 0.243479
14.2225 131.439 -3.12905
17.6906 142.085 -9.28048
10.0345 121.316 2.47429
20.1555 144.636 -10.0817
5.03925 115.702 4.54275
-13.0471 120.818 -5.90027
20.8431 144.822 -9.93273
0.816806 111.759 5.75595
26.5233 140.864 -4.96715
15.7563 142.258 -10.0174
9.97979 140.754 -11.146
3.57839 132.203 -7.50659
7.05432 117.617 4.08515
0.928397 111.966 5.76114
21.8845 133.847 -1.65844
-3.25716 127.498 -6.67555
-12.612 115.745 -1.95134
8.14438 120.133 2.83869
5.64977 134.482 -8.19033
-12.9999 116.926 -2.88822
17.6873 141.264 -8.37718
-12.9697 119.827 -4.90679
-8.28725 127.201 -8.30492
1.40911 130.035 -6.61593
16.5268 135.913 -5.02318
8.4957 120.773 2.58241
-11.8468 112.156 0.946368
-7.39246 126.99 -7.79442
22.423 135.509 -2.4914
17.2953 142.304 -9.19219
-2.53787 109.797 6.16328
-12.4491 119.701 -4.52046
-12.8992 117.574 -3.16748
17.7678 141.248 -8.15016
21.6931 134.378 -1.83212
-8.99502 127.341 -8.49617
14.3094 132.321 -3.17218
20.2124 133.408 -1.68551
-12.3776 115.61 -1.50726
-3.99896 110.661 5.16571
-12.5603 117.442 -2.79777
6.52903 136.797 -9.17266
-4.20137 110.81 5.04955
14.2204 130.473 -1.79206
-3.47372 110.483 5.58691
24.9823 144.853 -7.72974
21.3506 133.684 -1.20414
14.1563 131.625 -2.4642
16.9253 136.629 -4.90033
14.1695 131.124 -2.07226
6.81609 118.561 3.98439
25.0024 140.255 -4.36541
16.6892 136.684 -4.99858
0.470433 129.681 -6.17998
21.4587 133.283 -0.758568
10.4229 122.559 2.61677
-12.2652 120.943 -4.83132
12.5031 126.821 0.45401
-13.266 118.557 -3.48683
26.6162 144.606 -6.67586
25.0836 145.104 -7.606
26.6651 142.969 -5.48221
17.82 141.996 -8.09253
0.958569 113.317 5.69426
-1.34854 129.014 -6.21461
21.3151 134.854 -1.73191
-12.8723 122.423 -5.88481
-9.68787 127.193 -8.01867
-4.85503 128.263 -6.93444
24.7921 145.625 -7.90754
-4.44974 128.388 -6.84439
-1.22376 110.875 6.69425
-13.8309 118.539 -3.46446
17.7363 142.529 -8.37015
24.4832 145.976 -8.23578
25.5432 141.088 -4.39509
19.8194 134.365 -1.81554
-13.1522 119.67 -3.94036
13.5542 130.068 -1.09487
14.3787 133.472 -3.16948
-1.05693 111.148 6.6963
19.7583 134.863 -2.01191
-2.79922 129.139 -6.50585
14.1075 143.998 -10.5486
-12.925 113.656 0.57288
26.6765 143.145 -5.15111
-2.379 110.864 6.55744
23.6992 139.219 -3.46637
-12.9385 113.72 0.623188
18.78 136.574 -3.42788
13.3654 144.404 -10.9654
-11.6944 115.788 -0.328368
-12.6724 113.434 0.978111
-9.33839 128.907 -8.59998
7.39548 120.945 3.3485
17.9643 137.155 -4.04638
-2.71208 129.41 -6.4232
-13.0366 121.921 -5.00695
14.5738 135.158 -3.85882
26.6295 143.36 -5.05447
21.6923 136.379 -2.00022
23.0215 138.444 -2.91929
5.58554 118.01 4.85388
14.3289 132.932 -2.32661
6.84503 139.534 -9.73704
7.71657 122.423 2.66511
8.67209 142.347 -10.983
4.01421 116.964 5.1058
14.3374 133.865 -2.86339
23.9924 146.841 -8.331
-12.0326 123.238 -5.3656
-13.628 118.721 -2.7822
16.8381 143.029 -8.31194
-12.0264 123.314 -5.30519
26.3477 144.293 -5.50225
-3.81933 111.787 5.94744
-12.6187 117.795 -1.59261
-4.33753 129.835 -6.91496
-14.1728 118.993 -3.01135
-12.0297 116.786 -0.64642
-2.149 129.904 -6.12205
3.98979 117.317 5.06857
19.1318 134.498 -1.19051
18.4088 142.879 -7.27296
-13.5073 119.169 -2.64978
19.2045 135.067 -1.42152
17.9657 142.385 -6.95879
25.9878 146.574 -6.84163
24.3077 141.279 -3.73739
16.6909 143.29 -8.0321
-4.44502 113.187 5.14724
25.6776 146.848 -7.11156
-14.0255 119.361 -2.80079
-5.92664 130.423 -7.48324
-11.783 125.99 -6.57408
-12.5451 113.878 1.67078
7.48639 141.481 -10.1461
-13.4244 119.319 -2.47872
5.95578 139.149 -9.07224
14.516 144.903 -9.86094
-8.12625 130.998 -8.65396
24.0238 141.175 -3.60635
-14.0526 118.348 -1.90761
-6.05092 113.352 4.65261
23.8677 141.128 -3.53141
-12.5889 114.031 1.73855
4.33053 135.013 -6.54336
-12.8322 116.916 -0.245006
-12.0125 119.726 -1.86206
25.3684 147.315 -7.09756
24.6013 142.164 -3.71924
-0.605373 113.639 6.80013
17.2882 139.227 -4.4142
-12.7776 118.203 -0.934577
-12.2162 124.522 -5.15984
11.8981 128.994 0.847408
-12.5429 118.751 -1.19738
-9.50579 114.014 3.31463
-12.9402 118.03 -0.802687
26.1543 145.755 -5.48335
-12.1539 118.587 -0.8396
-0.431685 114.525 6.48237
18.2375 137.74 -2.69947
5.07161 137.755 -7.67359
-11.7612 121.137 -2.33894
-11.8098 119.337 -1.0369
-11.5413 120.636 -1.8059
18.8268 144.986 -7.42173
12.3013 145.535 -10.249
13.9436 145.374 -9.50259
-13.8928 118.095 -0.860479
-11.7183 115.294 2.00395
-13.2041 118.617 -0.876803
-2.01905 113.453 7.02603
-10.0988 128.406 -6.54659
26.2044 147.266 -6.06056
21.5273 138.076 -1.34552
-10.1919 129.621 -7.38144
-11.574 121.691 -2.29611
11.9606 130.316 0.564513
-11.6162 121.833 -2.39443
-11.7402 115.731 1.87345
14.2926 137.181 -3.34443
-11.9681 120.375 -1.46536
-14.665 118.423 -1.10727
26.1597 147.063 -5.78389
-13.3325 120.276 -1.86408
-13.429 118.099 -0.36341
9.86619 126.242 2.7353
-13.5771 117.858 -0.243547
25.4396 148.004 -6.63254
18.0062 137.736 -2.2254
-11.5884 121.84 -2.24994
-11.8439 120.478 -1.38387
-12.828 119.121 -0.768372
-11.7311 122.207 -2.43767
13.6141 133.973 -1.1072
-7.31725 132.633 -8.07403
20.1421 137.198 -0.876951
8.87536 144.599 -10.3135
-13.0353 116.892 0.93943
17.6607 139.993 -3.64882
-12.7937 118.038 0.295587
3.70388 136.144 -6.16758
11.3713 129.253 1.62676
17.5883 138.55 -2.52241
1.5159 118.546 5.47225
-13.6963 118.443 -0.21062
13.5002 134.026 -0.841325
-12.8851 123.758 -3.55533
-12.236 119.42 -0.243877
-4.69047 132.533 -6.56542
12.8287 135.401 -1.94639
20.4571 147.81 -7.76742
-13.356 119.444 -0.530169
-13.2374 119.644 -0.597337
13.5259 133.89 -0.385963
18.5473 146.771 -7.53095
21.4146 148.518 -7.65662
4.92769 121.971 4.77587
-11.9464 116.37 2.36227
17.9567 136.195 -0.238066
6.35666 126.722 2.04021
21.1003 140.093 -1.76348
13.5266 133.857 -0.237945
-3.41347 114.338 7.09513
12.9828 133.288 0.0107345
-11.7148 126.467 -4.50187
5.35416 122.511 4.74614
-12.9407 123.953 -3.14222
-8.13388 133.256 -7.85774
10.4428 128.697 2.40648
-12.0933 118.533 1.03079
15.287 145.608 -7.63923
10.874 146.684 -9.99218
4.06214 138.172 -6.58551
-11.6005 126.768 -4.48716
0.983427 134.773 -5.30927
4.31925 139.291 -7.22301
-12.0451 117.957 1.58635
-4.16905 114.94 6.69945
13.311 138.691 -3.35673
17.5699 140.01 -2.66944
0.981958 134.851 -5.29826
-11.6131 127.459 -4.80103
22.8016 149.364 -7.1586
21.4612 140.721 -1.56592
-8.27359 132.984 -7.345
14.5071 140.375 -3.90499
-4.62917 134.413 -6.90231
6.6725 143.608 -9.08741
-13.3122 117.757 1.53212
18.1343 137.142 -0.179089
-12.1246 119.149 1.05126
14.9701 146.654 -8.01095
-12.3467 118.213 1.71212
22.9301 143.249 -2.5221
-5.81336 134.862 -7.47941
-14.3378 122.505 -2.01164
-0.987334 134.357 -5.28452
5.90855 142.82 -8.60608
13.6132 139.61 -3.38548
-12.3967 116.9 2.75117
-9.80578 130.857 -6.05303
-11.9934 119.417 1.1736
19.7185 148.625 -7.33784
-7.1372 134.943 -7.86331
12.3739 133.53 0.624287
-11.4814 118.764 1.98272
5.57382 125.855 3.45647
14.3434 140.734 -3.66256
-11.8127 118.068 2.3733
-10.3173 116.233 4.25657
-0.801037 117.272 7.14948
8.60146 128.939 2.51281
-0.120127 135.089 -5.11432
-10.7353 129.127 -4.91406
17.4045 141.903 -3.22375
-3.14278 116.16 7.13206
-12.8952 123.125 -1.45937
-15.8984 118.498 0.66386
24.9583 147.05 -3.90526
16.7902 142.664 -3.9092
-11.2265 119.843 1.54576
-16.0464 120.641 -0.834904
24.4188 149.607 -5.83908
-11.6176 119.494 1.74003
-5.78909 135.861 -7.53891
23.9593 149.886 -6.12694
-15.149 122.312 -1.53957
-4.98406 115.778 6.92968
-11.8097 124.253 -1.60229
-2.91417 116.752 7.0856
-11.7297 124.427 -1.63619
-1.97045 117.028 7.29209
-9.31976 116.942 4.57526
-11.2247 119.135 2.33163
-3.16402 135.085 -5.80883
8.68166 129.49 2.61486
3.43682 122.675 5.42369
23.1671 150.089 -6.37229
-4.40354 116.343 6.92424
-2.32057 117.135 7.16956
19.4848 140.093 -0.715865
9.86041 147.42 -9.43106
19.5888 148.91 -6.77234
-11.4622 117.017 3.90528
16.3611 146.067 -5.97517
-11.6473 127.156 -3.25632
-16.8072 119.547 0.143069
-5.15351 116.34 6.82323
23.9289 150.161 -5.88785
2.96789 139.079 -6.01433
-3.17247 117.417 6.93455
4.75414 127.891 2.5857
-1.27888 135.653 -5.15035
-16.6965 118.028 1.43935
5.46909 143.779 -8.23883
-11.8776 119.128 2.53598
-7.98373 117.244 5.35559
-7.33623 117.022 5.77871
-1.18353 135.871 -5.13064
-11.9 117.798 3.54025
17.4072 142.544 -2.74835
-15.8541 121.413 -0.471324
-11.9177 118.936 2.78477
19.3637 148.97 -6.47973
-3.78835 117.575 6.85744
-12.8396 125.556 -2.1812
18.5671 148.504 -6.42054
24.2573 146.629 -2.89241
16.7223 146.412 -5.57646
6.76177 145.752 -8.86813
3.6899 124.439 4.985
3.35522 123.923 5.27196
17.841 146.889 -5.36551
3.61049 141.462 -6.88893
-13.4335 125.729 -2.27029
23.6607 150.237 -5.39207
5.40815 128.963 2.65678
15.1452 143.656 -3.98402
-9.78915 131.011 -4.52073
-12.7531 125.851 -1.99957
23.7071 149.595 -4.83146
-1.84646 118.32 7.50908
9.09398 131.501 2.39196
-11.8692 125.258 -1.10723
10.8608 148.419 -8.75764
-12.3263 125.094 -1.11976
-4.20601 136.611 -6.13415
-6.57469 118.048 6.02928
-12.6691 126.568 -2.26955
-2.45417 136.908 -5.65773
5.60977 145.011 -8.29396
-7.84606 136.003 -7.03827
12.3688 148.668 -8.28319
-12.3918 118.03 3.9192
-11.6219 118.222 4.08283
8.04759 131.535 2.17534
10.2042 134.572 0.863813
-1.54571 137.165 -5.40536
3.49952 127.075 3.61501
7.6443 131.2 2.31607
23.4172 146.417 -2.39123
-16.7872 115.096 4.42505
-5.56198 117.908 6.69971
7.90547 132.076 1.85619
15.373 144.593 -4.08971
-3.17692 118.592 7.17961
-16.8872 115.114 4.48953
7.41342 147.247 -8.8239
-12.2097 125.062 -0.638592
-4.41947 137.054 -6.12084
23.8999 147.167 -2.50689
-4.88122 137.313 -6.46974
18.7464 141.265 -0.268014
1.90287 123.206 6.05821
10.445 136.288 0.0977759
19.313 149.43 -5.77105
-13.1142 119.382 3.08154
3.76043 126.305 4.64181
5.92139 130.986 2.18483
-14.2242 126.088 -1.96974
22.0437 144.801 -1.37455
-1.15214 137.906 -5.30234
13.0002 139.433 -0.996021
-13.2701 119.239 3.27404
-13.9333 118.058 3.87505
6.87811 132.907 1.32452
2.3102 140.379 -5.62888
-16.2791 122.608 -0.151579
12.1141 140.58 -1.99652
9.00377 135.281 0.563151
-16.2134 116.073 4.52337
3.59913 142.841 -6.79215
-17.147 118.241 2.68703
10.2057 148.861 -8.45921
11.7689 149.372 -8.1398
-12.9761 118.766 4.05046
-9.42672 119.531 4.85848
-3.31034 121.491 5.8461
-16.5518 122.895 -0.14156
13.3042 139.05 -0.192015
23.0081 149.991 -4.21124
-7.11816 137.786 -7.036
-1.60735 120.113 7.4845
-3.23893 119.365 7.41991
-2.13501 138.361 -5.47744
4.05683 130.996 2.07747
8.70583 135.764 0.486286
0.185559 122.478 6.60493
-16.5683 122.254 0.440218
18.0594 141.71 0.00110727
13.2271 144.375 -3.66068
-6.26392 119.482 6.50908
13.0689 140.182 -0.721716
-4.1947 121.789 5.69273
-14.7452 125.174 -0.680348
-16.7903 116.158 4.88707
21.8312 151.421 -5.24374
3.25949 143.242 -6.49541
-1.34596 121.037 7.41189
17.1596 147.811 -4.39578
-8.82273 135.899 -5.85324
3.12137 130.998 2.13214
-4.3435 121.609 5.91644
-14.5079 127.447 -2.03387
9.56934 149.072 -8.11115
8.78943 148.766 -8.16383
-5.05027 122.468 5.09206
-16.9322 123.311 0.014414
-18.2202 118.409 2.97845
-4.54379 138.65 -6.07595
14.1691 149.733 -6.74686
-16.6859 122.708 0.608033
-17.5428 116.897 4.37575
-1.61433 121.758 6.9926
-5.06485 122.049 5.5576
-15.2446 118.506 4.19786
-14.2954 127.695 -1.82617
1.55836 141.042 -5.20692
-12.4381 126.897 -0.56036
-10.7414 119.645 5.20424
-3.9279 138.721 -5.61689
-9.29052 120.317 5.29934
12.0647 143.1 -2.58863
10.5032 149.726 -7.81143
-12.4456 126.784 -0.365546
12.0436 144.017 -3.19759
-1.37414 122.177 7.09159
8.69177 149.052 -7.93747
4.22957 145.412 -7.05673
12.2815 150.215 -7.36998
-5.7221 120.394 6.79642
-17.3059 121.627 1.5485
-10.5971 121.147 4.45279
22.3522 150.647 -3.77624
1.53969 130.189 2.73903
-1.03594 123.665 6.37717
-11.8604 128.086 -0.828659
4.7024 133.83 1.41982
-2.78233 123.086 6.17077
8.764 138.171 -0.042561
18.0346 149.047 -4.17842
-1.62225 122.803 6.86204
1.38155 130.347 2.71273
-1.57791 124.518 5.74129
-17.828 120.372 2.5162
11.4267 143.397 -2.55264
-7.90651 138.602 -6.47475
-8.36957 137.774 -6.01074
-9.3193 121.331 5.19421
-8.45091 121.184 5.66857
6.47801 136.285 0.722899
-17.6375 117.585 4.74588
2.65702 143.769 -5.97464
-14.6581 118.81 5.05919
-0.408057 127.222 4.56114
16.8729 144.534 -1.05044
14.7618 146.998 -3.54441
1.97206 128.602 4.55968
4.07122 146.176 -6.99001
-8.43706 121.914 5.33667
1.14562 141.79 -4.9904
13.0496 141.472 -0.249347
21.1823 151.897 -4.41544
-17.4321 125.381 -0.390002
-10.8905 131.965 -2.50422
18.1816 145.287 -0.837691
3.54793 145.771 -6.6473
13.2259 150.686 -6.43287
17.7866 144.939 -0.660047
18.5972 145.908 -1.02276
-17.3952 117.865 5.11713
-11.772 120.39 5.48703
17.9532 145.463 -0.857514
-9.70732 136.698 -5.159
11.485 141.367 -0.405583
-10.6893 120.722 5.74735
-8.41168 122.77 5.18628
20.2623 146.947 -0.95212
10.5208 150.865 -7.30383
6.33894 137.613 0.477229
2.43048 144.486 -5.80348
-8.07915 139.475 -6.24109
11.2836 145.438 -3.08711
-9.21321 137.77 -5.45057
-10.2881 121.58 5.55682
21.5837 148.254 -1.04544
-8.92982 121.809 6.04575
7.00482 149.688 -7.50903
-12.1349 129.359 -0.440351
11.7801 142.26 -0.451914
-10.2237 121.641 5.72863
6.03474 137.979 0.480724
11.4879 142.298 -0.476826
-16.2552 119.996 4.74336
-1.30334 128.137 4.70342
-18.1904 122.574 2.23198
0.384027 130.555 3.6711
-7.79482 140.344 -6.29184
-17.206 114.89 8.04973
-11.4377 131.333 -1.31994
-12.432 129.577 -0.461559
-14.8887 128.466 -0.608283
-8.30404 139.723 -6.02429
12.5919 144.194 -1.23147
-18.3013 122.216 2.5265
2.25354 133.772 2.2013
-14.9552 119.233 5.94202
-11.8078 120.913 5.95809
-16.3114 127.777 -0.560359
-16.195 120.384 4.69926
3.20005 135.194 1.64161
6.13287 149.436 -7.24461
-14.1665 129.959 -1.23472
11.4668 145.326 -2.32816
-7.68293 140.688 -6.31131
-13.3187 130.703 -1.41543
21.2109 148.965 -1.16071
-1.80265 127.763 5.03415
20.6869 148.481 -0.964678
-7.65477 124.844 4.93541
-0.37069 130.965 3.42019
0.915081 143.545 -4.88784
-16.6612 119.404 5.43936
-9.29926 122.054 6.37474
-16.7513 118.543 6.05399
-1.00576 131.828 2.70332
-0.132272 130.387 4.06301
2.01571 134.463 2.02048
19.0331 147.592 -0.748204
6.16733 139.141 0.336116
-16.1416 118.683 6.276
-18.2519 125.239 0.900081
6.6636 150.18 -7.17705
-17.5535 126.481 0.328582
14.6574 151.156 -4.7709
20.2491 152.321 -3.44821
13.3603 151.596 -5.52403
-1.69072 142 -4.45579
20.925 151.337 -2.45345
-7.78815 123.595 6.20292
-17.1548 127.111 0.195695
12.6933 147.696 -2.96033
4.73981 138.244 0.698001
10.8151 142.583 -0.0485345
-15.0645 117.702 7.64911
-6.65231 141.736 -6.03783
5.03932 138.66 0.573296
-8.00195 123.127 6.56065
-10.7505 136.257 -3.63577
-1.29707 132.173 2.82971
0.959082 134.444 2.18893
-16.5296 117.779 7.30926
18.0328 147.718 -0.655164
-13.5504 120.627 6.44229
5.01907 139.163 0.502166
2.59017 136.536 1.45089
-16.0528 119.524 6.37394
-16.6138 128.255 0.0413877
19.2599 148.689 -0.693787
-16.7661 117.211 7.8144
-2.08135 130.622 3.97994
-13.1874 120.251 7.07648
-3.91601 128.754 4.60837
-16.3953 118.305 7.23832
-11.6891 134.184 -2.14506
-12.3652 121.566 6.48184
-12.9099 121.526 6.36147
-12.3065 122.094 6.19636
-14.9069 130.299 -0.489596
-2.31946 130.502 4.14333
12.9002 151.739 -5.01705
4.63192 139.401 0.547078
-12.1111 132.704 -1.03177
-0.560068 143.722 -4.38192
-11.6278 121.914 6.76749
-11.9051 134.282 -2.03221
-11.7595 122.621 6.28502
10.1361 142.783 0.407923
3.35411 138.368 0.967645
1.76874 136.54 1.66599
-12.0995 120.938 7.39398
2.91081 148.121 -6.0131
6.14982 140.887 0.310498
-12.2538 120.988 7.34031
-11.5566 121.213 7.46209
10.2597 147.153 -2.46214
10.6624 151.906 -5.65045
-1.79462 132.856 3.05818
4.27043 149.741 -6.49802
18.3547 148.752 -0.426907
-2.60297 143.235 -4.41718
3.64323 149.298 -6.28757
3.37775 138.967 0.880572
-19.2541 123.044 3.54547
17.4178 148.513 -0.468413
-11.127 122.755 6.86273
13.2863 151.915 -4.39661
8.83983 142.467 0.580501
-0.0281859 134.957 2.53329
19.2187 149.808 -0.572392
-6.57136 143.356 -5.7974
17.3212 148.912 -0.62949
16.6821 152.765 -3.58006
-2.37291 132.919 3.20803
11.4643 146.723 -1.24564
-11.9746 136.247 -2.7309
11.3272 144.496 0.295593
-17.2311 126.328 2.26276
-17.4014 117.45 8.45077
19.4869 152.475 -2.18782
10.3882 152.096 -5.36017
13.4913 151.938 -4.05208
11.3801 146.56 -1.0596
-7.74353 142.797 -5.65272
-12.4151 132.694 -0.310051
0.362119 145.836 -4.69479
-16.3197 116.796 9.43257
-0.647005 134.762 2.76434
-2.30134 133.436 3.10921
4.23992 140.735 0.461435
1.57826 147.576 -5.32621
-16.7528 127.501 1.86081
-19.7975 120.958 5.32436
-11.2387 122.047 7.80346
-15.5654 130.5 0.260616
13.6009 151.957 -3.74407
-2.44105 133.451 3.19886
0.0413806 145.851 -4.57211
3.57124 140.339 0.660719
-14.9526 131.602 -0.208811
-6.5205 127.383 5.97186
-7.94527 125.838 6.54323
1.86612 148.282 -5.48036
-2.55458 133.477 3.27374
10.7433 144.356 0.679803
-3.06746 131.677 4.38841
-8.81332 141.655 -4.78972
-15.8449 130.428 0.476047
-17.7587 116.981 9.22072
-17.8864 116.285 9.66992
10.9327 144.671 0.728459
-11.3005 134.651 -0.6045
18.4435 150.223 -0.267659
-19.3858 120.57 6.31588
-0.0274769 137.115 2.01371
-11.6717 122.242 8.08408
10.4897 147.273 -1.12463
-2.64391 133.031 3.94271
-5.43726 129.545 5.39329
-4.2807 144.47 -4.65775
10.1299 147.049 -1.00603
-5.77629 129.138 5.56942
-2.35198 134.545 3.08057
11.3264 145.704 0.431852
3.94561 141.408 0.679674
14.6909 150.475 -1.58122
-2.47935 134.675 3.06551
-0.628414 137.329 1.91361
-8.72198 123.848 8.33109
13.571 150.133 -1.69391
-9.96994 123.804 7.9638
-2.31525 135.84 2.45578
-3.21162 144.949 -4.25357
-1.72802 136.739 2.12158
2.41936 149.965 -5.57827
8.97315 144.431 0.802926
2.15666 149.737 -5.4941
10.5619 145.201 0.886863
-18.2452 124.348 4.66657
-5.29338 130.303 5.46318
-19.3859 123.121 5.20093
-5.15087 145.104 -4.86485
-16.3484 131.365 0.753885
-0.106945 138.569 1.84641
8.63432 144.784 0.789444
-17.1767 118.32 9.62984
-18.0083 116.348 10.7129
7.40127 144.267 0.716796
8.83514 144.954 0.828766
15.9015 153.404 -2.40872
-20.1202 122.016 6.02636
-16.8625 128.95 2.38409
16.566 152.091 -1.20873
1.10241 139.988 1.47068
12.0676 150.143 -1.45708
7.06647 144.47 0.662504
-5.51667 130.427 5.81529
-19.7232 122.698 5.87316
-3.93723 145.561 -4.22595
-19.2303 121.14 7.17284
7.97746 145.595 0.378519
-15.2944 132.482 0.788548
17.8726 153.155 -1.16519
0.738043 140.092 1.59893
-13.8445 133.408 0.842438
-1.13288 139.203 1.60217
-1.24713 139.175 1.59263
-6.45923 145.998 -5.13024
-14.2548 120.42 9.90732
-9.75376 124.505 8.74398
-2.22699 138.666 1.63809
-14.3408 120.371 9.95229
-12.8785 123.332 8.53238
15.9688 154.007 -2.06042
-10.93 136.611 0.0061112
-3.23578 136.873 2.73865
-8.53537 127.393 7.41687
2.56631 151.548 -5.32305
-2.28673 146.664 -3.7204
-3.80483 133.987 4.6234
-12.7891 124.397 8.00401
-0.105978 139.97 1.87898
4.72064 143.635 1.21517
0.157258 140.415 1.75697
5.56739 144.974 0.602941
7.18769 153.005 -4.41078
-12.8321 124.836 7.88925
-11.5744 125.007 8.29938
6.41603 152.856 -4.4721
-13.6103 121.65 9.90193
-15.677 119.524 10.6968
-14.2814 120.915 10.2726
9.5024 149.662 -0.880308
-19.2092 123.74 6.48129
-16.9644 129.113 3.78943
-12.3669 136.21 0.584543
-16.4712 119.509 10.8445
-0.429821 141.021 1.80966
-12.9503 135.697 0.819144
-9.64832 144.142 -3.68123
-10.8021 137.96 0.231885
1.01649 151.468 -4.78173
-10.2148 126.717 8.38998
-1.13668 140.838 1.89849
-19.6313 122.202 8.05456
-1.04381 141.14 1.84934
-11.666 137.042 0.753095
7.40969 153.274 -3.43171
-9.6651 128.528 7.50771
-8.32651 129.942 7.04313
0.320092 143.356 0.976909
-10.6656 126.835 8.4432
-2.60294 148.316 -3.5924
-9.3772 145.385 -4.07489
-9.47554 145.138 -3.91943
-18.4224 120.397 10.1247
-19.0075 122.742 8.31064
7.21498 153.314 -3.21189
-18.7785 122.958 8.37464
-12.0652 126.978 8.15261
-15.2763 121.892 10.6604
-7.04052 131.265 7.19394
1.88292 144.387 1.39472
11.9799 153.852 -1.35142
-7.73488 147.338 -4.23294
-10.3477 143.537 -2.5353
-18.3367 123.824 8.61993
-11.2524 140.599 -0.44796
-5.19988 135.442 5.49013
-16.6005 121.644 10.9221
10.8148 153.472 -1.04797
-1.19924 143.946 1.11806
-17.9744 121.671 10.4417
-1.22695 143.955 1.12876
-16.4274 121.903 10.8946
-14.2271 126.564 8.5376
10.5431 153.504 -1.0175
-12.6361 128.356 7.89324
-17.496 127.951 6.35381
-10.47 130.381 7.32386
5.59791 153.533 -2.83149
-2.15578 150.327 -3.40864
-2.94603 142.724 1.65933
-11.7647 137.839 1.77443
2.51204 152.93 -3.39779
-11.1606 130.141 7.49198
-16.7677 130.515 5.18762
-15.261 133.163 4.0178
-17.0946 122.662 10.7118
-12.3554 137.309 2.2074
-10.4434 144.112 -1.83362
-8.89801 147.507 -3.627
-12.6349 128.888 8.12812
8.61011 153.385 -0.995868
-10.4411 144.677 -1.97154
-17.2098 131.524 4.72935
-17.835 123.07 10.4448
-15.6756 124.022 10.6658
-1.26274 152.275 -3.70847
0.713494 153.024 -3.48396
-8.09255 148.521 -3.60487
-18.0373 124.673 9.42682
0.228397 152.921 -3.50876
-10.4596 144.845 -1.87772
-9.82136 146.758 -2.84106
-16.2791 132.378 4.84248
-2.80949 144.752 1.30104
-9.74749 131.699 7.88199
-6.84451 134.286 7.19324
-2.17484 151.785 -3.32332
-5.35013 150.235 -3.34889
-5.50326 138.949 4.61322
-10.6103 143.503 -0.508309
-11.7948 139.158 2.1576
-10.7605 140.969 1.28377
-2.9336 145.237 1.26177
-4.83407 142.171 2.71594
-7.81202 149.195 -3.3516
9.23042 153.964 -0.23554
-5.98935 137.226 5.79198
-15.5594 126.555 9.69617
-9.8834 131.957 8.12049
-7.40833 149.659 -3.3574
-5.97939 136.836 6.23607
-10.9704 131.475 8.12783
-5.41292 140.172 4.12136
-15.1705 134.532 4.52105
-8.29771 149.004 -3.04341
-10.9691 131.605 8.2023
-11.8645 139.688 2.22188
-15.684 126.956 9.76402
-15.2789 134.483 4.63278
-6.5619 150.406 -3.26261
-3.05161 146.097 1.17761
-12.2145 130.785 8.49805
-18.0956 126.405 9.35622
-16.5564 125.603 10.5112
-10.1187 147.148 -2.08685
-10.6331 141.699 1.55992
3.43219 154.353 -1.95279
-9.72072 132.452 8.49237
-8.8717 148.816 -2.65031
-17.2596 125.844 10.3593
2.94706 154.281 -1.92496
4.62733 154.891 -1.68331
-6.27696 138.023 6.07788
-16.1408 133.005 5.87569
9.59325 154.51 0.526147
-4.25558 145.358 1.74634
-10.5221 143.458 0.712418
-15.2668 134.648 5.15536
-17.0049 129.696 8.00376
-17.8631 127.772 9.0454
-10.1744 147.469 -1.89443
-9.71503 148.284 -2.26867
-12.544 131.005 8.83611
8.60262 153.783 0.97918
-10.4442 144.387 0.373822
-10.4436 144.525 0.28128
7.02022 154.62 -0.153572
-16.5807 131.971 6.8366
-7.01189 136.324 7.44527
-16.0397 133.25 6.19205
-6.4555 139.474 5.49784
-15.0081 135.822 4.87314
-11.6137 141.43 2.37449
-6.61407 137.023 7.38117
-9.83709 148.605 -1.90871
7.13717 154.788 0.356082
-6.55608 137.913 7.05455
-5.43955 152.215 -2.4751
6.53816 155.167 0.0792126
-16.6694 130.1 8.97269
-7.51912 136.932 7.87969
