ply
format ascii 1.0
comment Created by Open3D
element vertex 1836
property double x
property double y
property double z
end_header
-18.8826 124.114 10.2419
-12.7078 125.029 -5.32362
4.93232 107.839 -4.15996
-9.64389 121.847 -4.60873
-19.8723 125.976 8.24782
15.1837 95.0741 3.00928
21.3794 83.9292 15.2002
-6.90438 111.964 12.4148
-7.76918 113 11.9634
-10.8749 116.895 9.80658
-13.9145 126.008 -4.50975
-13.6742 125.361 -3.52057
17.414 92.6312 4.07122
-1.52967 113.768 -3.21631
-13.6536 120.689 7.35786
-13.4745 125.352 -3.78129
-15.5767 121.204 10.3977
-13.8723 125.558 -3.2135
-15.4623 125.382 0.716316
-18.1818 128.273 0.0739081
10.972 98.0622 6.20656
-8.53656 121.205 -4.53473
-14.1986 120.366 9.7818
-5.02456 110.76 11.9475
-8.51232 121.222 -4.52737
-20.3377 126.452 9.24918
-15.225 123.321 5.30501
21.9818 86.7282 8.46224
23.5908 84.3403 10.6068
18.1545 87.4535 15.3714
10.3228 98.6348 6.7115
-13.4038 120.099 9.05135
4.09414 102.883 10.5761
-14.901 125.443 0.12373
-14.3535 122.853 4.95412
-2.23892 108.402 11.8711
24.6101 83.0536 11.7121
17.0487 89.5468 13.2811
8.97503 103.914 -2.0436
23.2562 85.1184 10.1037
9.55694 99.3808 7.17636
3.76529 109.661 -3.85854
9.22818 103.637 -1.89928
-14.0095 121.014 8.89334
0.260912 113.226 -4.17022
-11.0494 117.889 9.97194
17.7936 93.1572 4.0215
13.4783 95.051 9.08892
25.0737 82.7981 12.092
12.5169 100.391 -1.04601
-15.8942 127.357 -0.981872
-13.476 126.277 -3.54062
21.1693 88.8893 7.02414
-17.8388 127.982 2.19183
2.69769 111.156 -3.80979
-16.9959 128.441 -0.553004
4.6621 109.363 -3.84639
20.0387 90.7425 5.50286
-13.0284 126.775 -5.25115
14.4675 95.5591 6.68962
6.45838 101.289 11.028
13.9657 99.0408 -0.101165
7.3576 106.596 -3.06672
17.5606 93.9672 3.7847
-17.8012 128.353 1.76376
-13.8932 124.993 0.976708
-8.53517 115.567 11.2041
-14.7539 126.092 0.560779
-19.7742 127.764 7.81105
-8.08681 121.969 -4.34473
-14.8858 126.909 -0.882196
-16.7981 128.62 -0.406036
-14.7538 123.308 7.41471
-13.8798 125.44 0.697265
-14.0496 121.976 9.07418
0.284264 107.597 10.9278
-13.5561 126.616 -2.66553
13.605 97.1746 5.93856
-0.83385 114.919 -3.37767
-2.38381 115.952 -2.35008
-5.93357 120.221 -4.43885
16.3863 91.9576 12.0126
24.4412 83.0244 15.058
-14.7367 123.716 6.81419
-16.57 128.604 -0.415099
-13.9547 126.144 -0.447755
-13.5544 122.255 7.84172
-19.1844 128.747 5.19484
15.7961 96.7411 2.60795
-8.04385 122.336 -4.29115
21.7098 85.2194 16.3514
25.2914 82.2777 15.4195
23.3442 83.966 15.824
12.1192 96.5885 11.2449
-14.281 126.302 0.459694
15.9935 92.9409 11.2662
-2.29578 110.06 11.8308
-12.3567 126.772 -4.69891
14.64 96.0702 7.16626
-14.0545 126.245 0.37196
7.10019 101.632 10.9205
13.8188 95.964 9.33886
24.8607 84.8472 10.9408
13.4675 96.2457 9.63511
16.3917 92.5056 11.8789
-13.309 125.4 0.916331
-3.79648 111.742 11.7246
-14.654 123.401 8.56092
-14.6425 123.444 8.44249
26.1902 82.2294 14.4924
21.0381 90.7161 6.19177
-2.6949 116.865 -2.26276
21.1485 90.5719 6.29412
-3.09543 117.319 -2.37301
7.60866 101.64 10.4456
14.565 94.1258 12.5949
-8.09492 122.982 -4.30989
17.3381 91.2649 13.2747
19.2918 87.8812 16.818
18.2015 90.1069 14.0824
-14.7004 122.815 10.555
16.4093 92.7991 11.8235
-8.79586 116.973 11.1978
9.87839 104.593 -1.03429
-7.78614 115.732 11.9258
17.5819 90.9699 13.6282
18.6753 88.5512 16.8402
25.6991 82.9713 14.4006
-14.0142 126.345 1.1446
-19.2399 129.193 6.02046
12.2889 96.9863 11.5767
-4.70644 119.627 -3.48479
-18.4313 130.659 1.07797
25.5202 84.4714 11.5894
-14.9839 128.194 -0.715758
-12.2102 128.078 -6.46352
9.97681 104.673 -0.957733
25.4242 82.6899 15.9998
20.7176 91.7224 5.62241
3.7709 111.83 -3.65544
7.1572 102.453 10.6252
1.79671 107.601 10.7767
-13.034 122.168 9.58373
27.1472 81.4606 15.7044
-12.1131 121.818 8.58809
5.30351 110.467 -3.18343
26.238 82.808 14.9509
-3.06789 111.986 11.728
21.611 90.9927 6.26689
-13.9292 124.077 7.62614
-14.1124 127.148 1.00279
17.015 92.6834 12.5151
27.3665 81.3054 16.1539
27.6671 81.95 14.0384
-19.2673 129.634 6.61222
28.0433 80.6188 16.2985
10.6111 101.543 6.24672
-15.6894 129.164 0.0502084
10.8096 101.449 6.10194
10.3278 101.663 6.66154
-18.5118 127.394 10.344
5.22372 105.05 10.0561
-6.96311 115.69 12.2288
10.7734 101.545 6.12629
15.5459 94.3377 12.4004
2.86346 113.376 -3.74837
23.354 88.8003 8.18179
-13.7461 124.185 7.70271
12.2844 103.025 -0.293769
8.91241 102.145 9.1807
-19.2422 129.863 6.80514
-12.8366 122.442 9.9621
-13.2804 123.484 8.62578
7.17941 108.642 -1.7028
24.5869 87.3679 9.42133
-1.37147 111.199 11.2894
-13.6197 123.645 9.45091
-17.6614 131.341 0.572706
6.68193 109.338 -1.8397
28.3426 81.4855 15.0871
-8.10583 124.772 -5.0784
-4.31529 120.505 -3.30078
-13.5349 128.035 -0.506578
16.1204 94.3839 12.3714
17.2936 97.5558 2.52648
-13.1761 128.434 -2.117
-11.4742 121.968 9.1305
14.9727 97.3618 8.13547
28.0901 81.3607 16.4423
-19.4501 130.177 7.74222
-13.57 127.781 0.540954
10.6882 102.268 6.45956
-7.98382 124.98 -5.11787
9.0785 106.956 -0.794653
-4.17677 114.331 11.3308
-15.0957 129.547 0.0965807
-5.11676 115.017 11.8509
23.6841 85.5051 17.019
5.18025 106.118 9.90684
-13.1687 124.125 8.51823
-14.3775 124.758 9.74355
14.262 97.8289 9.32963
6.73934 109.647 -1.43076
12.7924 97.8366 12.5931
-0.930158 111.492 11.1328
13.7594 98.181 9.76228
-16.4104 130.887 0.268842
28.3347 82.1804 14.9971
-13.1378 124.06 9.04174
23.6288 89.8105 7.76261
-13.0094 123.851 9.38734
19.3326 90.0051 16.8156
12.988 100.599 6.32677
17.491 93.331 13.2722
14.3771 98.0373 9.28308
28.3021 82.315 15.1348
11.0597 105.41 -0.288254
5.15926 111.823 -2.17632
2.28902 115.179 -3.6018
-15.8697 130.878 -0.104931
-6.93361 124.368 -4.58621
-3.64758 114.391 11.257
-10.3425 128.616 -6.87123
-7.57645 125.21 -5.0507
14.0484 99.957 5.98615
-18.4409 132.507 1.9834
-1.12604 117.978 -2.31276
27.8946 82.1598 16.911
5.53537 106.399 9.90585
8.30839 108.458 -0.7306
16.2219 94.9845 13.0588
-6.70627 124.406 -4.58552
26.3957 86.0643 11.5224
-6.68459 124.488 -4.60805
-17.1784 132.349 0.224908
17.5415 93.6132 13.7401
-11.3732 129.154 -5.0043
-18.4808 131.148 6.02435
25.7395 87.3163 10.5629
27.2986 84.9802 12.5726
10.0661 103.121 8.43026
11.4616 102.843 6.05776
-16.0381 131.717 -0.319915
19.0833 91.9632 14.7452
15.5566 98.4531 7.49702
22.8349 92.1773 6.21069
13.344 97.8939 13.7961
2.4687 109.629 10.5522
-4.95293 122.989 -3.96122
-6.81138 125.13 -4.79949
21.7488 88.3319 17.805
-1.77674 113.454 11.289
4.93989 112.764 -1.7707
28.483 83.5985 14.1197
23.0631 92.0793 6.44079
17.5534 94.0039 14.2815
14.608 97.0281 13.7733
-14.0231 130.032 0.261449
23.4648 87.1062 17.4086
-10.538 122.792 9.48034
-11.5234 129.364 -3.48918
3.66036 114.655 -2.71682
-18.8753 131.487 7.73522
4.26727 113.885 -2.1814
14.9506 99.0383 8.76142
-13.4821 125.169 10.632
6.44347 111.354 -1.02891
28.4165 83.8779 14.3999
16.4879 101.337 0.20747
-17.0279 132.951 0.521014
11.6394 105.995 0.0722322
8.90803 108.797 -0.414693
-13.703 125.37 10.8467
25.2796 89.044 9.5493
-14.8811 131.489 -0.461475
11.3899 106.392 0.0489658
0.0942949 118.301 -2.66292
21.8901 94.4085 4.84771
26.9758 84.3705 17.0834
-15.9443 128.643 8.76109
-11.6486 124.662 8.60579
-13.7738 126.051 10.0864
-10.8678 124.472 7.39367
15.0243 100.555 6.01495
3.06607 115.774 -2.88861
-5.93822 124.82 -4.05488
4.98429 108.227 10.3559
20.1424 90.6457 17.8933
13.1529 99.6104 12.5221
-1.18083 113.867 11.0171
1.14393 111.818 10.7028
24.2034 91.2074 7.86754
-7.73095 120.02 11.1935
2.30781 116.795 -3.27598
28.2917 84.9937 13.402
-0.667227 113.49 10.9584
26.3295 87.9656 10.9554
-13.1154 130.091 -0.0124825
13.962 104.463 0.0135352
19.2862 98.3465 2.50861
26.6469 87.552 11.3404
-11.1702 130.151 -4.25576
8.01727 110.325 -0.43366
-13.1013 125.525 10.7069
-14.9272 131.925 -0.0232079
13.2423 99.769 12.7034
-11.3426 124.804 8.72707
-2.73232 121.153 -1.64614
9.62477 108.82 -0.140829
-5.06198 117.575 11.8751
5.0804 113.763 -1.39389
-2.79322 115.837 11.0362
14.6577 100.015 9.54063
-11.1774 124.835 8.7929
10.5547 104.329 8.6464
-2.96413 121.62 -1.64519
-4.0589 117.157 11.0953
25.4902 89.7725 9.73049
-9.18697 122.301 10.5382
-13.2707 130.416 0.802956
-14.4369 127.838 9.36486
-3.46624 122.523 -2.26764
27.6503 84.7789 16.9759
11.8596 104.204 6.81803
28.3391 85.8341 13.2278
-18.882 131.923 10.1631
-12.041 130.711 -1.97943
21.9518 95.7278 4.501
14.1414 102.463 6.15753
-7.87901 128.125 -4.85148
15.0546 101.636 6.13691
25.4922 90.222 9.66069
14.1459 105.084 0.190996
10.5188 104.716 8.9694
-14.6591 128.615 8.89567
26.2233 86.3075 17.2129
15.1564 100.509 8.67644
17.9707 101.473 0.358197
14.3053 100.733 10.3436
-8.41949 129.31 -5.88158
16.7699 96.307 15.2011
-9.09071 123.738 8.50179
-6.29097 126.405 -3.74677
19.2968 99.7859 1.74427
-1.09551 115.109 10.9595
26.7404 88.6563 11.2004
-4.42888 124.309 -2.91975
-16.438 134.076 0.792805
15.448 97.5994 15.264
12.0004 104.631 6.73537
15.5936 97.5183 15.3227
15.4115 97.7627 15.2986
-18.3935 133.182 7.52143
-13.3091 131.046 1.37096
8.21591 107 9.96239
24.6188 88.154 17.6034
6.6287 113.073 -0.493033
-18.7366 134.077 6.62196
-13.2656 127.141 10.6864
15.9862 104.153 -0.189613
-3.19016 123.134 -1.96318
-16.8237 131.076 9.53586
11.0281 105.252 8.2471
14.5174 101.16 10.2283
24.5363 92.7468 7.8
17.0119 96.4637 15.6929
-10.2191 126.058 7.01242
9.25949 110.626 0.074786
14.5001 103.254 5.8609
-4.46066 124.909 -2.64866
-2.23822 122.224 -1.31045
10.312 109.669 0.256668
24.4305 88.837 17.5154
-15.5638 130.423 9.09519
-18.1131 134.31 5.75896
2.43396 118.579 -2.80661
13.8023 104.351 5.17986
3.43543 111.895 10.5484
4.11143 111.385 10.5767
-3.26714 123.857 -2.05879
7.6058 108.216 10.2898
-10.5667 131.481 -3.64728
23.7664 89.8209 17.5191
28.0224 88.0034 12.4194
3.76464 117.165 -1.77425
26.8056 89.7714 11.0762
-0.548042 115.719 11.0267
20.1843 100.127 1.75031
-17.1713 134.529 4.02813
-1.41639 121.88 -1.20767
-2.45323 117.487 11.208
-9.30051 125.857 6.95773
24.9821 92.7771 8.46708
13.1846 105.443 5.05777
-12.3249 127.274 10.5673
16.7235 97.4824 15.8375
-14.5629 133.561 1.0203
-16.9732 131.985 9.93738
19.1171 94.6694 17.2412
28.3016 88.0349 12.6763
-17.5756 132.569 10.2191
-9.97192 126.587 7.40953
16.1134 101.766 7.7723
3.53278 112.467 10.7046
28.2169 87.6923 14.016
-5.6482 120.515 12.3041
-11.1598 127.246 8.97067
22.0565 91.6646 18.467
-9.78979 126.885 6.82644
24.9221 93.3355 8.38216
-6.71092 122.369 10.6974
26.6159 88.0848 17.0506
-10.8142 127.124 8.88905
-9.45222 132.053 -5.43975
21.4197 99.2215 2.83752
23.5405 96.0064 5.64378
-13.4769 133.324 0.499754
14.7189 101.996 11.2771
-11.5672 127.231 10.5207
-5.27319 127.214 -3.14452
3.98083 117.798 -1.63811
19.5432 102.124 0.570863
14.134 105.27 5.13519
3.47034 118.598 -2.11906
12.9261 108.477 0.591071
2.20443 119.9 -2.26782
12.1672 109.251 0.649276
27.1873 88.2095 16.3707
15.2261 104.314 5.42228
-14.8964 134.833 0.876474
15.2488 100.524 14.1525
-3.34276 125.018 -1.70721
21.8666 92.3558 18.5493
16.6451 102.553 6.47022
1.48996 114.852 11.2187
8.48792 112.946 0.355456
8.42058 113.019 0.349339
16.3963 105.512 0.310108
28.1834 88.8218 13.2253
-2.94931 124.682 -1.41585
16.2558 105.732 0.332173
-10.8307 127.775 8.92124
7.45658 109.812 10.5454
-9.85479 132.696 -4.21763
-6.25652 122.89 10.594
-5.47112 128.267 -3.51127
-8.94602 132.698 -6.11268
27.1813 88.9069 16.1269
-7.99958 131.988 -6.30309
-8.53679 132.684 -6.72948
-1.43678 123.55 -1.15469
-13.4145 134.715 -0.713429
2.04654 120.818 -2.24801
-10.6262 133.201 -3.08631
-8.89646 132.882 -6.12374
12.7524 109.503 0.644059
-6.96092 130.715 -5.17772
28.0337 88.9424 14.7848
-5.89978 122.624 11.5079
-13.3454 135.19 -1.17167
-14.1379 135.081 0.892494
5.02053 117.758 -0.866714
3.19467 120.033 -2.09041
-11.7467 129.029 9.84873
2.7566 120.507 -2.14161
5.26892 117.681 -0.793047
18.5282 104.878 -0.226327
11.4903 108.718 6.41059
22.1136 93.4286 18.5054
26.2412 93.0965 10.2589
2.70144 120.784 -2.1369
-14.2445 132.015 9.04886
21.0745 101.857 1.51699
-12.9177 135.501 -1.7248
-8.52015 127.517 7.09214
-3.99478 121.284 11.599
-5.45161 129.334 -3.61891
7.62513 115.2 0.433876
-12.8767 135.306 -1.09657
22.3257 93.4737 18.4733
-6.29647 124.285 10.0357
19.195 97.2934 16.6018
20.1053 96.1768 17.2209
14.3908 108.858 0.580726
-17.0427 136.352 5.99851
-13.8483 135.577 0.823805
11.0516 112.154 0.5613
-11.7474 134.75 -1.72893
27.3731 92.2151 11.0366
-15.6993 133.345 10.3739
16.5905 107.238 0.183312
-4.14586 128.017 -2.41476
-13.0397 135.074 0.818241
10.7726 109.563 7.67369
11.3984 109.689 6.1473
16.4753 100.886 15.3781
-7.54522 132.906 -5.94246
7.48726 115.918 0.457157
-12.5326 135.598 -1.10903
23.4926 98.8414 4.95818
-10.5883 129.64 8.60803
15.859 106.157 5.29496
-3.58111 122.051 11.3456
17.586 106.97 -0.0564783
-10.4299 129.891 8.35045
-11.5064 135.478 -2.11578
14.6767 109.728 0.156984
14.1973 110.113 0.340062
-8.34314 128.017 8.32999
3.53953 121.049 -1.55196
27.8779 91.0705 14.42
15.871 103.595 11.8822
17.4462 107.279 -0.0126261
12.3808 109.916 5.09725
2.1455 116.831 11.6208
25.8626 95.2722 9.61431
-2.80791 121.867 10.9527
-15.2202 133.876 10.4401
26.5758 91.6541 16.5279
25.0019 96.6091 8.61
18.3899 106.817 -0.38915
-17.0219 136.002 9.71377
-16.8069 137.431 6.01337
-4.71772 129.815 -2.82262
5.5233 119.092 -0.436618
-15.9489 137.833 3.37387
-9.00251 135.109 -5.48602
27.1889 93.824 10.6946
-16.7997 135.992 9.86025
10.4724 111.178 7.52152
-13.0705 132.673 9.43522
14.7804 108.258 4.94986
3.61897 116.002 11.5107
15.2795 107.83 5.02167
8.15329 116.543 0.600525
15.5671 103.751 13.9621
-16.2833 135.485 10.3996
-6.75427 127.628 7.77065
23.0479 94.8522 18.2536
25.7039 92.9599 16.829
1.86697 118.035 11.4413
-13.0222 136.711 0.913409
2.97803 122.705 -1.71726
23.8778 99.6573 5.7991
22.7251 101.705 3.6798
-12.6579 137.798 -2.21816
-8.04911 128.788 8.59891
-1.33011 121.564 10.6265
16.2468 104.132 12.5171
25.4819 93.4603 16.9891
6.79269 113.831 11.0971
24.8695 97.9572 8.37255
22.8453 95.563 18.3393
20.5823 105.553 0.255351
27.9111 93.3687 12.393
-9.78318 136.416 -4.46948
21.8833 96.7393 17.9679
12.7728 113.042 0.284002
21.8953 103.662 2.01505
-4.54668 125.359 9.74962
19.531 107.119 -0.759944
-8.72722 135.862 -5.28237
-0.983815 126.504 -0.604384
-15.6786 135.598 10.6273
-9.97452 130.982 8.96525
-4.58576 130.91 -2.60797
2.02036 124.056 -1.1769
5.75624 120.078 -0.12662
2.98166 117.758 11.2873
-5.62573 132.459 -3.7012
17.746 101.887 15.7825
1.1868 119.48 11.3947
22.8632 102.227 3.86741
17.1854 102.796 14.9958
17.0237 104.581 11.4433
-14.0608 138.228 1.83915
23.6532 95.7062 17.6709
7.93744 113.602 10.8525
23.4748 95.8846 17.8009
17.3043 102.997 15.0089
8.72896 113.153 10.3414
23.4563 96.0098 17.8312
1.87996 119.383 11.2247
23.772 95.894 17.6089
12.5047 114.303 -0.126556
-0.067731 126.403 -0.552789
11.8575 114.905 -0.0185575
9.61252 113.339 8.56816
-15.0569 139.26 2.70533
6.79823 119.586 0.343005
16.9402 110.746 -1.41402
-8.04863 136.207 -5.52158
13.3001 113.767 -0.350264
-14.3431 135.109 11.0569
22.3914 103.868 2.88433
9.12797 117.593 0.226845
17.8746 110.066 -1.49876
12.5552 112.295 5.04921
17.0382 105.048 12.0775
13.9313 113.517 -0.664348
14.0719 110.963 4.96533
7.77421 114.349 10.9253
10.5678 116.701 -0.522307
-16.2659 139.714 5.02543
9.54682 117.465 0.0149388
18.1419 110.015 -1.55521
-12.2351 137.942 0.515033
-16.491 138.593 8.33368
-6.9776 135.917 -6.22501
-9.54976 137.662 -4.61601
24.1828 100.748 7.12977
17.6363 106.823 7.48232
14.5079 110.916 4.93335
27.7713 94.9557 12.8184
10.0851 117.456 -0.426061
10.8861 113.829 6.23329
23.8328 101.507 6.43201
-8.45188 131.075 8.81734
17.1531 111.29 -1.47726
-5.80349 134.765 -5.17309
27.7654 95.3951 12.2956
1.122 121.204 11.0238
16.7604 105.446 13.2466
20.8331 107.292 0.173361
8.26617 114.662 10.6782
20.3531 100.361 17.2569
-14.8423 139.976 2.90131
-12.8404 134.721 10.66
17.773 105.783 10.6164
2.83915 125.03 -1.12952
-15.6834 137.805 9.90493
-1.95681 129.514 -0.929118
15.8095 113.143 -1.97711
17.9958 106.339 8.97033
12.565 116.262 -1.74706
10.425 114.446 7.37594
-7.7528 137.26 -5.5037
26.3456 98.5078 9.51624
8.96233 114.886 9.76783
-1.45551 124.159 11.2271
16.6799 105.823 13.9004
-1.93676 124.869 10.7331
14.9627 111.387 4.92026
-16.1483 140.311 6.20878
7.41724 115.982 10.968
25.9112 96.1694 16.3324
-11.5317 139.706 -2.24817
-7.42199 131.01 8.84122
0.733598 127.314 -0.343617
0.235683 127.827 -0.403024
18.06 106.284 10.416
-12.6768 139.266 1.6923
-10.9141 133.88 10.2847
7.1116 116.459 11.1032
17.732 106.16 11.7096
21.4272 107.061 1.62739
22.7267 104.583 4.50601
24.2196 101.921 7.66972
-2.22879 126.495 8.88301
21.106 107.801 1.03293
-13.3369 140.072 2.283
27.6219 96.4506 13.4044
2.40512 121.498 10.7504
4.18262 120.184 10.0519
-13.5153 140.293 2.37481
12.2862 117.711 -1.84288
4.35735 124.596 -0.383569
14.361 112.827 4.9307
-5.88621 130.663 8.04999
-12.1091 140.262 -0.437311
9.54938 115.754 9.09067
-10.9964 134.713 10.2664
18.4088 106.948 10.079
17.2097 106.605 13.5259
22.248 100.137 17.4524
-3.42738 132.882 -1.89887
24.0218 102.897 7.307
-10.5476 134.541 9.93317
19.8399 110.316 -0.505628
-11.998 141.105 -1.92058
26.3042 97.2507 15.6287
-10.3714 134.535 9.80147
17.6893 113.205 -2.28586
13.8977 113.831 4.74679
18.6785 112.06 -1.54809
19.29 111.428 -1.38656
13.3818 117.517 -2.4908
19.4333 103.74 16.1749
-0.330354 124.95 10.4456
5.11605 124.31 0.194476
25.7445 98.0724 15.7483
-2.60295 132.442 -1.47062
-14.487 141.546 3.51132
-15.5706 141.32 6.39948
17.9792 113.344 -2.35892
-6.86325 132.545 7.65579
-3.20093 133.159 -1.69873
23.7212 104.003 6.76947
1.28251 123.564 10.7407
-3.77989 129.915 7.25921
5.52176 120.07 9.68793
-12.6868 136.95 10.5409
19.7399 111.232 -0.889346
19.2763 104.348 16.0362
9.426 116.563 9.439
-15.5861 141.313 7.02758
19.6394 111.456 -1.05686
23.0116 100.434 17.031
-2.46383 132.58 -1.43548
-13.317 137.768 10.3993
-5.7086 137.171 -4.83057
10.7158 116.547 6.85503
-5.1069 136.191 -3.84849
-15.3502 141.872 5.53642
-0.921789 130.988 -0.83873
18.0495 107.373 12.4612
17.8571 109.682 7.57046
5.76073 120.411 9.57828
22.688 106.455 4.86878
-8.97237 134.602 9.23882
-15.0748 140.553 8.85788
-13.5225 141.848 2.6082
16.1258 116.358 -3.3543
-3.8921 135.08 -2.53783
12.0423 116.912 4.74729
23.3337 105.764 5.79679
-4.05888 135.525 -2.86158
21.9781 108.125 3.49103
-4.79619 131.972 7.01218
17.5449 115.068 -2.79401
9.91489 117.291 8.78902
8.83562 122.138 -0.0109769
-3.14482 134.229 -1.70424
20.5815 103.641 17.1059
12.1688 117.015 4.65782
26.7521 98.9003 14.5798
14.4279 114.992 4.42434
13.6473 119.139 -3.39169
14.3641 115.139 4.39964
25.5589 102.839 8.38019
26.5862 99.1546 14.6609
-9.69291 141.541 -3.71751
17.6521 115.165 -2.58161
5.07116 125.882 0.212347
1.2494 124.983 10.6519
0.366668 126.08 10.118
18.4602 109.288 9.46108
21.4368 103.113 17.2342
-12.6298 141.897 2.22071
21.2681 109.9 1.96778
-14.1012 142.561 3.91964
11.8607 117.605 4.86592
-3.65056 131.685 6.27951
8.54944 122.891 0.0538892
-7.80795 140.761 -5.31463
-1.20721 128.531 8.57917
17.8099 111.036 7.44342
18.171 110.277 8.44208
26.0876 102.668 8.73032
-0.606034 127.807 9.18533
18.6336 108.963 10.6142
-5.58728 138.703 -4.92296
20.8005 111.231 0.84126
17.8737 111.074 7.63844
22.1426 108.673 3.96352
-1.15264 132.878 -0.942383
11.1608 121.744 -2.15681
-6.0395 139.348 -5.16817
-1.10745 132.835 -0.916862
22.5061 102.811 16.7389
26.6788 99.8635 14.4899
-4.02969 132.732 5.82834
18.2365 114.77 -1.31696
-10.2358 142.689 -3.47633
27.5571 100.169 12.135
26.4068 100.191 14.6359
-0.856828 132.753 -0.859945
21.6301 109.815 2.96877
17.9733 111.167 7.91594
-12.5616 142.556 2.36187
-11.9606 138.633 10.1584
9.73835 122.882 -0.908318
-2.90195 131.845 6.05859
-0.912067 132.982 -0.868711
16.4764 117.351 -2.75471
9.12263 123.287 -0.361162
9.3899 118.88 9.25821
24.8247 105.235 7.05846
18.7346 106.883 16.6149
18.313 110.322 9.63263
1.77782 130.305 -0.3033
21.2853 110.744 2.20824
-3.79065 136.86 -2.97031
-13.3948 140.428 9.78794
26.4535 100.594 14.6077
-4.74148 134.072 5.57478
21.9385 109.733 3.42079
-13.9572 141.126 9.44103
24.9339 101.429 16.0599
1.99776 125.872 9.80975
26.9286 100.571 13.7277
20.6908 105.136 16.869
-12.7103 142.856 2.89933
-14.6509 142.845 7.20648
-6.70759 135.512 6.8674
18.7786 108.889 12.6188
-6.76926 135.481 7.127
7.63441 120.524 10.1862
13.8812 120.882 -4.21152
19.6437 106.349 16.8209
-5.37258 139.386 -4.68428
18.4422 110.033 10.9948
20.8688 112.035 1.11926
19.1785 114.442 -0.723055
-1.54093 130.322 7.91813
9.59146 123.877 -1.4887
-6.59995 135.044 8.15672
8.18061 124.578 0.0351768
1.6067 127.205 8.48456
17.2261 116.873 -1.77826
-12.7561 143.095 3.24836
7.02823 121.485 9.88332
18.2502 110.975 9.61041
24.1021 107.015 5.99219
-7.12775 135.491 8.62339
1.74487 127.197 8.40404
-0.0583124 129.103 8.04024
27.3529 101.538 11.8394
-8.45197 142.646 -4.628
-11.075 144.082 -2.19423
18.7845 107.782 16.376
9.02817 119.957 9.66443
-2.36611 135.445 -1.09266
22.6854 109.559 3.98085
26.8662 103.049 9.93186
20.5303 106.056 16.9527
17.4058 113.756 6.12116
-11.8099 143.886 0.513276
18.3667 110.057 12.6056
4.4244 125.226 8.12245
19.8945 113.787 0.759992
22.7409 104.219 16.6199
20.6222 106.121 16.9208
-9.58566 143.82 -3.93017
-7.59291 142.411 -4.98726
-9.8432 138.305 9.51699
-2.68147 136.536 -1.80279
19.6551 114.134 1.1873
17.8208 116.8 -0.947947
12.2728 119.65 4.61116
-7.75191 137.135 8.07746
18.1509 112.373 8.66194
-1.52533 132.166 6.03976
13.9141 122.007 -4.20436
18.7384 109.611 13.9397
-7.17579 137.313 6.72493
3.258 130.285 0.149872
13.4885 122.56 -4.38301
-12.999 143.857 4.39194
11.3131 124.489 -4.04247
4.85223 128.788 0.188622
6.75689 127.05 0.260373
-3.44692 138.009 -2.65861
16.4495 115.976 4.75125
19.2046 108.323 16.4604
23.599 104.255 16.2614
18.4409 110.303 13.6574
-10.1077 139.105 9.62675
20.4392 107.266 16.4274
26.1743 102.756 14.347
-8.29169 137.986 8.47183
8.42131 126.458 -1.44199
10.7171 120.977 6.19165
22.4332 111.343 2.8145
-1.94503 136.081 -0.910854
5.91167 124.371 8.992
-6.67797 142.305 -4.80222
21.5875 112.783 1.56722
-1.57686 135.801 -0.816532
-4.94705 136.325 5.41823
4.05831 126.733 7.92355
2.17596 132.002 0.0478059
1.86415 128.992 7.73306
10.8496 125.551 -3.95612
9.68979 121.105 8.92148
-3.83016 139.035 -2.80372
0.509877 133.836 -0.239838
-7.20929 138.253 6.57616
1.20119 130.078 7.05576
23.3895 105.064 16.2798
11.7526 121.073 4.79667
24.8943 107.908 6.50598
18.0694 113.666 8.13608
10.8912 125.889 -4.18493
2.20396 128.92 7.91367
14.7453 118.81 3.97876
-6.54668 137.995 6.26277
16.5236 116.777 4.82557
5.14443 126.024 8.43112
18.9966 115.677 2.17918
21.7413 106.953 16.4058
24.0838 104.971 15.8866
18.9585 109.771 16.2058
-11.8926 145.107 2.12737
17.0624 116.412 5.12817
-3.10257 138.812 -2.27509
14.124 119.946 3.63991
-1.94895 137.314 -1.2433
26.9283 104.024 12.4629
15.3824 118.595 4.14717
11.6554 121.836 4.83209
23.8892 110.481 4.33259
-11.5449 141.88 9.40104
-0.798899 133.083 6.23087
25.3297 104.473 15.1573
-1.73156 137.108 -0.933589
18.2762 111.691 14.1127
-12.1233 142.775 9.04181
18.2309 113.334 10.6504
-3.2391 135.99 5.42732
20.2741 109.063 16.1999
5.49538 130.071 0.0641557
12.4568 125.63 -4.84968
-5.54163 142.446 -4.28172
25.8983 107.161 8.57298
18.8964 117.043 1.14026
-9.61375 140.744 8.78855
-9.21269 140.56 8.37262
-3.36195 139.698 -2.41466
-10.1414 146.368 -2.87591
8.03836 129.218 -2.86329
14.3958 124.151 -4.99542
24.8656 109.229 6.54385
-3.45688 136.804 4.86703
-7.31527 139.767 6.48209
18.1898 114.692 8.59825
13.0633 121.667 3.75798
10.8147 122.985 5.89529
19.9477 115.572 3.11971
11.5618 122.857 4.91457
17.8021 116.238 6.85092
-4.11135 138.061 4.46782
-12.7611 145.001 7.40597
25.0573 109.308 7.10521
-5.74529 139.296 5.25021
0.887507 132.45 6.64563
-8.05476 140.902 6.8325
-7.75729 140.721 6.6265
18.0745 119.312 -0.427846
-11.0997 142.858 9.02153
22.8854 107.753 15.8107
-11.1171 147.24 -0.96343
-3.96385 141.386 -3.08216
16.854 121.472 -2.36428
16.6412 122.325 -3.82101
15.9828 123.14 -4.2129
7.44011 130.665 -2.859
23.0159 107.888 15.7445
6.1674 131.007 -0.67477
19.9689 110.569 16.3083
25.7767 106.057 14.039
24.2813 111.198 5.45638
18.0243 116.247 7.56877
6.73022 131.076 -1.91452
17.7944 116.966 6.68204
-3.98959 141.849 -3.09382
-12.3598 145.314 7.20921
-0.930499 137.879 -0.572755
12.7512 123.019 3.97945
15.3432 124.289 -4.35376
-1.57119 135.994 5.63043
-9.64336 142.157 9.05371
-2.87942 137.643 4.68655
17.4837 120.424 -0.0610342
17.2067 118.397 5.23257
21.4014 115.045 3.85783
23.5522 112.678 4.62127
-2.4334 140.081 -1.73764
-1.30989 138.623 -0.792248
-2.16872 139.786 -1.55105
22.5111 109.049 15.4621
26.744 107.556 9.69118
25.9825 106.612 13.5426
5.48356 128.297 8.3462
14.232 126 -5.34963
16.5771 122.025 -1.27831
12.1554 127.884 -5.11203
15.3603 124.538 -4.36868
25.6907 106.804 13.979
24.0587 112.087 5.51632
-3.52209 141.737 -2.58118
0.457209 134.161 6.25175
13.7845 126.657 -5.5268
-10.962 148.07 -0.835649
-5.702 140.677 4.759
-4.51037 139.861 4.12038
-10.1856 148.071 -2.24901
26.1614 107.071 13.0699
17.4607 118.557 5.63868
10.9018 124.771 5.65435
20.8339 110.837 16.2412
19.9746 111.811 15.9042
-9.1478 142.577 8.58436
26.2619 107.212 12.8443
-1.12367 139.05 -0.734998
-6.46618 141.473 5.35138
10.1688 124.578 8.06426
18.4217 120.181 0.328246
18.6159 114.031 14.2437
6.25669 132.774 -1.95802
18.0249 117.471 7.66174
-4.34227 140.182 4.17736
-8.28524 142.7 7.04926
10.4541 124.927 7.12441
17.6159 121.668 -0.952506
9.45356 130.777 -4.0867
-11.632 147.604 3.34615
-6.76722 146.271 -4.19145
15.6434 124.808 -3.57778
14.8082 126.41 -5.42054
9.60377 130.823 -4.15923
19.9066 118.934 0.895891
10.0346 125.13 8.20734
6.09997 133.303 -1.92201
16.0594 124.054 -2.32562
24.1997 112.979 5.82664
10.0915 130.791 -4.42112
9.78495 131 -4.2287
-3.84174 140.248 4.23017
19.4064 123.687 -8.3516
23.9215 113.442 5.46559
-8.23693 147.873 -3.67486
20.6774 118.224 1.6224
-2.47339 141.583 -1.66948
10.8365 125.706 5.87526
-5.79891 145.79 -4.08061
-4.49815 141.091 4.02479
14.8867 122.852 3.74515
17.7584 118.948 6.47473
20.1026 124.188 -10.7131
17.1027 120.102 5.32975
-8.96047 143.901 7.48721
22.2426 115.402 5.09067
13.1808 128.73 -5.7437
5.75396 134.259 -1.8549
23.3942 110.22 15.0528
-10.9895 146.557 6.50352
13.1253 129.035 -5.73765
14.0351 128.136 -5.63669
15.7099 126.076 -4.5256
-6.95089 147.293 -3.90521
7.3077 133.69 -3.6192
21.2016 121.532 -5.8971
16.1285 121.918 4.3203
18.0404 117.588 10.2027
-11.1857 148.769 2.16922
21.2736 120.983 -4.57577
21.5408 117.699 2.42221
-6.14725 142.915 4.76038
24.9529 109.618 13.7466
-7.84734 144.149 5.88737
18.0028 118.874 7.71864
-10.9045 149.286 0.803341
21.1964 118.447 1.83693
0.723118 138.793 -0.30729
9.47456 126.543 8.84156
-8.09488 144.423 6.0062
8.57374 132.822 -3.6461
18.5004 122.187 -0.788893
21.8693 117.307 3.14941
15.754 122.864 4.07776
6.9315 134.516 -3.50057
21.3538 124.503 -11.7476
21.8061 124.241 -12.0037
-2.54873 140.222 4.36576
21.5542 124.389 -11.7701
10.8419 131.469 -4.69416
10.0677 126.885 7.71793
21.8798 121.752 -6.20219
8.64309 133.324 -3.90334
18.4531 122.782 -1.0039
5.20229 135.735 -1.89123
1.31576 138.769 -0.377635
-8.84931 149.313 -2.44091
-10.0522 146.703 6.22316
-2.09082 142.529 -1.47212
-4.2548 142.313 3.76969
17.4246 120.931 5.72486
17.8642 119.913 7.152
10.1718 127.03 7.59936
3.78305 136.725 -0.794723
22.5152 116.145 5.78999
-1.35596 139.144 4.90156
-2.05532 142.602 -1.45812
25.9662 110.245 12.0574
18.7406 122.667 -0.746101
17.9861 119.733 7.76137
21.7161 118.71 2.04159
18.19 118.733 9.72352
22.4182 112.715 14.5341
-10.3083 147.524 5.79053
22.2874 112.856 14.5744
11.9834 127.184 4.07701
-3.94858 142.4 3.82428
21.8767 121.304 -3.91744
21.4305 124.179 -9.55779
18.5326 123.451 -1.4221
17.442 124.941 -2.43406
13.6165 129.961 -5.62702
14.3396 129.254 -5.5578
-5.57946 147.345 -3.75826
18.5915 123.441 -1.37904
8.82467 128.273 8.89123
17.9115 120.389 7.31285
-9.6812 147.235 5.6972
16.1877 123.392 4.18765
22.7471 117.511 3.47826
18.6776 126.661 -8.67159
10.1663 127.538 7.90143
21.9168 124.575 -10.8454
23.8993 114.886 7.25199
-10.5342 150.011 1.47926
2.9361 135.24 6.13104
18.2019 119.297 9.67002
18.0241 124.569 -2.05763
-10.3191 149.103 3.33832
25.5134 111.191 12.574
17.1004 125.734 -2.55963
1.42953 137.227 5.20015
20.1487 124.516 -6.32765
17.0447 122.398 5.40349
7.83051 129.665 8.78882
15.967 127.889 -4.73592
18.7387 127.147 -9.01965
22.0508 125.392 -12.1871
0.32929 138.481 5.11357
-1.67059 143.144 -1.26692
22.1801 124.591 -10.4667
18.0417 124.942 -2.18852
22.5919 120.729 -2.38512
4.89477 133.518 6.7953
-9.70925 150.561 -0.540674
16.2031 123.976 4.21627
9.3937 128.544 8.5788
7.3556 136.146 -4.43438
7.31335 136.218 -4.44251
0.863101 138.299 5.00664
18.0631 118.968 12.2083
18.148 119.277 11.3125
-5.29998 147.918 -3.43235
4.01634 138.333 -1.47472
6.01085 132.516 7.61439
10.7918 133.436 -4.89717
-4.30033 146.856 -2.82922
23.4321 117.584 4.21695
19.6584 123.284 -0.60988
25.7279 112.119 11.9293
3.03687 136.313 5.76078
-0.847826 142.892 -0.89919
17.8732 128.093 -7.52284
24.8564 114.687 8.23491
26.1908 113.152 8.90952
16.2679 128.428 -4.48082
12.0911 128.39 4.75747
21.831 126.557 -12.1267
15.1601 126.178 3.34696
23.0662 121.749 -3.68048
11.2371 133.554 -5.05167
0.624057 141.793 -0.829524
24.8693 114.865 8.31142
25.2523 112.702 12.4637
18.566 118.734 13.1959
4.80919 134.641 6.5685
-3.72579 144.082 3.47061
0.852705 141.613 -0.81988
18.2472 120.442 10.1173
5.41666 134.015 6.86649
21.7916 122.951 -3.36392
21.2049 121.711 0.893928
17.7249 127.718 -5.30906
16.4483 128.46 -4.22319
19.5094 125.555 -4.17272
-8.56634 148.43 4.43411
-4.9786 145.489 3.39531
15.3622 126.215 3.47098
18.5044 125.764 -2.30319
9.5607 135.323 -4.78605
20.1567 116.902 14.6661
23.455 121.431 -2.93066
21.6755 123.495 -3.70719
20.7057 124.055 -2.81939
5.1765 138.849 -2.99572
8.90043 136.085 -4.67925
23.3947 121.18 -1.91287
-8.79774 151.18 -0.763192
21.6597 123.73 -3.98966
18.0333 120.176 12.346
14.2667 131.666 -5.81166
18.634 126.028 -2.34812
6.27314 138.487 -4.04221
24.2891 114.011 13.1538
21.5243 127.5 -11.893
3.9499 136.391 6.068
3.58623 140.089 -1.66333
17.9376 126.959 -2.70969
18.0529 120.687 11.5236
25.842 113.582 10.9096
18.1227 122.19 7.9356
4.75405 139.496 -2.66688
18.1761 121.813 8.84703
16.2313 129.157 -3.79071
22.4464 126.934 -12.1944
-8.51123 149.403 3.70467
25.8811 113.947 10.3743
18.077 122.678 7.29101
-9.01512 150.517 2.29392
17.346 127.21 -1.53123
16.2503 129.355 -4.04173
15.8051 129.954 -4.33965
-2.45069 146.048 -1.56446
0.0121605 141.119 4.4262
16.1817 129.341 -3.71426
19.0901 129.203 -9.63351
17.9247 129.645 -7.98267
3.78628 136.993 5.96785
2.03055 141.72 -1.02054
20.7342 128.36 -11.0632
-7.10986 151.047 -2.46842
5.56116 139.598 -3.7271
-9.25367 151.834 0.468273
23.94 118.929 3.84914
18.1428 127.141 -2.3356
12.5273 133.963 -5.60583
14.7628 131.757 -5.37361
23.5531 118.957 4.94528
24.908 125.593 -13.2987
9.54744 131.056 7.6815
25.7699 114.253 11.0053
1.54565 139.981 4.60633
18.138 122.762 8.08789
12.4246 130.091 3.70627
5.29699 139.982 -3.5114
23.0972 127.009 -12.457
25.1012 125.545 -13.4198
-5.50002 147.27 3.38073
15.9843 130.14 -3.94494
23.572 121.725 -1.09668
23.9 121.217 -0.597415
12.7309 134.022 -5.71102
18.5996 120.379 12.9878
24.9235 125.805 -13.3334
9.44171 136.83 -4.93079
10.5606 135.929 -5.19614
15.7686 127.258 3.47438
20.877 124.178 -0.481428
23.2831 115.781 13.6731
2.92746 138.77 5.17171
23.4184 127.086 -12.6234
5.9091 140.01 -4.14475
8.36317 138.113 -5.09812
23.1282 119.365 6.20856
21.6655 123.598 -0.329208
7.46575 133.596 7.66092
16.6459 130.379 -4.88928
19.5522 119.581 13.7208
22.712 127.949 -12.4538
11.0958 136.011 -5.46355
-4.32274 149.343 -2.50407
-6.06801 151.167 -2.79437
17.2646 127.971 -0.266243
16.5486 130.43 -4.28082
-5.90817 148.582 2.92716
24.5487 117.424 8.24832
5.03027 136.642 6.56993
23.4371 122.31 -0.561344
21.2374 124.363 -0.388664
3.85679 138.149 5.81916
23.1847 122.256 0.265862
16.8924 128.725 -0.718613
15.9365 131.04 -3.92669
16.9742 126.217 4.94219
11.1412 136.328 -5.62718
10.7027 131.444 6.61638
18.4867 128.073 -2.56923
17.6414 127.626 0.378703
13.0462 130.912 2.8774
10.1867 131.851 7.00546
21.5486 123.76 0.848915
20.593 118.964 14.0926
-1.83243 146.897 -1.31085
10.684 136.935 -5.63896
-6.63545 149.768 2.62942
23.4782 122.373 0.0343541
24.7654 126.465 -12.1953
23.7054 122.641 -1.04514
23.2417 119.617 6.99125
24.4314 121.417 0.317441
8.07831 139.349 -5.26079
23.9522 121.941 0.359773
23.9785 127.744 -13.0296
2.62936 143.087 -1.70257
4.4365 141.971 -2.95818
24.8516 127.099 -13.2543
10.4637 137.478 -5.69457
18.6496 127.805 -1.17397
18.9844 126.303 1.57301
17.252 130.019 -3.11642
22.4374 123.181 1.33829
5.33935 141.666 -3.92942
25.1237 117.477 8.67463
16.0576 131.073 -2.87079
23.5067 122.409 0.8388
21.7509 124.664 -0.281423
19.1905 121.201 13.3361
24.4967 127.724 -13.2759
2.35154 143.655 -1.63236
21.7043 129.539 -11.3238
24.8855 126.372 -10.9653
18.719 128.208 -1.53902
18.0881 123.861 9.86773
20.0032 130.636 -9.81419
15.3947 129.514 2.8591
6.31021 136.683 6.20923
17.9217 131.89 -8.05678
10.9829 137.651 -6.07667
16.6949 131.073 -3.3796
25.2211 117.125 10.1621
21.4828 129.907 -11.0734
25.4802 117.478 8.87689
18.7316 128.985 -2.67952
12.2776 131.533 5.5608
24.6625 128.017 -13.3382
23.692 122.353 1.8674
17.8345 125.677 7.01971
16.6284 127.888 4.60633
23.5537 122.468 2.14975
17.9306 125.524 7.44983
23.1268 122.783 2.4542
19.9949 127.17 -0.762329
-5.84545 152.233 -2.10575
7.81622 135.228 7.26551
23.3835 129.006 -12.3881
-4.80535 151.349 -2.31064
23.7196 120.917 5.61645
23.0196 123.651 1.21055
25.306 125.149 -7.2354
4.31818 139.705 5.09057
25.1279 121.786 1.00429
16.6689 133.157 -6.72513
17.1689 133.069 -7.55782
12.7197 131.986 4.68901
19.5539 121.838 13.2304
10.8137 132.905 6.82708
23.0698 120.892 7.80659
24.2309 128.78 -12.8933
18.7709 129.414 -2.40185
16.7193 133.261 -6.72429
21.9845 125.394 -0.0435674
23.0253 123.733 1.62665
22.1984 130.175 -11.3243
12.0048 132.336 5.98259
24.5536 118.131 11.3523
6.55861 142.021 -4.40341
-3.3898 150.381 -1.92534
13.7928 136.105 -6.53493
7.06937 137.294 5.47913
25.3555 121.818 1.29017
3.32198 141.397 4.30698
24.271 118.315 11.8226
12.6282 132.757 3.97928
12.0859 133.243 4.04467
16.9159 132.681 -5.17481
19.6763 127.911 -0.201844
5.16742 139.246 5.38891
8.16069 136.064 6.23019
3.43019 144.375 -2.59568
11.8392 133.309 4.60173
4.47562 143.791 -3.42053
8.55326 135.589 6.59369
17.8325 124.962 10.903
16.7461 132.842 -4.79878
20.1029 127.659 -0.127023
16.68 128.89 4.66669
23.8036 129.521 -12.3124
23.4106 123.331 3.07161
17.3372 130.859 -0.994186
15.5837 134.205 -4.83635
17.9793 126.605 7.4996
16.1052 133.373 -3.86774
20.8078 125.453 4.14996
7.20177 142.164 -4.64461
-2.50805 150.106 -1.61508
24.5378 122.609 2.72102
11.1412 134.355 5.02446
19.9012 126.625 3.71768
18.4257 130.373 -1.64572
17.0104 128.753 5.18316
16.9059 134.035 -6.63303
-1.08244 148.792 -1.36803
23.1258 130.266 -11.4263
19.8315 122.808 13.0083
19.6487 127.427 2.85808
23.6824 119.681 11.9386
23.3777 122.395 6.3495
20.1921 126.723 3.35022
-6.44444 153.694 -0.612909
19.2223 129.813 -1.60449
25.7917 124.077 -2.72353
21.3131 126.937 0.512443
21.2495 126.351 2.02584
24.4343 119.752 10.3246
24.1719 119.623 11.2832
19.8416 127.252 3.15355
24.3746 119.864 10.4655
23.7181 124.181 1.95303
2.40346 143.637 3.69874
8.70811 137.056 5.16766
17.8954 130.987 -0.854464
16.4155 132.865 -1.93288
8.07196 137.891 4.73846
26.1067 125.476 -6.00703
17.8661 127.49 7.39018
21.7572 126.076 2.16188
25.2035 129.21 -12.459
17.1657 133.977 -5.85165
12.9446 138.123 -6.13948
21.1377 126.847 2.15016
1.85557 144.54 3.47858
24.334 124.096 1.65869
5.64763 140.466 4.74217
22.7605 120.821 12.79
23.5746 120.534 11.7315
24.4314 123.22 3.66847
-2.1317 150.666 -1.51189
25.855 123.516 -0.0131653
23.6524 120.57 11.6025
17.841 127.882 7.5105
21.756 125.916 3.5157
25.7993 125.715 -4.80336
17.9541 126.619 10.3237
23.3192 121.603 10.419
20.5457 132.683 -9.06924
21.7594 131.79 -9.65518
22.3101 125.754 3.1543
16.9576 130.144 4.85807
22.2715 131.531 -9.91499
22.4368 125.785 2.99571
9.68981 141.718 -5.88748
19.5195 129.61 0.58277
22.8297 122.287 10.2625
25.7066 125.53 -3.45134
20.5672 128.422 1.10884
8.43789 138.54 4.3587
23.1596 122.679 8.8179
2.81563 146.917 -2.61976
14.0337 137.625 -5.66606
17.9514 126.635 11.1195
12.3345 139.557 -6.36473
22.5669 125.729 3.17536
19.864 124.17 12.7572
19.1835 133.8 -7.85703
20.731 123.421 12.7293
5.64317 145.052 -4.01221
23.5057 123.206 7.36954
24.8672 130.344 -12.0562
18.0884 127.328 9.72608
26.7344 128.152 -10.9791
15.6918 132.761 2.54074
17.2877 129.986 5.50964
17.2236 135.458 -6.96693
23.7388 124.879 3.22204
20.9341 127.716 2.807
13.8732 138.101 -5.62798
20.6567 127.844 3.22006
20.307 129.559 0.0415491
20.2016 129.545 0.345753
5.02817 145.725 -3.79479
25.5499 128.768 -9.37614
23.4208 125.337 3.19349
24.752 124.828 1.50275
23.292 123.228 8.40552
26.0059 123.207 2.64322
12.6691 135.855 2.65699
16.2848 135.172 -3.63329
16.777 135.024 -4.35637
17.268 135.248 -5.94102
2.79022 147.624 -2.77922
19.4833 131.03 -0.859305
-5.07088 154.405 -1.0853
18.6037 126.419 11.7386
23.8291 131.183 -10.6267
17.3922 130.077 5.98492
23.2693 126.065 2.41473
22.1591 132.197 -9.28543
12.8203 139.642 -6.0055
1.59302 148.735 -2.29688
8.72729 139.332 3.80863
25.2769 124.57 1.81614
19.64 131.459 -1.68594
24.9464 123.952 4.1444
6.95601 140.973 4.30326
25.9288 125.089 -0.431053
-3.94353 154.009 -1.81781
26.532 129.253 -11.2295
5.98535 141.983 4.32861
20.7123 133.503 -8.27604
18.0253 127.938 10.5174
24.3327 124.578 4.50493
7.86126 140.49 3.8182
17.0095 130.2 7.65922
26.9337 128.91 -11.0361
18.0205 128.012 10.711
19.0827 134.942 -7.54985
7.23351 141.195 3.9569
14.5353 134.751 2.87363
16.7602 132.004 4.47473
23.6924 124.408 6.88674
12.7483 136.95 1.90624
5.77173 143.151 2.96155
24.8299 125.149 2.85097
24.2657 124.937 4.74256
17.6679 136.553 -7.60166
9.58508 143.496 -5.95151
3.93545 147.751 -3.41598
23.0994 124.421 8.52635
20.3291 130.822 -0.0730645
21.1084 124.979 11.8129
17.7235 128.819 10.4444
25.8897 124.912 1.63168
17.8741 136.587 -7.66353
24.4651 125.489 3.53948
11.4765 137.751 3.65705
24.2276 125.246 4.84865
20.7381 126.521 9.64885
16.2771 133.562 3.24016
9.90165 143.624 -6.01067
23.9054 126.529 2.85231
24.0812 126.329 3.0168
15.1496 138.134 -4.67925
24.3712 125.906 3.62244
18.4936 136.489 -7.80198
21.6155 125.777 10.0946
15.9798 137.558 -4.64306
24.1984 126.367 3.3827
26.0369 126.402 -0.709199
26.7395 124.957 1.15452
22.7646 128.049 2.70817
7.74295 142.193 2.91357
9.121 144.656 -5.74443
22.2405 125.347 10.246
4.50953 148.126 -3.54495
21.644 133.948 -8.27246
11.0089 139.121 3.03697
11.4733 139.033 2.23811
24.0164 126.818 3.07385
15.1168 135.798 2.0021
16.4191 133.091 5.49131
9.40839 144.626 -5.79093
17.6857 136.113 -4.13242
23.6354 127.738 2.18796
16.798 131.434 8.74187
20.9131 127.844 8.04843
6.82361 146.608 -4.34007
23.4992 126.346 6.20313
27.2494 129.093 -8.28972
16.2796 133.3 6.00762
23.0655 126.391 7.18283
23.5129 127.853 2.85099
16.0103 134.474 4.00767
11.2703 143.234 -5.78295
15.4388 138.789 -4.59048
11.0739 139.962 2.35149
23.2859 128.415 2.38743
17.1706 137.13 -4.1986
16.3906 137.894 -4.03965
7.66177 143.158 2.98881
23.8319 127.7 3.46398
18.3853 137.539 -7.32344
18.926 137.27 -7.71092
18.206 130.217 10.1552
12.1727 139.589 1.76635
23.2632 128.426 3.30246
1.72238 151.4 -2.56145
11.1897 139.771 3.66652
13.9611 141.221 -5.65755
16.3345 138.352 -4.20659
16.7777 132.264 8.89434
26.6043 126.76 0.175743
22.2208 129.714 3.13365
8.39135 142.439 4.09637
14.1852 141.173 -5.54219
11.6452 139.219 4.67305
26.9885 131.278 -10.3531
26.7039 131.057 -9.09125
27.0381 130.569 -8.55899
25.7971 126.309 3.98771
15.9844 138.684 -3.06375
5.30423 149.058 -3.62129
22.1409 129.503 4.71735
11.4686 139.937 4.42477
21.3596 129.317 7.35262
10.6957 140.83 4.12149
23.8292 128.928 3.05849
26.696 127.19 0.991237
9.9524 145.911 -5.52493
21.675 135.961 -8.06994
10.8933 145.203 -5.51679
27.7564 130.424 -8.14077
27.7935 130.581 -8.26158
26.0172 127.046 3.86872
10.1532 146.195 -5.45843
2.90076 151.956 -2.76457
14.7206 138.365 2.78587
27.0299 129.874 -4.50308
12.3517 144.068 -5.09127
16.1841 135.671 6.01833
27.0314 130.209 -5.04292
9.80242 143.093 2.9197
26.6291 129.481 -2.34508
26.2096 127.442 3.52892
18.35 132.443 9.18879
18.1909 139.31 -6.05658
14.792 141.06 -2.61752
27.1598 131.167 -6.75347
16.1703 136.094 5.89278
16.3054 136.807 4.24359
10.768 143.11 1.84625
16.5546 135.304 7.3151
24.8186 134.23 -8.14253
15.7681 141.036 -3.77312
18.8048 132.63 8.98438
16.9837 134.509 8.63118
26.8785 128.691 0.613113
26.5693 129.475 -0.440712
26.4908 130.176 -1.58967
26.8788 128.733 1.02727
12.3878 145.109 -4.84617
16.65 141.084 -4.53743
18.7564 133.591 8.38165
26.6591 129.313 1.10245
10.0603 143.852 3.83565
18.67 134.047 7.95067
19.0614 133.723 7.90161
14.6887 139.941 3.22937
26.4038 134.155 -8.93442
13.7004 141.071 2.88083
26.7343 129.077 2.25491
10.5346 144.745 1.88741
10.5267 144.77 1.88704
10.0393 145.194 1.97704
12.9209 145.258 -4.45581
14.0005 143.253 -2.18739
26.9936 132.744 -6.2899
23.6408 131.846 3.36753
10.0933 145.033 2.7307
15.6245 142.089 -2.51573
23.1697 132.478 3.77018
26.3945 132.474 -3.17995
13.5586 142.011 2.94431
12.1427 146.35 -3.91366
11.7345 144.18 2.13398
9.09174 145.802 4.18586
13.0356 142.81 2.51182
3.52733 153.908 -2.11124
25.3811 131.112 2.8432
25.1439 136.04 -7.90675
25.9813 130.815 2.68331
20.8262 140.009 -7.19906
15.5979 142.644 -1.73239
25.9424 131.399 1.87551
20.0897 140.542 -6.29489
26.2744 133.969 -4.3761
12.4454 144.291 2.31144
13.6668 144.967 -1.83691
7.64745 151.557 -3.84921
6.21951 152.758 -3.04669
24.02 133.282 3.37923
21.1865 135.277 5.09018
27.1277 134.665 -6.43471
11.7408 147.875 -3.22557
18.6396 136.79 7.49044
20.7034 135.573 5.79009
23.5461 138.6 -7.27983
24.3036 133.84 2.26501
27.2956 134.964 -6.78179
13.087 146.44 -2.19874
26.13 133.771 -1.30751
26.8827 135.586 -7.08668
9.41362 147.965 2.53046
19.2393 136.658 7.27558
13.0941 144.286 3.14061
12.4582 147.507 -2.8754
24.5039 134.391 1.23397
17.3101 138.751 6.90262
24.6306 137.795 -6.81573
19.8667 136.818 5.96236
6.13426 153.418 -2.22345
26.0395 134.011 -0.920567
13.8836 143.5 3.91216
13.5969 146.411 -1.87309
11.4147 146.742 2.28708
24.392 138.272 -6.40246
17.1066 143.951 -3.54805
16.6357 140.993 4.70656
9.49533 148.922 2.08463
9.99064 148.611 1.85997
14.0909 143.764 4.12246
23.8297 135.864 1.09018
18.8686 143.15 -4.70323
13.8046 146.681 -1.77059
26.5301 135.71 -4.2671
18.9644 143.17 -4.71251
6.70134 153.667 -1.88374
11.7282 149.513 -3.24661
14.0083 147.045 -1.78351
17.1661 140.884 5.60587
21.0219 138.545 2.89292
19.0383 139.227 5.72186
7.98314 153.082 -1.95814
11.4815 150.314 -3.19476
19.2702 143.59 -4.69932
12.7939 148.993 -2.95644
19.4066 139.157 5.32798
13.5954 148.061 -2.47575
11.8082 150.081 -3.14747
10.4008 149.108 2.22394
16.6682 145.033 -2.04418
21.8077 138.467 1.90117
23.9246 139.646 -5.21401
22.9496 137.797 1.37994
24.2471 137.279 -0.218792
25.4522 136.986 -2.10684
13.954 145.295 4.30055
9.2858 152.388 -1.85356
24.2959 139.485 -4.8757
24.4556 139.37 -4.85456
10.8156 149.177 2.46493
10.9644 149.027 2.50043
20.7826 143.126 -5.21022
18.6093 140.158 6.56344
23.9815 137.88 0.152576
22.6049 141.862 -5.78511
12.2094 147.866 3.08312
21.7676 139.728 1.27962
7.70464 154.035 -0.933657
20.7021 140.373 2.21785
21.8244 142.794 -5.77311
14.2466 145.556 4.4977
20.0745 140.896 2.76824
21.4235 140.163 1.52377
14.6191 145.407 4.66733
20.4449 144.082 -4.86011
11.1815 149.702 2.81376
13.4844 147.027 4.00352
14.8466 148.151 -1.42222
19.2102 145.341 -4.11408
24.5764 138.925 -1.02101
19.9016 141.966 2.31249
18.9911 141.948 4.3756
12.873 150.194 -1.16834
18.5884 142.13 5.03681
18.8414 142.324 4.1015
14.627 148.733 -1.46939
12.3286 148.969 3.29456
17.8243 142.51 6.21648
18.7209 145.892 -3.18028
17.5317 143.28 5.52384
15.8029 145.086 5.3181
19.224 142.926 2.83955
17.756 143.71 4.33373
19.1405 143.038 2.9278
24.2399 141.356 -4.21351
13.1773 150.385 -0.717183
25.2943 140.09 -3.25265
15.9331 145.43 5.1461
12.052 150.161 3.02279
15.4211 146.263 4.85059
13.9206 150.095 -0.701133
19.7139 143.523 2.40539
14.8042 147.613 3.80223
19.2379 144.01 2.61419
17.3131 147.899 -2.0585
20.635 143.034 1.98037
16.4034 148.575 -1.46989
10.5537 153.516 -0.042544
12.3543 152.098 -0.671144
21.2154 142.727 1.66623
16.7627 148.718 -1.91666
9.09093 154.793 1.15247
16.064 146.867 4.29046
16.8415 146.113 4.39919
23.4743 141.894 -0.289864
15.4715 147.836 3.75218
11.6772 153.112 -0.00455427
16.3813 146.97 4.10788
16.6692 146.716 4.18706
22.4531 144.906 -4.24662
19.8675 147.13 -3.46401
12.5257 152.761 -0.298751
22.9055 142.737 0.198726
16.2728 149.879 -1.71603
20.8496 143.973 1.98273
11.4431 153.39 0.983858
16.5719 147.315 3.79899
23.5687 143.129 -1.2555
21.1341 144.141 1.81733
13.1179 152.33 0.588674
13.2401 152.367 0.435934
16.3188 150.394 -1.60497
19.8275 147.997 -3.09934
23.21 144.697 -2.43916
23.4662 144.853 -3.35543
20.4119 147.695 -3.04985
17.7932 147.444 3.36941
21.2852 145.128 1.10878
14.4962 152.212 -0.118284
22.8676 145.41 -2.49109
22.3102 145.433 -1.26802
16.8024 149.064 2.52275
16.1395 151.112 -0.693305
20.6959 145.979 1.26785
22.0625 145.759 -1.04207
18.2936 149.398 -0.933136
19.4155 148.724 -1.71517
21.7901 146.035 -0.588703
20.9602 146.244 0.833369
19.6972 147.34 1.16737
21.478 145.987 0.406473
21.6192 146.212 -0.314887
15.7825 151.85 -0.319349
19.6507 147.984 0.357407
19.1122 148.833 -0.080384
18.6809 148.803 0.949816
19.9674 148.247 -0.473683
17.7421 149.75 1.15433
17.8731 149.573 1.2855
