ply
format ascii 1.0
comment Created by Open3D
element vertex 1944
property double x
property double y
property double z
end_header
-18.1376 112.961 -3.75382
16.9131 142.062 5.253
-4.30492 128.021 -7.2218
-18.913 111.625 -2.97852
-17.8693 110.618 0.693369
11.5733 143.493 -7.76343
-15.2927 111.842 2.96052
-5.0847 127.241 -7.66672
10.6831 137.096 2.56089
19.4384 147.647 -1.45383
18.961 147.392 -1.86573
18.1578 143.184 4.66651
7.03257 130.259 8.77354
-19.2577 110.928 -2.88902
-12.8095 112.793 5.40361
14.8511 139.144 6.11222
-18.6377 111.877 -3.70157
-17.3717 110.339 1.53379
-1.24466 119.118 14.4871
14.9956 139.316 5.92154
-17.6746 113.286 -4.78596
1.59793 132.17 -5.26387
4.76904 135.272 -5.58796
-4.62426 115.67 14.4249
-11.0927 122.36 -10.2846
-18.0729 112.549 -4.47453
-19.2514 110.002 -1.82216
8.02619 131.165 8.10711
-3.68133 116.412 14.5663
3.68915 124.806 12.1573
20.2748 145.349 3.5638
3.05631 123.593 13.2373
8.45682 139.912 -8.06583
-16.2099 115.41 -6.996
-14.7434 109.291 7.29832
-17.1886 113.999 -6.21271
-14.1087 118.916 -9.90234
-10.2617 110.282 13.593
-14.3001 107.781 10.7539
-3.28895 116.333 14.5877
-10.5528 109.8 13.6106
20.8084 147.404 -0.227341
-14.0671 110.946 4.89087
7.70408 138.519 -7.53327
-15.4301 108.284 7.4045
-11.8602 121.022 -10.4311
-16.4492 114.641 -6.75597
-14.6726 109.184 6.88051
-16.8982 109.632 1.88033
-19.2556 110.101 -3.45395
13.591 143.957 -7.46199
-15.3057 110.179 3.60208
-5.23656 114.18 14.5364
-2.9829 116.31 14.6242
1.10032 120.615 13.9504
-17.5369 109.345 0.952551
-18.5814 109.073 -0.474006
8.62544 132.356 5.16406
-5.40573 125.5 -7.69661
10.5071 141.459 -8.83072
-10.701 121.387 -9.83983
6.02999 127.256 9.68858
-16.6076 107.354 5.85299
-18.4619 108.772 -0.312603
-3.53504 127.355 -8.21124
-16.6025 106.787 6.86251
-15.2647 106.898 9.09566
13.1907 137.706 2.80553
5.23699 134.417 -5.64391
-16.8833 113.383 -6.37748
14.1584 136.832 6.16953
7.28502 137.143 -7.13026
15.5451 144.239 -5.47392
0.451348 130.155 -6.60727
13.2159 137.445 3.03107
2.35223 131.438 -5.61043
4.29537 124.353 11.4668
-13.5486 107.042 11.5172
14.1718 136.525 6.3612
-5.17894 125.224 -7.82884
13.8189 136.498 5.62497
9.55937 139.887 -8.69099
14.9253 137.085 6.47798
-13.9297 117.715 -9.84239
9.65168 139.901 -8.78512
-10.0819 121.185 -9.52072
2.26717 131.089 -5.62227
-1.54967 128.738 -8.1884
20.8485 144.043 3.91402
13.1782 137.037 3.03026
8.29508 137.906 -7.67931
13.4849 136.288 4.94986
10.6547 134.687 2.74878
18.961 141.619 4.81294
13.4473 136.285 4.76104
21.3697 144.82 3.10317
13.4608 136.153 4.91071
0.892223 119.112 14.1963
10.4063 133.785 3.77565
-19.0307 108.005 -1.39364
15.0379 143.681 -6.60069
-17.2714 112.158 -6.1242
-15.0939 108.698 4.27154
8.59517 130.821 5.78348
17.7276 144.654 -3.96331
13.7079 135.638 5.65346
8.00825 129.213 7.37135
20.3726 142.81 4.23407
-16.9892 105.56 6.26923
-16.2035 107.999 3.03038
-19.0324 109.241 -4.69884
6.82425 135.165 -6.44859
-2.48992 127.255 -8.59827
-17.4687 106.357 3.56682
-16.273 113.462 -7.83037
-17.2272 105.489 5.5522
8.33094 129.857 6.17549
9.13204 138.07 -8.03024
-15.5627 114.651 -8.95112
13.1756 142.096 -8.28211
13.0671 136.08 2.95768
-11.8563 106.945 12.4189
7.72902 136.048 -6.92627
-17.4286 105.429 5.01169
-15.4831 105.664 8.02525
-0.0624377 117.087 14.6283
0.635514 128.919 -6.69835
15.9954 143.328 -5.83122
7.75538 135.876 -6.86133
-11.1608 119.195 -10.0751
11.9259 141.025 -9.10484
-10.3734 107.729 13.1859
-11.0464 107.239 12.8182
18.6711 140.243 4.72378
9.25452 137.822 -8.03883
-1.60684 127.438 -8.28975
21.9444 144.623 2.37567
17.3244 143.663 -4.35834
13.4678 135.106 4.81137
13.4423 135.142 4.66172
4.50725 122.902 11.4636
15.2803 142.872 -6.75547
7.31828 135.132 -6.70035
13.2962 135.359 3.86257
-11.9245 106.494 12.3036
-3.22424 125.951 -8.76109
-17.505 107.41 0.189686
-0.137762 116.529 14.6772
14.4495 134.818 6.73097
9.67317 131.639 3.91476
-14.1762 105.44 9.84751
-18.1392 105.275 2.85034
14.8714 142.37 -7.2032
-18.1743 105.335 2.39798
14.0262 134.109 6.93134
7.05016 134.529 -6.78324
8.93945 136.826 -7.70362
-18.0874 110.322 -7.08713
-4.85557 123.742 -8.27201
-16.5598 112.67 -8.79966
-1.70354 126.793 -8.36355
-6.58701 110.02 14.5703
21.7896 143.14 3.79463
7.64862 127.24 7.78731
7.00406 134.251 -6.80117
-18.582 106.581 -1.28986
22.9025 145.653 0.719751
-19.5088 106.379 -2.68742
13.0845 135.007 2.85845
0.719511 128.187 -6.97985
-19.39 106.344 -2.48913
-11.7309 105.939 12.331
8.58711 129.256 5.31254
7.67426 127.135 7.64482
-15.3448 104.687 7.9341
13.4038 134.934 3.26245
17.0906 142.872 -5.09123
6.06335 124.507 9.51216
-14.5061 104.532 9.49264
22.2731 145.59 -0.959642
-18.0534 104.005 3.89619
-9.54105 107.281 13.3422
9.91471 137.63 -8.69515
13.1041 140.63 -8.54132
-16.6397 104.098 6.13792
-2.42654 125.817 -9.10014
-17.9172 106.164 -0.235142
8.2065 128.157 5.98655
19.3278 139.702 4.41738
22.4369 143.595 2.66217
-18.4326 106.062 -1.30735
15.6363 134.98 6.33313
8.007 127.294 6.77006
-16.3712 112.167 -9.43886
-4.44525 123.241 -8.55109
3.77536 119.999 12.7421
21.5592 145.123 -2.38813
-16.0146 112.599 -9.75256
-16.7971 111.447 -9.02208
-3.85615 123.875 -8.83803
6.9006 133.178 -6.80288
-14.0395 103.902 10.309
14.0204 132.867 6.8044
18.3649 138.256 4.5404
23.2856 145.231 0.228676
6.39467 124.209 9.05271
15.5775 141.417 -6.80305
3.19363 118.783 13.4483
15.3552 141.358 -7.17166
14.2988 140.77 -8.00921
12.5579 133.163 3.24985
-8.89151 106.996 13.5252
22.4458 142.749 3.14022
-18.4369 104.469 0.584498
-15.4176 103.542 7.91318
2.86403 128.502 -5.93546
-17.2105 110.427 -8.62815
10.073 136.893 -8.78223
18.8716 143.286 -4.74782
10.6413 131.104 3.18577
-17.7734 109.199 -7.59193
-6.12773 109.009 14.1924
-11.5185 116.888 -10.7784
15.3524 133.915 6.22205
-0.125595 114.192 14.8809
-15.7279 103.191 7.03179
-14.386 113.882 -10.8807
14.1877 132.413 6.4768
5.72544 122.349 9.77728
1.84678 116.196 14.3437
23.0254 143.188 1.96038
16.3435 140.986 -6.25281
-6.25742 108.394 14.1092
7.74474 133.017 -6.99979
5.31158 121.29 10.7667
-11.0652 104.441 12.5083
-4.0787 122.472 -8.97499
2.0861 127.269 -6.83938
-15.555 102.445 7.89036
6.4077 123.177 8.80948
20.0073 138.848 3.79001
-17.9599 107.209 -5.94085
12.1699 131.567 3.15748
-5.81966 120.69 -9.33485
17.1095 135.833 4.04596
-5.03682 109.03 14.2369
20.2043 143.54 -5.01058
1.97673 115.755 14.2741
-17.9633 107.062 -5.96981
-8.57008 118.027 -9.58632
-19.5491 104.499 -4.1497
16.0954 140.387 -6.80275
-11.4928 103.588 12.3805
17.2651 135.93 3.78498
9.69695 128.268 4.37395
-19.3376 101.587 1.55176
-14.3814 101.893 10.0755
-3.87086 109.619 14.6999
-2.95532 123.351 -9.77281
-5.11289 120.999 -9.31319
14.7583 131.533 7.17935
-12.8577 114.376 -11.0668
-8.4952 105.749 13.3932
0.78525 113.99 14.803
-3.88152 121.909 -9.12574
0.676607 125.748 -8.06107
13.7188 138.734 -8.76823
6.79163 123.078 8.238
14.4772 131.965 5.43853
8.94835 126.679 5.24003
-15.3207 101.366 8.69931
14.3881 131.137 6.76062
-3.15875 122.76 -9.68545
18.8235 136.921 3.84287
8.73617 126.301 5.44874
-19.4754 101.345 0.907608
22.1708 140.379 3.24204
7.73566 131.903 -7.23313
-12.1679 114.598 -11.0098
5.83063 121.006 9.9565
0.305824 125.278 -8.3687
-19.4964 101.297 0.804197
12.981 138.344 -9.94817
7.03728 123.272 7.80483
-1.74722 123.713 -9.29891
-6.48308 119.182 -9.42726
18.7224 141.455 -5.41456
13.8835 131.786 4.06912
-5.69222 119.909 -9.41605
7.81953 124.601 6.54573
9.42086 127.001 4.77929
-19.2858 100.941 1.44891
18.7918 141.372 -5.48117
23.7674 143.623 -0.61244
11.8417 129.943 3.41791
16.0297 132.401 6.33174
-19.7407 101.097 -0.0780244
14.622 131.454 5.42358
-17.1572 108.234 -8.9609
0.375086 124.952 -8.48743
-20.0301 102.968 -4.24563
-0.205375 112.092 14.8719
21.6779 139.345 3.10121
-10.5109 103.094 12.6069
14.1863 131.247 4.50625
10.1607 134.26 -8.70018
-6.2293 118.737 -9.48644
1.46455 113.537 14.4792
23.5387 143.249 -1.42558
-9.36146 115.975 -10.2117
10.8359 135.047 -9.36544
-11.5098 102.151 12.0369
-7.99805 116.975 -9.83172
21.6595 142.397 -3.65592
3.4714 126.272 -6.53628
-1.74982 122.891 -9.79808
6.32458 128.783 -6.19795
17.1581 133.49 4.80731
23.2886 140.226 3.21534
-18.3228 104.702 -5.83527
-10.9328 114.608 -11.1469
5.87609 119.67 10.1902
3.75758 116.142 12.9212
24.6519 142.551 1.01577
8.70175 131.697 -7.73404
10.7515 127.563 3.89928
-18.8828 103.679 -5.27368
-18.3149 104.905 -6.57904
14.7187 129.926 6.64958
13.0019 137.319 -10.6371
-15.5701 99.647 8.44546
5.66403 127.687 -5.84977
16.6305 139.008 -7.19729
9.03524 125.149 5.17265
7.70751 122.859 6.94307
-19.9583 100.722 -1.92226
-16.6164 100.539 4.55098
6.43258 128.523 -6.27861
0.383653 124.004 -8.87091
-20.2508 101.268 -3.61059
-18.3677 104.605 -6.5587
-11.1574 113.933 -11.0635
9.37474 125.387 4.83663
-18.4195 104.248 -6.24771
-18.7554 103.512 -5.4745
6.7718 120.914 8.4301
24.838 142.241 1.01588
13.9322 137.58 -10.2605
19.8309 141.029 -5.99473
-10.1571 114.666 -11.0762
19.5615 135.926 3.07105
12.706 136.558 -10.8473
-7.32892 104.561 13.0868
5.58965 118.047 11.1954
-19.7036 99.1871 0.439202
24.3707 140.888 2.22023
-6.60555 105.109 13.2057
-14.0161 110.567 -10.9088
24.87 142.044 0.742205
-18.2838 104.762 -7.81228
-20.202 100.829 -3.92301
5.73539 118.064 10.9405
11.2761 127.091 3.91064
-17.5913 99.5583 3.10544
16.4562 137.62 -6.70049
22.2641 141.607 -3.82993
-4.07827 119.285 -9.88866
6.85513 120.213 8.45532
15.0082 129.273 6.18195
-15.0888 98.7912 8.67657
23.9583 139.71 2.54098
-3.3036 119.915 -10.0508
10.4914 125.718 4.27171
-7.7099 103.575 12.8934
6.61746 119.482 8.96245
-11.2361 112.795 -11.2659
-18.4642 103.451 -6.81042
-0.982143 122.15 -10.2051
-5.74175 117.378 -9.8971
25.0097 141.142 1.47127
-17.8132 99.0168 2.7278
-18.3417 103.797 -7.50854
-2.629 107.403 14.5221
16.7944 130.392 6.54028
-20.4577 99.897 -4.07574
18.2231 133.406 3.3877
1.18055 110.9 14.7882
-8.5304 114.636 -10.2835
-14.9805 98.4482 8.64694
10.0448 124.79 4.60552
11.0374 133.185 -9.61835
-17.1812 97.8937 5.56134
-17.6563 104.732 -8.49016
-20.3904 98.085 -0.945277
-20.4558 98.7089 -2.28791
-19.5038 101.404 -5.74794
22.8775 141.31 -3.65599
-11.9459 111.554 -11.2377
7.69868 120.8 7.16551
-20.5003 98.213 -1.92381
-17.4608 98.0016 4.0582
11.0753 125.544 4.1407
8.60861 122.135 5.97901
15.8044 127.882 8.25458
0.261708 109.317 14.8888
-15.6565 106.771 -9.82808
-1.01514 121.392 -10.7067
-16.3751 97.0587 7.25159
-19.6785 100.59 -5.65739
19.3075 133.73 3.07401
-17.2508 104.65 -9.02177
-17.6755 104.136 -8.8286
18.379 132.354 3.88341
15.2576 128.042 6.32806
-1.09164 107.685 14.8282
15.6726 127.469 8.0113
-20.4554 98.6807 -3.88773
4.71339 124.49 -6.66024
22.1371 136.293 2.94581
16.7568 136.405 -7.19952
-12.5155 98.8051 10.4041
-8.7589 101.41 12.3388
7.38251 119.327 7.94715
9.13281 122.191 5.56119
16.26 127.443 8.68142
9.88632 130.686 -9.27045
24.9418 139.616 1.43568
-11.4214 99.2403 11.3035
-16.6489 96.5234 6.82078
-7.31445 114.586 -10.4321
4.26651 113.444 13.0095
6.05472 116.298 10.6735
-17.9845 96.4485 4.16254
17.2035 136.668 -7.70228
6.4329 125.537 -6.3765
-1.797 119.916 -10.8796
21.8603 135.54 2.96781
-19.3704 100.455 -6.22663
25.0908 139.951 0.455389
8.96059 128.921 -8.3308
17.6983 130.039 5.59846
-13.2119 97.9726 9.59517
9.74226 129.883 -8.93151
24.8944 139.776 0.125936
-18.1374 96.6579 2.91915
-18.9795 100.944 -6.92917
18.4753 132.323 2.31097
-2.47777 118.948 -10.8844
17.2557 136.087 -7.1713
-9.96446 111.916 -11.3227
-17.8301 102.45 -7.90364
16.716 135.395 -6.99861
15.8939 135.921 -9.52157
24.5806 140.006 -1.31498
16.1462 134.808 -6.96641
5.86513 124.567 -6.47923
-8.2564 100.959 12.3886
-14.5472 107.078 -10.9132
-14.1993 107.581 -11.2912
-5.07117 115.937 -10.4159
3.00039 110.79 14.2634
14.7607 134.984 -10.1473
14.4866 126.908 4.71053
18.114 131.854 1.86832
-2.43974 105.507 14.1616
18.1366 136.548 -7.06421
-2.52746 105.427 14.1026
17.4725 135.821 -7.0037
17.8916 136.099 -6.84132
24.7922 138.39 1.49409
-15.8861 96.1485 6.95213
-4.0309 116.812 -10.5963
-6.41727 102.308 12.5484
10.9035 123.209 4.62733
21.3952 134.259 2.91643
21.3382 139.269 -6.74255
-16.1615 104.814 -10.2457
21.7719 139.317 -6.09479
3.88578 111.733 13.4366
-7.06029 113.867 -10.8167
17.5077 135.872 -7.45873
4.32035 112.446 12.8401
-14.7181 106.515 -11.0086
15.8553 133.761 -6.54654
-10.4717 98.7131 11.6561
19.1584 132.136 2.51456
-18.4392 95.4597 3.05591
3.52082 111.074 13.788
19.7313 138.021 -7.75892
21.7853 134.241 3.08618
16.6714 134.532 -6.92774
-9.23316 99.2819 12.4509
7.99363 118.602 7.39062
16.4028 134.843 -8.04762
13.5666 133.468 -10.6593
-20.4648 97.2634 -4.48337
1.6189 121.203 -9.46299
7.80072 126.315 -7.84817
-16.8425 95.3556 5.69214
-12.8967 108.201 -11.505
21.4215 138.924 -6.79629
19.8263 132.23 2.99424
-14.1449 96.669 7.99399
13.2967 133.061 -10.861
10.2728 129.376 -9.56011
-16.9133 95.2069 5.39665
8.85997 119.643 6.25424
8.8062 127.345 -8.52792
-1.07848 105.694 14.4742
-17.8642 101.244 -8.00193
-12.4724 108.296 -11.5471
19.7168 131.976 2.67284
22.6606 134.462 3.33311
19.7341 137.428 -7.77244
25.5802 138.814 0.341988
13.9411 133.144 -10.3871
5.44504 123.073 -6.92411
13.3013 124.792 4.24418
-5.42753 102.16 12.8003
24.6369 138.752 -1.48674
0.564283 107.06 14.4807
19.0029 130.524 3.7281
-18.8818 99.4019 -6.84221
17.624 127.973 5.98993
-19.3333 94.7214 1.07151
17.2858 135.299 -8.71979
-14.2653 106.148 -11.3783
2.30718 108.561 14.5765
23.2076 139.049 -5.06419
18.0322 130.773 1.11
13.9211 132.872 -10.482
-17.3657 94.7875 4.36842
-6.33358 113.565 -11.1224
5.05268 122.496 -7.14808
15.1527 133.613 -9.71898
-18.632 99.646 -7.31065
20.074 131.837 2.71984
-14.5157 105.653 -11.2051
8.85904 126.965 -8.76884
17.3647 126.673 7.42428
17.3002 134.256 -7.16831
7.99195 125.797 -8.25241
21.0924 137.977 -7.31771
-18.5996 94.4839 2.27338
9.6951 127.962 -9.3654
-0.236262 119.305 -11.2375
7.43447 124.677 -7.33321
3.37717 121.121 -8.0989
-4.35258 102.468 13.0271
20.4517 137.599 -8.21252
19.1545 129.944 3.92713
2.10732 107.824 14.5675
1.06243 106.851 14.4034
17.411 125.354 9.1294
0.341294 106.131 14.2354
13.9651 124.424 4.49832
10.1674 128.256 -9.85061
20.7492 131.578 3.32903
17.7817 134.294 -7.36775
15.1652 124.645 6.12559
25.5613 137.295 1.17989
3.50913 109.193 14.0061
13.8197 124.206 4.36879
-2.78579 103.403 13.3701
19.3288 129.934 3.53255
13.4721 123.827 4.31147
24.6085 135.86 1.83376
-8.39458 98.4099 12.322
14.9831 130.755 -6.1951
17.7148 126.579 6.78568
26.4507 138.211 0.706002
17.3319 133.132 -6.44236
15.743 123.968 7.89152
14.9718 130.86 -6.67823
-19.3134 97.5825 -6.58023
2.67438 107.814 14.4312
-9.38512 97.5919 11.6393
-17.9805 99.6939 -8.28052
0.415287 118.885 -10.9261
7.29475 115.252 8.6689
-3.57282 115.273 -11.4689
-16.1294 93.9584 5.84024
24.6728 135.415 1.91803
14.0667 131.742 -10.6624
-17.5977 100.174 -8.9104
19.4888 129.332 3.86711
7.95993 116.228 7.56056
24.1907 134.399 2.73252
-15.1744 103.477 -10.9733
9.74354 118.738 5.8847
-15.3239 93.7947 7.16957
16.7939 133.247 -8.80751
-3.47609 115.071 -11.6185
24.0526 137.887 -4.33235
16.3578 132.83 -8.91912
23.9095 137.838 -4.55276
24.1868 134.288 2.70916
25.0753 137.459 -1.69555
18.7845 130.011 0.894491
3.85443 108.713 13.8534
21.1227 137.002 -8.22243
7.06873 122.803 -7.08902
5.30466 111.328 11.468
-18.211 93.206 2.60636
20.3797 130.902 1.90839
20.6113 136.561 -8.46506
17.0872 133.245 -8.6629
13.4804 122.863 4.44775
24.0034 137.672 -4.47445
-19.5326 96.5935 -6.55244
-13.5574 104.873 -11.3551
18.5585 127.692 4.3753
-15.617 102.565 -10.8032
16.4922 129.528 -3.0865
16.0452 123.046 8.42726
-17.7811 99.1497 -8.4172
15.1264 131.343 -9.11226
18.9644 129.989 0.493073
-8.85155 109.481 -11.7309
-16.6559 93.2975 4.66361
14.8409 129.726 -6.66917
-10.1582 108.249 -11.8487
23.0797 132.415 3.37025
14.6848 128.637 -5.01491
-5.51209 99.3068 13.6045
-15.9981 101.844 -10.5669
8.46288 124.716 -9.04037
17.9262 133.31 -8.0124
-13.1167 94.951 7.79435
-12.1767 95.4293 8.59393
12.873 130.136 -11.3528
-0.699825 103.48 14.3075
-1.63065 102.845 13.7782
16.3675 129.601 -4.01249
-19.6207 92.4776 0.268482
15.7868 122.697 7.89646
-18.7592 92.2632 2.17764
25.7229 135.977 0.878818
-6.31975 111.388 -11.3664
-19.664 92.4524 0.0667726
10.634 127.393 -10.6985
-15.1395 93.0537 7.11598
-16.3001 101.106 -10.3964
20.1753 130.295 1.24531
19.2112 129.834 0.30789
16.92 129.482 -3.24897
-19.7146 92.4691 -0.314092
19.7422 128.682 3.38341
-12.4046 105.459 -11.81
16.2999 129.367 -4.43901
24.2377 133.279 2.73206
-8.3874 109.266 -11.6871
-4.9242 99.2691 13.7246
22.8029 136.492 -6.08684
15.3675 128.63 -4.86493
17.983 132.156 -6.79483
22.9475 136.46 -5.89957
11.0689 119.032 5.34977
-14.8632 92.8557 7.34918
-13.5994 103.86 -11.2888
22.0941 130.692 3.25842
-19.8948 92.3802 -1.20036
10.0272 117.562 5.99362
20.2929 135.404 -9.07113
17.3412 130.547 -5.29561
-19.5175 95.6422 -6.76746
18.8289 133.975 -9.09847
5.61651 110.553 11.1489
23.5162 136.417 -5.14032
14.5934 130.508 -10.3496
12.4596 120.311 5.06773
-1.06183 102.534 13.9643
-19.3216 91.3849 1.48017
-4.90891 98.8363 13.7905
17.0786 129.673 -4.42245
1.3069 117.396 -10.1792
15.0345 130.456 -9.76849
-10.12 95.5581 10.3248
17.1477 129.216 -3.52386
24.9346 133.976 1.75127
-15.3546 92.5637 6.35456
4.40407 107.9 13.5424
-14.662 102.485 -11.304
9.184 116.052 6.71243
17.5079 131.96 -8.26751
13.7663 129.843 -11.1657
26.6512 136.806 -0.704432
11.0478 118.464 5.46506
-11.173 95.0242 9.09592
-20.1661 92.14 -2.13271
-2.78836 100.473 14.0116
-17.5387 91.5334 3.78685
-13.7949 93.2454 7.4033
15.098 121.706 6.44068
-16.3821 92.0376 4.87711
-9.58731 95.6487 10.4541
-3.54892 99.6288 13.9497
18.0882 127.849 0.0549691
-19.469 95.1562 -6.92087
5.77104 110.179 10.9908
4.65399 107.879 13.248
16.5954 126.791 -0.764758
-14.0579 92.8108 7.4378
5.33591 119.779 -8.18709
7.91844 113.565 8.28328
19.5126 129.243 -0.215439
18.9918 125.267 6.34082
10.7531 117.595 5.7009
16.7719 129.78 -6.44116
1.15991 103.618 14.6076
-12.1831 104.505 -11.7485
-15.648 100.704 -10.9267
11.291 118.15 5.48748
13.6393 129.198 -11.2342
20.2998 129.359 0.725224
2.91723 117.734 -9.18522
23.0707 135.381 -5.67852
19.4128 127.382 2.77121
16.2834 129.296 -6.79652
8.89211 123.42 -9.38069
3.24673 105.689 13.9576
9.32216 115.297 6.76747
-16.3006 99.1711 -9.77604
16.5332 121.212 8.75861
5.8521 119.759 -8.17494
15.582 126.571 -3.21351
16.9016 126.512 -0.679958
7.57869 121.11 -7.59187
-7.65728 108.578 -11.8165
-20.0522 90.5328 -0.337972
-1.49349 100.768 14.2294
4.8167 119.028 -8.93045
-6.36835 109.747 -11.9023
-3.412 112.905 -12.4863
10.1408 116.176 6.22081
18.0907 130.987 -7.35132
-12.4482 103.628 -11.5938
16.2851 120.969 8.27875
-15.0874 91.2304 7.00162
-5.66166 97.0535 13.2662
10.932 125.854 -11.0096
12.741 127.954 -11.761
17.0089 129.978 -7.89178
16.2664 125.983 -1.70019
18.4024 122.06 9.50245
-21.4609 90.4944 -3.88049
16.0951 126.019 -2.43719
17.9499 131.742 -9.92457
11.2686 125.929 -11.1919
15.8587 129.2 -9.03873
-2.04381 113.702 -12.6415
-13.5859 102.071 -11.7769
15.1918 127.492 -7.15828
15.6621 128.308 -7.87764
6.27277 109.524 10.5637
-1.30813 100.132 14.462
19.6255 128.016 -0.219778
16.712 126.516 -2.77555
18.2155 129.967 -6.63112
-11.5885 103.788 -11.8475
24.9959 134.497 -2.924
15.7959 128.578 -8.64105
16.8116 120.282 9.00032
26.616 135.428 -1.814
-18.9674 89.681 1.23297
0.415611 101.396 14.5853
20.9471 128.427 0.946727
-15.002 100.075 -11.3589
17.7345 120.802 9.49917
18.1973 131.491 -10.0477
9.28367 113.85 7.08429
-19.6212 92.9997 -6.51695
2.36864 103.268 14.4412
20.0053 128.139 -0.425376
19.5477 132.629 -9.90108
13.2239 118.511 5.29541
15.5599 128.851 -10.2682
15.7203 128.795 -9.88674
-4.4329 96.8957 13.6583
16.8643 126.209 -2.95046
25.9403 134.671 -2.35652
-9.47107 93.9884 9.82134
-16.5598 89.0976 6.01308
-21.46 89.539 -3.94501
-5.70362 95.9169 12.9467
19.2577 122.01 9.21274
-19.4895 92.7466 -6.62634
9.13212 121.437 -8.54924
26.7134 134.233 -0.535848
-11.1693 103.589 -12.0085
16.2208 119.666 7.80719
14.8831 119.433 5.65968
15.8863 125.397 -3.86314
-0.954706 113.663 -12.5689
-8.21435 106.647 -12.6841
14.5568 126.604 -8.72897
14.3265 126.783 -9.56299
-8.04279 94.4429 10.6767
12.6384 126.178 -11.6521
6.23945 108.033 11.1079
10.1751 114.158 6.64093
0.801648 114.574 -11.4459
18.3721 126.033 -0.943326
2.89354 102.962 14.4051
3.05261 115.67 -9.5808
26.0697 133.144 -0.525639
3.51951 116.03 -9.55121
13.9547 126.791 -10.8617
-1.62132 112.523 -12.5608
23.7357 133.351 -5.51055
4.32818 104.352 13.9098
0.353815 114.171 -12.1379
23.678 133.29 -5.59263
7.63191 109.972 9.2013
8.83457 120.723 -9.08664
-10.1011 92.9979 8.80792
9.65537 113.035 7.06154
23.1323 128.319 2.79198
18.2605 127.611 -4.84676
24.5793 129.756 2.71676
19.3131 131.369 -10.2068
3.91153 103.642 14.0639
24.5485 133.283 -4.42719
23.2969 128.269 2.78416
-8.99645 105.174 -12.8237
7.6041 109.592 9.29623
12.2392 124.947 -11.4904
13.9499 125.157 -8.81793
18.9461 120.181 9.83501
-2.42923 111.376 -12.853
-17.8061 94.3024 -8.74798
7.79721 109.658 9.14323
-8.76754 105.171 -12.9443
19.7426 126.276 -0.659873
23.22 132.704 -6.52693
24.9024 130.075 1.56485
-21.5424 87.8517 -3.65764
17.6461 127.44 -6.82467
25.0404 132.989 -3.81718
6.37366 118.005 -9.75292
5.31184 104.974 13.0754
23.1389 132.555 -6.77639
-15.0763 88.6252 6.43766
10.5187 121.797 -9.57163
24.799 129.648 1.68126
19.3838 120.236 9.5985
20.7825 124.394 4.08373
-21.6933 86.9752 -2.99618
-15.1174 88.4167 6.37493
-15.1255 88.3753 6.36249
19.8602 125.967 -0.772668
7.24308 118.501 -9.8201
24.9356 129.769 1.17919
-18.3909 86.6603 3.41651
20.7513 126.471 -0.308027
20.2525 121.19 8.83145
27.396 134.141 -2.66854
0.170037 112.877 -12.3688
27.3185 133.244 -1.15946
21.823 131.693 -8.47168
-2.3022 110.711 -12.9882
19.9074 125.811 -0.827705
-18.5659 92.0236 -7.42265
14.2292 124.569 -8.97993
14.1099 116.684 5.82042
5.815 105.179 12.429
0.717965 113.207 -12.2867
8.98262 119.788 -9.59718
23.0213 127.09 2.3695
-8.92686 92.4176 9.44485
0.14559 98.4186 14.717
22.9669 127.012 2.3157
-19.3505 86.2683 1.85292
17.2006 117.951 8.86734
14.8771 124.735 -8.39553
21.2796 125.936 1.08865
-14.7842 88.1906 6.46121
-13.7808 89.0047 6.75179
25.0511 129.966 0.28467
-14.026 98.445 -11.808
-6.44114 106.486 -13.2432
26.724 133.325 -3.2985
21.4573 131.172 -8.9469
12.4997 114.621 6.01311
1.6721 99.6785 14.475
21.0189 124.378 3.07606
-12.6793 89.5643 7.21573
-14.6582 97.4747 -11.5241
14.7901 116.705 6.13589
18.0568 117.873 9.92238
-2.18509 110.312 -13.0615
17.5905 127.797 -10.0061
2.76924 100.787 14.1005
10.9827 121.525 -10.2908
16.6527 125.531 -7.62941
21.046 123.802 3.76086
28.0908 133.935 -2.56416
-16.777 85.9205 6.17541
16.7461 117.233 8.25172
-1.8359 110.303 -12.985
16.6922 117.076 8.16412
18.7739 118.045 9.94888
-16.5149 94.3856 -10.1047
7.16582 106.498 10.3937
-9.3478 91.1363 9.19564
25.3889 129.738 -0.301596
2.58277 100.073 14.118
2.01172 99.401 14.3194
18.1437 126.121 -6.83976
-10.3987 90.3214 8.67696
11.1719 120.805 -9.63008
-9.00145 103.013 -12.9332
3.55139 101.061 13.9042
2.34228 99.7238 14.1989
17.5591 116.797 9.4352
10.4448 111.169 7.00195
8.47021 118.177 -10.0898
-21.5467 84.5477 -1.40402
-17.3904 92.448 -8.82702
-2.3015 94.9142 14.2518
18.7068 128.342 -10.7233
-11.5602 99.9534 -12.493
11.4123 112.198 6.51914
21.2416 123.628 2.81668
16.6496 125.217 -8.75449
-7.58318 91.6154 10.5713
-4.9034 92.6924 13.3078
-6.79922 91.7522 11.5622
17.7883 126.995 -10.2432
21.2443 121.502 6.55024
21.3885 124.92 0.221842
17.2374 125.987 -9.47831
16.4225 123.792 -6.80873
12.0659 121.868 -11.1963
-4.31978 107.35 -13.7578
17.8054 126.839 -10.1014
20.9834 125.217 -1.15761
13.6014 114.175 6.18699
-19.2084 84.6009 2.03116
21.3272 124.027 1.64676
27.9578 131.934 -1.24614
-2.5434 108.784 -13.421
-0.764015 110.138 -12.7366
17.9061 124.611 -5.98795
18.8445 128.055 -10.8236
16.7283 123.664 -6.38245
14.0855 123.236 -10.5071
19.6559 125.348 -4.32752
-10.8502 89.1046 8.43524
15.4298 115.463 6.67566
-21.2254 83.5832 -0.22559
-0.0260533 110.571 -12.6043
9.99726 109.683 7.56534
-6.5174 104.819 -13.657
18.4834 127.5 -10.827
23.6794 125.796 1.96281
5.18163 114.173 -10.0051
7.14222 105.145 10.7635
-17 84.2055 6.10896
19.8038 124.251 -2.34932
27.2238 132.23 -3.93327
17.2748 123.484 -5.69041
-1.16282 109.441 -12.993
15.1807 114.942 6.62582
-20.4199 83.6446 0.554359
23.7011 130.375 -7.1722
7.60759 116.585 -10.6291
-8.87076 101.867 -12.9877
21.119 123.332 1.3532
14.8291 123.416 -10.4339
1.80852 97.8075 14.244
28.504 131.895 -1.50242
19.8395 124.028 -2.5265
-5.03018 91.7085 13.1085
5.26747 101.491 13.3179
12.3874 111.871 6.5881
29.2302 132.647 -1.9668
24.8415 130.404 -5.85748
-2.95475 93.1818 13.788
20.1809 124.462 -3.1897
17.05 123.617 -7.36064
27.5476 130.627 -1.40034
15.0233 122.817 -9.63978
25.8613 130.854 -4.98079
14.9596 123.074 -10.2626
-21.5456 82.825 -0.939842
-2.27238 107.999 -13.3841
19.1772 123.563 -3.49528
15.2107 121.261 -6.47618
-17.16 83.4281 5.87506
16.0167 122.137 -6.70909
6.95321 103.898 11.3097
28.3223 132.463 -3.76657
4.08741 112.516 -10.4679
10.6577 109.495 7.16277
12.1771 111.167 6.73163
25.3403 130.327 -5.50474
21.6977 120.665 6.0322
12.6947 121.042 -11.3524
2.96696 111.662 -11.4474
-17.4701 89.7927 -7.50431
7.21188 103.982 10.9649
21.2399 118.766 8.527
-21.2693 83.2806 -2.25213
-21.1816 84.0861 -3.64893
21.0101 120.667 4.3953
-12.8446 86.0503 7.89189
25.7574 127.809 -0.509204
-18.7851 87.6873 -6.26022
18.468 126.22 -11.0638
6.24343 113.924 -10.2871
-10.9267 98.5512 -12.6679
20.5952 121.599 1.4851
-5.89487 90.3918 11.9943
7.60646 104.262 10.3995
-16.2232 91.8951 -10.0364
-2.73891 106.735 -13.5087
21.1135 128.361 -10.7532
23.4419 129.275 -8.22136
20.5942 121.35 1.61899
20.6063 121.159 1.93109
-18.4869 82.5667 3.33711
-21.8298 81.3627 -0.532598
21.2913 123.119 -0.587923
24.4853 129.473 -6.83899
18.1549 114.598 9.77857
16.9895 114.124 8.49773
15.1671 121.877 -9.65961
-18.7182 87.3337 -6.38846
21.9266 119.59 6.95245
17.2386 123.477 -9.12044
21.6832 123.234 -0.462995
-10.6409 87.0473 8.8546
17.1413 123.246 -8.89564
15.6968 120.112 -5.64079
-2.37114 106.713 -13.4314
-15.4904 92.5777 -10.7496
27.5545 131.008 -4.60688
24.8499 125.055 1.71332
20.8556 123.392 -2.4851
21.9281 119.357 7.10636
-13.79 94.5512 -11.4977
5.89551 112.972 -10.3777
17.6603 124.356 -10.3807
-10.2499 98.6198 -12.8739
21.3728 122.736 -0.585593
-17.8535 81.8852 4.88882
-11.4527 85.894 8.92989
-2.79445 91.7846 13.5703
-10.7757 86.4063 9.08666
-20.6136 84.4511 -5.34955
0.22735 94.2403 14.3609
-16.25 82.1457 6.97889
-17.8708 88.1099 -7.41998
21.8239 128.219 -10.651
12.2105 109.578 7.10179
11.5622 108.844 7.27752
16.8983 113.396 8.36757
5.35364 99.5299 13.3831
21.1403 119.999 3.46061
-11.693 96.2869 -11.9189
-21.9086 80.6615 -1.08186
-20.5506 84.2566 -5.45611
-8.1056 100.293 -13.1653
5.46944 99.5466 13.2831
13.6739 110.755 6.94467
24.3252 124.372 0.624129
26.2118 126.082 0.833294
20.944 122.51 -2.09137
5.39293 111.818 -10.429
4.93599 98.7672 13.5848
17.2341 120.848 -5.80428
12.376 118.303 -9.95912
15.4587 120.032 -7.5984
15.6991 112.598 6.99858
17.1989 122.579 -9.28136
24.8481 124.612 0.946246
-8.76257 87.4565 9.72656
-16.4589 89.7538 -8.85733
-18.1678 81.0508 4.567
3.86275 97.5713 13.6597
11.5639 117.074 -9.30277
-3.00927 105.341 -13.8257
19.1209 114.047 10.3545
-18.7121 86.2686 -6.48293
25.9989 126.219 -0.209729
2.60532 110.131 -12.7319
22.0839 118.37 7.38065
20.591 122.422 -3.1119
-0.922462 106.951 -13.3381
-15.783 81.7652 7.2257
0.0913988 93.4859 14.1485
26.1264 126.084 0.0341593
-9.74039 98.1607 -12.9188
-16.5308 81.2521 6.75275
18.385 122.555 -7.55617
21.346 119.715 3.16197
-3.16994 104.924 -13.9434
13.002 118.985 -10.9287
-19.3545 80.3689 2.96282
-21.0926 81.8153 -3.01265
25.2095 128.553 -6.72844
17.6201 120.583 -5.58315
-20.6973 82.9178 -4.54168
27.3473 129.916 -5.49976
-3.47436 90.1234 13.3738
7.30962 113.411 -11.1461
5.91164 111.795 -10.7511
19.2173 122.243 -6.13306
17.1798 119.99 -5.65159
17.4832 122.752 -10.4352
-9.75152 85.6418 10.012
-2.61391 90.6065 13.647
20.0303 121.616 -3.6986
21.6784 119.502 3.33714
23.324 123.426 -1.14101
14.3985 110.439 7.11828
-5.17212 88.6686 12.4731
21.2018 121.718 -2.00079
-16.6731 80.5842 6.48956
21.2023 120.98 -0.632203
-19.9331 84.0907 -6.26497
29.7364 130.248 -2.69982
-19.7982 79.9247 1.82004
14.7021 119.202 -9.42802
4.28671 110.128 -11.5282
4.8775 110.367 -10.9268
20.6911 119.388 0.833256
-18.382 85.6816 -7.00061
-15.8005 89.5839 -9.68368
14.4761 109.943 7.24327
9.9449 115.078 -10.9089
17.5652 119.485 -5.2611
-5.17851 88.172 12.4519
-5.09216 102.046 -13.821
4.54891 110.071 -11.3703
13.4774 118.819 -11.598
-20.8425 79.3399 0.332089
2.1876 108.658 -13.1024
19.6188 120.796 -4.13241
-12.53 82.7005 9.08282
21.134 121.069 -2.01327
23.8708 127.206 -8.72939
-13.0227 93.0785 -11.8461
26.5298 128.518 -6.51178
12.2507 116.117 -9.36482
17.4459 111.568 8.80828
21.2155 119.123 1.29423
22.5155 118.974 3.97281
4.97778 109.915 -11.1515
-2.70881 89.632 13.2564
18.8783 112.068 10.2113
14.222 118.286 -10.2381
7.30714 99.9111 11.8913
-1.955 104.456 -13.8448
22.3309 116.93 7.10245
19.3291 123.936 -11.8237
2.88311 94.3574 14.1579
-13.9279 81.2282 8.12183
-3.03338 89.2027 13.0089
22.5043 122.227 -2.82662
-14.5359 80.7509 7.88463
-10.0262 83.8269 10.3373
-11.3085 82.7979 9.76911
20.9383 113.653 10.3533
18.2717 122.069 -10.6064
11.377 105.653 7.95216
-15.33 89.3348 -10.2195
-1.35996 90.2649 13.6982
-15.3586 89.1919 -10.1082
9.66679 114.087 -11.5064
-5.92935 100.089 -13.6504
21.0261 121.174 -4.15981
18.3428 118.816 -4.617
-21.5688 79.8257 -4.05335
16.1613 110.126 7.77763
-15.3613 88.9143 -9.96631
-3.53197 88.3664 12.8679
27.8785 128.706 -6.11911
-4.02902 87.8635 12.8506
1.2478 92.1775 14.3271
5.52578 96.8669 13.235
20.831 118.599 -0.00911292
6.61425 110.797 -11.3698
18.3992 121.402 -9.86305
3.82283 108.754 -12.6909
-17.5452 78.8123 4.94021
6.76343 110.903 -11.4302
21.8322 114.539 9.36721
18.1984 121.193 -10.0253
-9.75428 95.3438 -12.3343
24.4775 126.385 -8.3546
26.8902 124.738 -0.801817
19.7591 119.221 -3.48808
-18.4562 78.57 3.48862
14.3758 108.132 7.63737
-13.0702 91.894 -12.1039
-21.2309 77.9629 -0.6457
20.0179 111.869 10.789
-2.02637 103.521 -13.9498
19.0276 120.9 -8.24678
18.1076 117.927 -4.29867
26.3644 127.359 -7.21651
8.26748 100.101 11.3311
4.42454 108.766 -12.2665
29.3526 126.976 -1.01941
8.57239 100.493 11.0487
18.735 122.208 -11.6239
-20.9225 77.7791 -0.126153
3.96178 108.459 -12.7173
0.624955 91.2131 13.9603
0.284556 105.378 -13.7063
19.6986 111.334 10.6596
19.0555 118.249 -3.74462
1.0064 105.925 -13.5572
16.5989 117.063 -6.05171
13.2662 115.809 -9.88915
22.2745 115.44 7.39631
18.6494 117.213 -2.68462
-2.64869 102.471 -13.938
17.7388 110.125 9.02586
4.28707 108.423 -12.579
-8.32147 96.4554 -13.069
18.4038 110.313 9.78289
-17.8401 84.7303 -8.31792
29.3602 128.925 -5.48665
-15.2771 88.121 -10.0837
-0.2635 104.57 -13.7413
-2.60186 88.3405 12.806
21.08 120.995 -5.80911
28.0283 124.834 -0.316172
29.8149 128.076 -3.20371
0.432932 90.7048 13.8092
18.3268 110.168 9.70651
22.2102 114.75 7.89571
-20.0612 77.5863 0.70509
-13.6126 79.717 8.49473
30.2958 127.855 -2.27117
20.3914 123.51 -12.2627
17.4093 116.304 -4.11014
17.1308 116.277 -4.57294
21.1211 120.768 -5.87259
-8.0513 96.3749 -13.192
3.62445 107.588 -13.0384
11.1395 113.688 -10.9833
11.2888 103.703 8.30426
2.02068 91.4305 14.4461
-18.5976 82.965 -7.53723
19.8348 120.115 -7.49167
28.4567 127.856 -6.39062
-1.75213 102.559 -13.8988
7.67589 98.2384 11.6509
-0.636309 89.1897 13.4909
-1.00512 88.8498 13.4286
22.919 117.74 2.492
-9.4607 82.34 10.1925
-7.6206 96.3956 -13.2257
21.7883 120.743 -5.39822
4.23625 93.7611 13.5988
-10.214 81.6481 10.0175
20.4085 117.249 -1.37129
27.8031 124.294 -1.1746
30.3442 126.842 -1.41393
22.361 117.273 2.09168
4.45383 107.723 -12.732
2.77666 106.368 -13.2572
21.733 117.529 0.429712
30.4696 126.915 -1.34639
-19.9712 77.0359 0.663478
0.553777 104.386 -13.6071
-5.67158 98.1462 -13.2111
-8.59618 95.043 -12.7825
20.9374 117.491 -1.11752
20.0424 116.599 -1.07633
-20.5208 79.4376 -5.09384
-17.7275 83.8135 -8.44753
10.0608 101.095 9.77757
-0.124724 103.475 -13.6557
-15.3756 86.9543 -10.3129
19.4103 109.653 10.5537
28.1602 124.646 -1.87617
-19.7196 76.8368 0.785944
30.3585 126.622 -1.80207
-4.28285 99.1763 -13.4165
-19.9424 76.7671 0.373896
-17.8694 77.0529 3.62326
0.998959 89.87 13.8607
-17.4886 77.0207 4.23125
17.5992 115.706 -4.78885
22.1152 123.525 -11.372
23.1256 124.432 -11.2701
11.0037 112.878 -11.6922
4.16488 93.0398 13.4818
19.7552 121.187 -11.4049
28.3846 125.321 -3.40606
20.9137 116.002 0.490058
23.4944 116.205 4.85816
21.3922 110.991 10.9121
8.88925 99.0316 10.6315
21.0843 122.591 -11.8488
-9.5029 81.5716 9.88548
11.9017 102.925 8.5753
23.0257 114.805 6.44019
29.1456 127.438 -6.35676
20.8161 120.222 -7.97856
-10.6136 92.087 -12.4571
-6.94765 83.2824 11.0704
-6.38745 96.4768 -13.0888
2.53104 105.073 -13.0235
-3.31946 99.675 -13.6259
1.78699 104.403 -13.2378
4.25276 106.697 -13.1036
-6.0431 83.9233 11.282
20.2166 109.476 11.0098
3.78286 106.292 -13.316
23.474 116.271 3.95102
21.0929 122.183 -11.7968
-1.1023 101.75 -13.8361
14.4927 115.16 -10.6536
21.6887 122.465 -11.3299
3.05668 91.0799 13.8718
-9.19955 93.0853 -12.5882
19.2832 108.637 10.2897
-4.42083 84.9482 11.6383
1.08931 89.1168 13.796
1.92239 89.6982 14.1326
21.5791 122.091 -11.3805
12.6856 113.39 -11.2332
22.8643 113.633 7.0357
-6.12878 83.3284 11.2047
22.0033 122.214 -11.0395
-14.8796 77.6354 5.86802
23.5899 120.728 -5.32743
21.9131 122.127 -11.1053
0.129888 88.1418 13.44
8.97732 98.2447 10.4657
7.56688 96.3937 11.3784
10.1816 99.7938 9.63833
-15.0561 77.362 5.78219
24.9242 124.426 -10.1687
-17.7623 81.8221 -7.75388
6.57977 95.0391 11.9472
-2.01749 86.5687 12.2239
-13.8628 87.647 -11.716
7.567 96.237 11.4097
5.59933 93.6361 12.7321
21.8606 110.303 10.8563
5.7233 106.783 -12.2066
3.00938 90.4158 13.9592
-3.91526 97.92 -13.1673
-20.5724 77.6521 -5.28658
15.5938 115.4 -10.5301
22.525 119.845 -6.23685
13.9106 103.639 8.70647
17.5816 115.043 -6.31174
18.4211 114.965 -4.62025
23.7583 123.184 -10.4576
1.86018 103.42 -13.1829
29.7036 125.479 -3.89681
-6.51499 95.391 -13.4047
-15.5696 76.8071 5.30149
8.65942 109.038 -11.5886
-9.69225 79.9526 9.94756
29.6627 125.681 -4.68411
-7.12199 94.6955 -13.483
15.1119 104.534 8.67167
-2.48205 99.1057 -13.5933
-16.4053 76.212 4.34088
7.44585 95.4532 11.6227
-2.46983 99.0228 -13.5718
17.6807 115.227 -7.36921
-18.8254 79.8711 -7.35247
25.6815 123.837 -9.1332
19.196 114.727 -3.75472
-19.7219 76.3097 -2.35594
0.884318 87.9623 13.3589
6.61745 106.78 -11.9765
22.4504 110.118 10.757
6.57461 94.0497 11.9218
-15.3261 76.3785 5.14935
-15.5925 76.2501 4.88657
29.3242 125.975 -7.03333
22.1451 114.774 1.04548
22.6718 115.022 1.50467
28.591 125.495 -7.53737
23.7825 115.409 2.80976
-2.68715 84.7799 12.3025
26.5004 123.688 -8.12882
-17.1843 81.5109 -8.34201
11.0353 110.146 -10.964
22.5274 114.792 1.28385
4.14827 104.584 -13.224
2.75695 103.053 -12.8826
23.9744 114.175 4.94583
5.82991 105.812 -12.5935
-0.673671 86.4647 12.1557
21.2763 108.152 11.2518
3.33844 103.437 -12.8463
9.80823 97.5478 10.2821
9.6975 108.568 -10.9541
-6.1678 81.938 10.5001
15.9901 104.05 9.20036
8.4827 95.7782 11.0785
15.0213 113.361 -10.388
5.94123 105.726 -12.5887
9.42891 108.369 -11.2067
21.0966 107.956 11.0871
-21.4647 74.7575 -4.34548
0.542115 100.791 -13.3942
9.92088 108.504 -10.8046
-21.8547 74.1102 -3.89742
-5.03303 95.4355 -13.5951
22.961 110.55 9.13091
10.3777 108.831 -10.798
0.884358 100.936 -13.2932
-10.3322 89.7056 -12.6828
12.3858 110.801 -11.0058
13.751 101.403 9.38333
4.77695 90.6805 13.232
17.8169 114.62 -8.34706
28.9365 124.887 -7.48497
19.9306 106.898 10.1766
-7.32658 80.6748 9.76914
7.7299 106.678 -12.2922
-18.487 75.1477 -0.609237
10.7606 97.9097 9.89424
-0.994819 85.3686 12.0988
-21.5303 74.0003 -4.16877
0.687939 100.236 -13.3459
22.9679 109.136 10.6555
16.7166 113.669 -9.52753
-20.8051 74.8748 -4.95043
-18.4528 78.4581 -7.54878
4.69397 103.8 -13.1558
1.2911 87.0084 12.5547
-9.42832 89.925 -12.7679
-8.95641 78.5784 9.71134
-17.9129 74.8519 0.245658
-8.3675 79.1107 9.7014
-10.5016 88.7856 -12.7608
15.7501 112.794 -10.254
-8.73346 90.4891 -12.9412
-1.76072 84.0319 12.2013
16.8323 103.131 9.96382
8.05045 93.8489 11.435
13.0705 110.228 -10.6057
13.9388 100.358 9.75097
17.9021 103.692 10.7008
-12.9978 85.3691 -11.4809
4.30663 102.795 -12.7811
11.4178 108.534 -10.6234
-9.2423 78.334 8.79171
23.7725 111.268 6.88332
-14.3713 83.6004 -10.7539
-17.0529 74.5793 1.44784
5.02187 103.572 -13.0983
7.05928 92.345 11.9812
9.97646 107.179 -11.025
23.4499 109.962 8.47527
0.849579 99.3442 -13.2903
21.9026 106.672 11.5185
-4.95332 81.2587 10.3058
10.2001 95.688 10.6027
16.5429 101.821 10.5645
19.2224 103.91 11.4765
-5.7468 92.767 -13.3356
-9.0633 77.7796 9.07765
-3.79812 81.9279 10.8632
-16.0269 81.0691 -10.1061
-14.0874 83.2825 -10.8278
20.363 104.895 11.5124
-13.4162 84.1077 -11.2678
7.20223 91.7911 12.1016
13.292 109.443 -10.3745
-10.892 87.43 -13.0309
-14.9963 74.4763 4.03314
2.83117 100.574 -12.8412
18.2139 112.592 -7.44848
23.639 113.531 0.702377
-11.4652 86.4182 -12.4371
9.19952 94.0159 11.1712
-9.48832 76.7913 9.41065
24.0424 110.899 6.14855
18.2974 102.461 11.5939
-6.40527 79.6196 9.54323
-9.85228 76.5571 8.99232
-8.35843 77.6708 9.48021
-4.52977 93.3101 -13.2677
17.136 101.31 11.3882
16.2357 100.511 11.2297
15.6328 111.214 -10.2939
13.2803 108.889 -10.2708
24.5669 112.387 3.8631
-12.6312 84.5589 -11.8202
13.5948 98.0592 10.6044
2.32732 99.4241 -12.9215
-5.50202 91.9398 -13.1753
-8.91885 88.4807 -12.897
22.5146 106.23 11.1954
-2.52096 81.9661 11.2172
12.2161 96.4958 10.6865
-1.0363 96.2867 -13.3829
6.83538 103.63 -13.0015
21.8161 105.173 11.629
0.19778 84.0472 11.9968
17.859 101.122 12.0234
-2.85644 94.4734 -13.5551
15.2775 110.112 -9.94909
12.0462 107.257 -10.4741
-5.13585 91.8972 -13.0596
14.4164 98.0914 11.0296
23.6543 107.28 10.3746
-16.2408 79.0159 -9.37383
19.4292 111.973 -6.42421
-10.5887 86.3966 -13.0571
-7.75264 89.2303 -13.2549
5.27041 87.7408 13.575
-13.2037 83.0915 -11.7539
-8.30313 88.5059 -13.0588
8.64654 91.7204 11.9838
-10.3881 86.4697 -13.1848
23.7301 112.057 0.839545
5.68804 101.659 -12.6678
24.1965 109.823 5.88848
19.4435 102.074 11.8803
24.0987 112.008 1.42854
17.5463 111.047 -8.85511
21.8455 112.132 -3.0231
23.4217 112.071 -0.0722395
16.8781 99.2366 12.2614
3.90224 86.301 12.7176
16.0015 98.3319 12.0874
16.1302 98.4025 12.1627
17.5732 99.7331 12.1976
15.3024 109.086 -9.83401
24.1291 111.643 1.54012
9.4354 104.509 -11.9796
12.6818 95.4113 11.2784
-1.01804 95.1472 -13.5319
-4.39698 91.5816 -12.9963
17.8135 99.7984 12.2255
-14.8881 80.5853 -11.472
-6.89277 77.1565 9.77813
24.047 111.455 1.45984
17.2531 110.712 -9.66856
-16.1477 78.3689 -9.65084
24.4038 109.358 6.02161
7.32048 102.725 -12.8467
14.4119 108.133 -10.1318
-6.9727 89.1725 -13.4492
22.3815 111.544 -1.97289
22.9367 111.607 -1.08469
-14.5511 80.802 -11.57
-2.05946 93.8015 -13.367
24.4973 111.378 2.10899
-10.9845 84.8841 -13.0392
-13.7444 81.5755 -11.8687
18.776 110.292 -6.62975
4.92806 99.9983 -12.5819
15.3913 96.9803 12.4523
18.5967 110.172 -6.77389
17.6515 110.367 -8.92271
21.8578 111.18 -2.75385
-5.90468 89.9301 -13.4752
-3.39461 92.1629 -13.2637
-5.19315 78.4378 9.48057
-16.9409 76.6669 -8.85717
19.1882 100.554 12.1875
-11.5081 83.9235 -12.8548
3.29018 85.2875 11.7821
19.1866 110.008 -6.16428
12.9415 94.4444 11.9188
-7.72403 75.9403 9.02365
4.95977 86.1879 12.8519
-4.33425 78.79 9.73377
16.109 96.8964 12.9053
-12.8329 82.0721 -12.2248
19.0411 109.709 -6.23246
16.9543 97.5538 12.8676
12.7398 105.907 -10.8247
1.56155 83.2949 11.5785
8.48054 102.857 -12.9296
-6.49749 76.9582 8.78096
24.2908 106.165 9.87096
2.53242 97.0193 -12.9003
23.6803 104.889 10.8174
18.6438 109.084 -6.46469
-15.1186 78.6996 -10.8642
13.0782 93.7399 12.3901
-3.68054 78.8141 9.88564
18.6216 98.9425 12.556
-3.70872 90.7343 -12.9888
18.1797 98.3334 12.5816
3.19409 97.1581 -12.8133
3.90203 97.7874 -12.7109
-2.20028 79.7725 10.3023
-9.64528 84.8773 -13.1619
3.2276 84.4575 11.1929
-17.82 74.0265 -7.74473
6.14313 86.4171 12.8302
18.9649 98.9586 12.494
24.7961 107.136 7.518
18.4838 98.3842 12.5114
25.0272 108.807 4.66069
20.1006 100.148 11.9478
22.507 109.147 -0.9174
-15.2931 77.7399 -10.817
17.4211 108.666 -9.44061
14.2002 93.6463 13.2084
24.7959 107.126 7.04245
-7.52038 86.2791 -13.1024
-2.13546 79.2836 10.108
18.54 108.324 -7.17742
8.30873 101.396 -12.9275
24.6416 105.273 9.69539
1.14838 94.5568 -13.2949
-2.08143 79.0854 10.0098
20.1944 99.4881 12.2036
25.3133 108.812 3.65227
0.940923 94.0249 -13.1855
-3.15275 89.866 -12.8805
17.9521 96.8306 12.7565
23.2513 108.45 0.390969
19.2838 98.2954 12.3483
22.3476 108.152 -0.809539
13.8179 92.4505 13.3738
7.76951 86.9058 12.7339
9.56452 88.4349 12.9726
-16.8849 74.5199 -9.30354
15.4113 106.228 -10.2172
-8.27408 84.7257 -13.1898
-1.62903 91.1104 -13.2116
7.32017 99.3981 -12.5651
-11.6234 81.0812 -12.5995
19.0805 107.372 -6.22986
16.3244 94.4118 13.3583
5.03516 84.4833 11.3659
15.8219 106.18 -10.0875
-6.83475 85.8255 -13.2741
22.4294 101.21 11.2396
14.1851 91.8089 13.8079
19.3442 107.051 -5.82719
20.8734 107.163 -3.27561
1.38335 80.7942 11.0001
-7.61972 84.6932 -13.1716
-16.3727 74.6956 -10.2803
5.98564 97.4571 -12.5332
17.7809 106.913 -8.8331
-14.9133 76.7923 -11.7459
-16.6578 74.1862 -10.0305
-5.7786 86.379 -13.2136
0.104486 91.8703 -12.8505
16.0109 93.3647 13.4416
21.0115 106.909 -3.17874
-6.45215 85.6595 -13.3727
25.546 107.81 3.40556
-16.199 74.5805 -10.676
11.6565 102.018 -11.6331
-3.49187 87.9613 -12.7986
-5.85679 85.8813 -13.2375
25.2372 105.719 6.28517
-0.598022 78.806 9.87521
9.8674 100.683 -12.537
9.12318 100.021 -12.7017
-1.41252 77.9462 9.42969
-2.36741 77.2253 9.0275
1.74411 80.1105 10.7611
10.4879 100.635 -12.3248
4.36515 94.87 -12.8571
9.25115 99.4245 -12.5733
6.10909 84.0514 10.8512
-0.898547 89.5418 -12.7449
25.6339 104.02 8.52606
9.70051 86.8196 11.8655
24.1038 101.114 10.9877
4.75188 82.4129 10.7303
10.4678 87.1016 12.0263
20.0908 104.949 -4.25302
20.9713 97.2557 11.8787
17.5876 104.662 -8.87326
-2.77548 75.0185 9.9703
17.8475 93.2598 13.2085
4.99512 82.1113 10.7125
2.30482 91.7143 -12.574
-10.8646 78.6176 -12.1575
24.925 105.846 1.95418
-6.24183 83.4427 -12.9029
15.9398 103.344 -10.0205
4.92657 94.0213 -12.6332
1.13632 78.5189 9.86668
25.5265 105.55 3.25323
18.5199 104.262 -7.27433
-14.4417 74.6917 -11.753
26.0333 105.179 4.73436
-9.17733 80.0625 -12.3996
23.2796 98.951 11.39
-1.93892 87.0016 -12.3879
14.8424 101.929 -10.0664
16.813 103.567 -9.62104
-0.927849 76.4652 9.26534
7.83791 96.3492 -12.5664
22.7353 98.1014 11.342
6.30968 94.7195 -12.6616
25.229 104.908 2.69948
-1.99376 74.6249 10.1702
14.7949 101.331 -9.89749
-0.0422089 88.3482 -12.5731
-8.73753 79.8571 -12.4512
23.6188 98.7578 11.1485
4.00542 80.0508 10.6048
24.2639 105.05 0.191539
24.3006 105.011 0.292674
13.4703 100.147 -10.5179
9.04212 96.6862 -12.2507
-0.519816 87.3909 -12.3585
7.60672 83.2058 10.4691
15.0851 101.018 -9.69386
24.5348 104.569 0.829102
9.02824 96.2772 -12.1854
8.6659 83.8395 10.7668
21.1662 103.395 -3.59253
19.6156 93.2729 12.6284
0.28809 76.231 9.31391
6.04998 93.1092 -12.3705
9.43257 96.1218 -11.9199
15.4966 88.713 13.1558
0.576674 87.5181 -12.3422
4.71878 91.4905 -12.284
25.91 101.056 8.50052
16.3497 89.4012 12.9897
5.2628 91.8878 -12.2241
5.95171 80.6054 10.5209
1.32764 76.8009 9.21785
25.4949 99.7952 9.73506
0.589798 75.7433 9.61069
25.4956 99.6626 9.89129
14.9098 87.7143 13.022
4.6102 90.8779 -12.2844
7.72448 82.0261 10.2975
-7.67702 79.0761 -12.5624
15.6806 88.1659 12.9361
8.91614 82.8729 10.4598
6.69313 92.6131 -12.2101
26.6481 102.483 5.58746
9.55875 94.9466 -11.6128
26.4825 101.247 7.54301
25.5467 102.714 2.94181
-11.1941 74.7248 -11.5549
22.7728 102.486 -2.14672
23.3541 95.7783 11.6197
5.71988 79.3313 10.2277
-8.40508 77.0802 -11.5459
14.5693 98.1729 -9.51136
-4.10843 81.7492 -12.7454
9.39057 93.9485 -11.3286
-10.7484 74.5313 -11.4814
24.0879 102.572 -0.739464
7.32925 92.1854 -11.9065
15.5058 98.5322 -9.04634
7.17485 91.9775 -11.9331
21.9935 101.525 -2.93341
24.5634 102.545 -0.260402
2.52033 87.3614 -12.1535
13.1181 96.6499 -10.3694
24.4788 96.3265 11.057
-7.32536 77.4303 -11.8419
26.6085 99.4163 8.40922
16.7827 98.7874 -8.59787
8.64047 92.2683 -11.2303
5.58615 89.5577 -11.8224
-9.25496 74.6533 -10.8086
22.4509 100.991 -2.66191
6.43291 78.7759 10.0738
15.4718 97.5235 -9.00535
-6.49099 77.9633 -12.248
-0.426803 83.6898 -11.9912
4.28503 76.8423 9.66441
15.4127 97.3436 -9.02504
19.929 100.126 -6.37201
-7.64014 75.8625 -10.9932
7.62776 79.5035 9.95826
18.6271 89.1447 11.8682
-0.308163 83.2812 -11.9447
22.9071 93.1315 12.0812
6.0738 89.2525 -11.5754
18.8466 89.3277 11.8239
5.9931 89.1647 -11.5743
15.0161 85.3148 12.2908
10.4606 93.0712 -10.9352
10.533 81.9323 10.345
4.55644 76.446 9.69444
20.6363 90.6819 12.1293
-2.36292 81.2704 -12.5241
4.20907 87.067 -11.7474
10.8096 81.8469 10.3639
4.11701 75.5785 9.88411
-1.06056 82.0429 -12.1608
25.1312 95.0966 11.2373
15.0097 95.9834 -9.16128
19.6845 99.1615 -6.60779
3.83212 75.0573 10.0006
18.2797 88.115 11.7598
0.00624384 82.8203 -11.8953
20.7934 99.4977 -5.45677
9.56755 80.5128 10.0027
26.9595 99.0822 6.56819
1.05722 83.6084 -11.7129
9.52615 91.4034 -10.9946
0.310844 82.9446 -11.8845
-5.9135 76.7627 -11.6246
25.3617 100.643 0.543913
2.51439 84.763 -11.5043
-6.20467 76.2543 -11.3958
5.84095 76.8549 9.65133
19.3624 98.6388 -6.93278
18.0015 87.4851 11.7297
12.4316 93.574 -10.1608
0.7981 83.1388 -11.8338
25.4564 100.404 0.623948
12.6865 93.6642 -10.1049
16.0261 85.0816 12.0001
12.7362 93.4631 -10.0505
11.7759 92.6941 -10.3606
18.8313 97.8813 -7.30945
18.4523 87.552 11.5543
11.7545 81.6426 10.3962
25.6473 94.7323 11.0091
19.7949 98.211 -6.42892
15.8671 95.5911 -8.77448
4.13081 85.6741 -11.5626
4.08514 85.5529 -11.5294
12.4911 92.7992 -9.99375
26.5925 99.6325 2.92912
9.52983 90.3465 -10.944
10.4571 80.1638 10.1462
20.4283 88.7809 12.0211
14.4708 94.259 -9.43793
12.7467 92.8048 -9.91673
1.27561 82.6348 -11.8041
21.8437 98.4298 -4.3579
1.62034 82.5835 -11.7422
25.5354 99.3774 0.355913
18.1869 96.2551 -7.38983
18.4883 96.3874 -7.14867
27.4624 96.8484 8.38864
24.1797 91.6428 12.1772
17.0654 85.06 11.5757
10.3914 79.2334 10.1594
23.6753 98.6197 -2.39488
27.5552 96.848 8.12635
17.3426 95.4566 -8.06568
-2.74695 77.9453 -11.7523
7.69724 87.6179 -10.976
8.04989 87.8236 -10.9501
19.637 96.5198 -6.17089
18.6376 95.9301 -6.89875
18.686 86.3002 11.5335
21.6864 88.8305 12.2014
-1.80151 78.6562 -11.9079
8.44605 76.9536 10.0533
-5.57027 74.6918 -11.5407
6.74471 75.3074 9.93782
15.6953 93.6241 -8.7252
24.5185 98.2881 -1.41049
17.6045 94.8608 -7.76347
-3.69937 76.1325 -11.5821
24.7155 91.0623 11.9151
9.33181 76.9996 10.3075
-1.78194 77.4787 -11.4823
4.26401 83.2183 -11.3175
11.8331 79.2357 10.1755
11.8923 90.0139 -10.2762
9.11498 76.3275 10.5183
5.84671 84.4463 -10.9934
8.67103 75.7584 10.6149
3.42842 82.3168 -11.5928
14.1404 91.3815 -9.23596
15.4112 81.957 10.9675
26.6489 97.3798 2.24451
21.3937 86.834 12.5193
18.1487 94.0645 -7.2541
17.5201 83.7783 11.1458
4.69572 83.1285 -11.3114
23.1023 88.4493 12.3803
-2.46397 76.1386 -11.3118
27.683 96.7023 5.06661
27.7075 96.4698 5.49134
26.6483 97.0196 2.18286
14.8048 91.3164 -8.97529
21.5578 86.5267 12.5727
23.3819 88.3203 12.3249
13.2694 90.028 -9.63544
18.7626 93.7147 -6.53837
25.029 90.0573 11.7935
18.1926 83.6788 11.18
18.2873 93.2837 -7.01684
12.3778 78.364 10.3161
27.3015 96.5241 3.18287
19.5074 93.5203 -5.48031
13.1402 89.2775 -9.57285
25.8945 96.2866 0.297983
13.3431 89.2593 -9.46207
6.00891 82.9963 -11.0683
27.2266 96.152 2.88061
21.8322 85.7714 12.6366
27.6271 95.9468 3.93316
0.182053 77.5316 -11.5906
14.9065 79.94 10.9627
15.6065 90.756 -8.56265
14.6719 89.9236 -8.8879
2.40486 79.4491 -11.584
9.06687 85.3108 -10.4727
21.6955 85.3709 12.6302
5.73368 82.4259 -11.243
25.6728 89.7724 11.5169
9.18587 85.3062 -10.4415
10.1998 86.0853 -10.2814
10.9827 75.8811 10.5209
-2.49274 74.1409 -11.0639
7.60576 83.5977 -10.5734
27.597 94.0646 6.33462
10.1316 85.8686 -10.2751
9.72187 85.4138 -10.3265
27.1209 91.2722 10.5346
15.6326 90.1424 -8.52201
20.2281 83.8688 11.855
27.4547 91.7498 10.0633
20.4531 92.3499 -4.05507
27.2339 94.046 5.20085
19.8458 92.1779 -4.94586
14.0888 78.5009 10.4366
13.9653 88.5512 -8.99634
27.7125 92.0348 9.61884
-0.305997 75.7578 -11.1629
10.3688 85.3942 -10.148
18.1253 91.3131 -7.13985
3.92499 79.8862 -11.6284
17.1615 80.559 11.4883
24.3772 87.2171 12.0315
15.6514 79.2261 10.9717
26.8137 94.904 1.53508
1.97312 77.6614 -11.4183
17.5221 90.7426 -7.69761
20.0137 91.2447 -4.35558
