ply
format ascii 1.0
comment Created by Open3D
element vertex 1926
property double x
property double y
property double z
end_header
17.7721 115.873 7.80624
14.4845 102.241 -10.3894
20.7719 108.249 -4.35421
20.56 117.941 9.47791
8.52652 113.757 7.91224
-14.6264 94.3561 -11.2092
24.9965 115.196 3.87388
8.25408 99.8743 -11.7947
20.727 108.24 -4.47216
-17.7514 103.284 2.47763
-15.6715 106.472 6.24127
-19.3454 95.6328 -7.82599
-16.1865 105.501 5.00272
9.50631 113.295 6.58861
4.83726 115.634 11.498
-9.98389 111.701 11.1855
-20.5164 97.157 -5.64323
15.8248 103.357 -10.1766
23.0341 110.853 -2.16107
-0.853119 97.5141 -12.4494
23.0639 117.12 6.6213
24.7596 115.761 4.06186
20.7931 118.527 9.38811
-1.80681 114.643 12.1238
-20.7837 98.153 -4.44421
-14.1969 95.0352 -11.3004
-19.3414 96.2388 -7.73394
-20.5136 98.8252 -3.65132
23.0099 111.042 -2.28981
13.1515 113.35 4.31492
-0.319859 115.468 12.1897
-14.3809 108.348 7.19748
-14.7201 107.581 6.10391
-9.75046 112.297 10.9283
-13.3416 109.712 8.55565
-19.9864 100.263 -2.46881
-2.02007 97.9341 -12.3607
-13.9547 108.93 7.63559
12.8319 113.481 4.24509
11.865 102.25 -11.4007
-19.941 100.567 -2.2468
-19.5397 97.295 -7.11735
22.9251 111.472 -2.58329
-1.41183 98.1866 -12.5663
-19.8878 97.8056 -6.40037
24.7196 115.908 3.00444
-16.3415 106.146 4.1341
24.1564 117.181 4.95323
-14.2206 96.0233 -11.3767
10.2985 114.067 5.28399
-1.02299 98.5482 -12.7304
-8.21601 114.17 12.0245
-16.7941 96.9146 -9.38399
-19.9778 100.873 -2.7337
17.469 117.506 7.1717
12.8657 103.666 -10.8191
24.5852 115.173 1.15995
-3.72313 98.4706 -12.3308
0.593615 99.2469 -12.8261
17.5021 117.783 7.30082
-20.289 99.9951 -4.18564
-0.659749 116.72 12.3738
22.811 112.141 -2.83448
22.8343 118.853 6.66699
-16.6135 97.3759 -9.48373
19.8573 109.438 -5.68093
-0.703258 99.1043 -12.8647
7.62665 101.865 -11.9977
0.710657 99.5105 -12.8592
-0.357649 116.978 12.3491
15.6214 105.092 -10.463
20.399 109.994 -5.24401
16.1332 105.404 -10.2687
-17.5882 105.23 1.80736
24.4078 116.67 2.63936
-18.2357 104.258 0.585246
23.5458 118.39 5.31127
9.27614 115.281 6.08915
18.3497 119.724 9.06569
18.7297 119.919 9.18684
-0.795506 99.3672 -12.9073
-4.31053 116.16 12.2442
21.3824 111.027 -4.48229
19.6948 109.543 -5.9781
3.02844 100.913 -12.1568
-20.1835 101.237 -3.26161
-13.3712 109.477 5.90476
-19.4867 102.607 -1.65084
6.8996 102.176 -11.9218
17.224 117.845 6.5144
-14.8699 97.1409 -11.234
-15.2225 107.682 3.82613
5.06033 101.876 -11.853
19.0994 108.12 -8.15924
-9.96602 114.138 11.0138
23.2235 115.081 0.16624
-19.0192 98.9811 -7.27005
0.811856 117.813 12.2436
24.2896 116.915 2.31031
14.252 105.299 -10.6331
-11.7761 112.324 8.84125
-18.5347 98.6367 -8.1549
22.7665 115.638 0.853276
-10.3661 98.161 -11.9222
-14.6981 108.036 3.6302
9.82741 103.387 -11.9532
13.3267 105.235 -10.6139
-20.0256 100.035 -5.89386
20.1935 110.454 -5.81976
-14.4074 97.587 -11.4879
4.81253 102.298 -11.8817
9.13159 103.039 -12.4256
8.20486 102.987 -12.2204
-5.45784 116.887 12.4729
-19.4843 103.203 -1.95979
-8.1296 99.0583 -12.089
12.7881 105.606 -10.5677
-11.3291 113.952 10.1162
19.3295 110.139 -6.52681
19.0875 109.694 -7.18337
-2.89782 100.033 -12.8948
-14.3993 98.0425 -11.5168
-15.2399 98.3992 -10.7408
-2.6937 118.054 12.492
18.9985 109.411 -7.76163
23.1842 119.471 4.99062
5.00271 102.894 -11.9658
23.4971 118.616 3.60661
17.2887 120.139 8.03301
-18.1298 105.115 -0.373244
16.7611 118.219 5.4894
5.01169 102.911 -11.9743
-17.8671 99.2486 -8.93892
6.84573 118.422 9.16783
21.9307 115.524 -0.473078
8.4872 117.365 7.01197
7.76811 117.872 7.89476
-8.13945 99.8165 -12.1092
-17.8988 105.745 -0.13212
3.12751 102.766 -12.2201
-5.7847 117.702 12.2694
-20.3052 102.011 -4.72539
16.5335 107.779 -10.0247
3.19044 102.827 -12.2034
22.1803 121.217 6.83722
-12.0452 114.555 9.84865
12.8394 106.782 -10.3235
-13.6571 99.165 -11.731
-18.2537 104.895 -1.99398
-12.9347 110.432 3.8754
19.091 111.149 -6.93447
11.0804 106.723 -10.3473
16.9959 108.649 -9.78253
11.9395 117.151 3.97806
18.8321 122.498 9.0366
7.97457 104.539 -12.5342
-13.2488 99.6145 -11.8347
11.6355 107.194 -10.223
9.08338 117.887 5.90282
-8.72551 100.701 -12.0244
-1.47461 101.77 -13.2436
-19.8611 104.012 -3.44874
21.8022 122.085 6.97358
0.533572 102.542 -13.0347
-13.8204 99.8456 -11.6743
22.3844 120.362 4.24037
20.9283 114.764 -3.18886
21.8449 121.747 6.39529
-7.24195 101.096 -12.3399
21.4377 113.495 -5.29223
19.2642 122.902 8.83191
-17.3857 106.477 -1.15734
16.0425 109.022 -9.79805
21.8968 121.504 5.78786
-11.8398 115.963 10.2446
11.0497 107.429 -10.2767
18.6449 122.889 8.92255
22.7513 119.5 2.50915
-16.963 100.517 -9.95794
8.86911 118.43 6.04499
-15.8444 100.345 -10.6365
-6.84174 101.369 -12.5081
-16.8998 100.54 -10.0075
4.24956 104.363 -12.3193
20.4125 115.396 -2.54963
19.2976 123.115 8.76907
-19.7273 103.133 -5.40099
-2.33641 120.103 12.3265
6.95215 119.754 8.41658
1.99295 120.885 11.8332
3.88835 104.465 -12.2497
-4.83919 101.666 -13.0464
-6.01208 101.58 -12.7987
7.64451 119.297 7.34589
-18.1519 106.075 -2.01193
-19.8606 104.409 -3.77646
-3.59676 119.953 12.2847
20.9386 114.277 -4.77122
13.0404 118.287 3.73465
6.87477 105.802 -11.8464
16.2401 119.958 4.82598
-3.726 102.133 -13.2386
20.7394 123.148 7.54556
18.032 123.291 8.66281
20.4349 114.558 -4.64057
12.5975 118.5 3.7035
-6.66146 119.227 11.7818
14.8216 109.636 -9.71356
4.65356 105.04 -12.5605
22.0355 118.851 0.664431
-12.1718 116.534 9.87192
-15.8536 109.838 1.69836
-10.3272 118.074 11.2604
10.2625 108.091 -10.5523
-11.9821 114.859 7.17755
-18.6414 106.464 -2.34769
8.20219 106.846 -11.6334
-16.6093 109.027 0.532276
6.26302 120.987 9.1582
11.8841 118.63 3.74926
-12.3926 101.477 -11.7574
-11.02 117.708 10.7293
-7.69008 102.363 -12.41
17.7452 110.82 -9.73403
-10.5982 102.184 -11.6858
-1.45532 121.398 12.2437
-1.16985 103.459 -13.3823
-15.1821 101.454 -11.1291
19.1856 116.731 -2.01033
21.7763 119.57 1.06991
19.8561 113.854 -6.41676
19.1152 116.84 -1.90697
4.23873 105.567 -12.5191
2.52632 105.115 -12.5703
-14.6708 111.097 2.21206
-7.78658 119.363 11.3279
-12.7017 114.933 6.69176
-14.3151 101.741 -11.4859
19.4936 113.854 -6.64158
-18.1402 103.311 -7.89332
15.8481 120.609 4.2495
-0.786203 103.961 -13.3438
-3.8658 120.972 11.9412
1.55321 122.321 11.8523
-7.23977 119.886 11.5223
-12.9387 113.642 4.66209
-2.43949 121.747 12.2654
-18.1698 108.203 -1.24551
-12.9327 113.931 4.97675
20.0485 124.211 7.5223
-12.8451 114.886 6.24984
-15.1574 102.131 -11.1123
-18.6876 105.209 -5.58305
20.9971 121.035 2.39354
-3.90529 103.61 -13.349
-0.907634 104.412 -13.316
-15.2274 102.311 -11.0707
21.0385 123.547 5.83892
-16.0018 110.71 1.10763
-2.59138 103.994 -13.3926
-6.89652 103.367 -12.7756
9.57514 109.045 -10.7478
19.23 114.403 -6.68007
-10.3277 119.27 11.0412
15.8393 121.606 4.65885
-19.083 107.46 -2.68443
6.07932 122.126 8.94668
15.6958 111.254 -10.0335
21.0559 124.125 6.27024
8.9389 108.797 -11.267
18.788 114.109 -7.37058
-15.7667 111.091 0.935714
21.1725 123.277 4.72601
16.947 111.809 -10.0533
6.03825 108.274 -11.1207
18.7446 115.071 -6.11283
18.8541 114.967 -6.32614
0.412939 123.064 11.9096
2.87319 106.419 -12.6559
-18.5219 105.887 -5.58772
5.59907 107.89 -11.6585
1.40574 123.36 11.8372
18.309 115.388 -5.72341
5.81993 108.292 -11.2819
2.82831 106.547 -12.6938
-3.1134 104.532 -13.3996
15.9858 123.421 6.40852
6.4995 109.133 -10.4481
-12.7475 103.517 -11.4029
8.31043 108.937 -11.4209
3.90925 106.88 -12.7407
-16.7894 103.354 -10.2048
-4.80907 104.282 -13.2933
21.2383 119.387 -1.353
14.1406 111.249 -10.3584
21.2036 122.185 2.57595
-10.3051 120.095 11.1103
21.0333 120.213 -0.234288
-18.1166 105.048 -7.48094
18.2785 115.264 -6.36449
3.20607 124.016 11.5156
-17.3097 103.947 -9.54985
21.3983 123.102 3.44172
5.89525 109.44 -10.3789
-2.71536 123.095 12.1491
27.5179 121.887 -0.635916
-17.0451 104.101 -9.72481
-9.04351 120.783 11.0121
-10.8616 104.308 -11.7895
-14.8156 112.092 0.704708
13.0308 121.12 3.3254
-3.77639 105.045 -13.4008
15.5518 122.693 4.60663
7.91074 121.842 6.0473
-8.17453 121.297 11.1409
-2.57945 105.563 -13.2985
-12.2676 104.361 -11.4633
-6.41725 122.041 11.4973
8.62591 121.617 5.35073
-0.0930937 106.615 -12.828
25.832 121.326 -1.41369
26.684 122.495 -0.0652392
27.5257 123.617 1.17284
-18.3765 110.119 -1.36416
-1.996 123.771 12.0484
-12.9979 117.325 6.85262
4.86008 108.987 -11.5509
6.59611 110.277 -10.3931
-4.67348 105.294 -13.386
-7.45618 121.988 11.3638
13.6661 121.806 3.32042
-19.1847 107.562 -4.96013
28.3384 124.23 1.32622
-12.8397 117.308 6.54805
3.82153 125.064 11.3601
-14.6997 104.399 -11.2762
-12.5595 117.128 5.94211
0.929856 107.626 -12.5235
-11.2865 120.178 9.78563
-0.187973 107.354 -12.5601
21.3691 123.295 2.1702
-4.17638 105.789 -13.3862
4.89686 110.011 -10.7792
3.01054 108.327 -12.5794
7.89007 110.656 -11.1141
16.6325 126.799 8.60114
2.06165 125.012 11.3773
21.2342 122.408 0.639309
-9.45053 121.79 10.9524
18.4457 118.282 -4.24456
21.5681 121.368 -1.04606
-18.4864 113.268 2.08307
14.2436 112.641 -10.8231
0.213857 107.962 -12.3589
3.85611 109.116 -12.0845
15.6895 124.145 4.89185
-16.553 112.363 -0.0620418
-20.0702 114.334 3.98399
-16.3206 113.524 1.45452
-16.6598 114.212 2.54605
19.243 118.871 -4.05348
25.4014 124.181 1.11142
10.8198 122.244 3.62482
-18.1555 114.444 3.12671
16.9272 126.94 8.00826
24.0713 122.741 -0.598529
0.488319 125.076 11.3264
-13.8009 113.634 0.287626
24.5618 121.355 -2.77609
9.0901 122.651 4.7198
-20.6447 115.005 4.70656
24.2662 123.684 0.524735
-19.0397 114.349 3.05857
-18.8063 110.802 -2.08969
6.79726 111.587 -10.3841
18.76 118.865 -4.42945
-19.2164 109.012 -4.56519
-5.33467 106.936 -12.6677
-22.486 115.058 4.98176
4.84221 125.843 10.2606
7.5842 111.704 -10.889
29.1592 124.785 -0.19837
16.6276 116.757 -7.04426
29.1586 124.036 -1.33619
15.9357 125.143 5.05478
16.6507 117.704 -5.7912
-2.33802 107.794 -12.9346
-17.6457 108.098 -6.96875
12.3558 122.895 3.08847
9.87093 112.398 -10.9622
15.3468 114.543 -9.98175
17.4662 115.665 -9.22468
28.1593 124.019 -1.28019
-15.6633 113.834 0.259726
18.6949 119.313 -4.55927
-12.4886 117.469 4.20154
27.9765 124.246 -1.0005
21.5933 122.164 -1.63454
22.2428 122.499 -1.43795
-15.9059 113.398 -0.44037
4.43213 126.6 10.8507
-15.4434 106.87 -9.95888
0.932685 109.639 -12.0213
-21.5299 115.901 5.07768
16.245 127.293 7.43255
1.54346 109.849 -12.0086
20.2736 126.128 4.25221
-8.58206 123.603 11.199
7.83344 124.699 6.7468
-8.01118 107.76 -11.6286
5.2195 112.74 -9.40748
22.1687 123.459 -0.376724
19.5002 126.347 4.69576
-13.0603 116.88 3.14828
1.94379 110.122 -11.9784
-4.71201 108.043 -12.5528
15.3121 124.699 3.7911
-6.08619 108.292 -11.7109
-19.0618 116.146 4.18241
3.66721 111.902 -10.1978
17.2242 119.205 -4.77651
21.9544 123.507 -0.435123
26.6423 125.693 0.956475
12.4665 123.499 2.98239
-13.7755 106.439 -11.6991
-17.9777 117.772 5.80417
-14.8355 117.473 4.20019
-10.9408 107.168 -11.9711
-18.9814 111.087 -3.50513
6.06464 113.453 -9.31571
17.173 116.185 -9.50476
8.38775 112.896 -11.0208
11.1988 113.875 -10.6888
-9.5694 107.811 -11.7122
23.2833 121.4 -4.44507
-18.1107 109.295 -6.51131
6.22228 126.312 8.77154
-17.6902 118.484 6.38175
-20.3081 116.961 5.16986
26.2054 126.379 1.52245
21.2552 122.523 -2.17953
8.24675 113.028 -10.9769
-15.6594 114.675 0.11024
-12.4956 120.417 7.06365
21.408 121.661 -3.58529
27.0587 125.033 -0.859545
8.19315 125.14 6.1753
-20.2928 117.74 6.04296
-18.9187 110.92 -4.15974
-19.5268 118.256 6.46781
20.1077 126.581 3.74636
18.4673 126.999 4.86204
27.9381 125.307 -1.03999
19.9885 121.59 -3.46304
15.7471 117.773 -7.34661
21.4786 122.634 -2.5478
-22.1879 117.07 5.50615
-18.8623 110.832 -4.60399
-4.88878 109.105 -12.1745
5.35684 127.291 9.88584
-2.03185 126.611 11.6183
-12.8091 116.352 0.910549
20.3062 121.513 -3.8913
4.20512 113.648 -9.19791
6.65923 114.11 -9.44728
23.4923 121.173 -5.58675
-22.1733 117.467 5.8329
-13.3824 107.301 -11.8371
-16.3868 114.093 -1.08531
15.8437 119.242 -5.58881
-15.8686 114.287 -1.09965
-19.0859 112.456 -2.55339
-19.4204 118.842 6.6427
15.7003 118.928 -6.11889
-18.6274 111.907 -3.56759
17.823 120.103 -5.25538
-4.61779 125.862 11.115
10.8217 124.263 3.17253
16.7841 119.893 -5.23145
24.1927 127.355 2.65593
23.4299 126.789 2.10249
25.3142 127.951 3.03655
-18.7158 110.544 -5.64705
15.7436 128.522 7.2859
-16.223 118.858 5.23002
-11.6131 119.511 4.45228
1.48566 111.545 -11.6785
11.1918 124.424 3.05185
14.3645 116.116 -9.92252
-14.7044 114.835 -1.10975
21.4823 126.236 1.8542
-13.4946 118.274 3.32881
-17.2904 113.895 -1.54489
2.42853 111.918 -11.5958
-17.8356 113.681 -1.67811
23.1027 121.293 -5.83778
3.6124 113.884 -9.2837
25.5526 127.658 2.25046
-17.7792 109.662 -7.50321
20.4953 122.083 -3.85525
-16.1374 119.069 5.24752
-17.0062 108.496 -9.47423
7.34358 114.534 -9.81824
20.1801 126.887 3.02807
25.6555 127.373 1.70982
20.5002 122.216 -3.80145
21.9629 121.789 -4.99763
26.367 126.451 -0.0199405
19.1151 127.28 3.80281
-15.3678 116.934 1.69611
22.465 121.539 -5.63019
-12.5549 120.506 5.66982
24.5633 128.374 3.25348
-9.41234 124.355 9.96592
21.7826 121.828 -5.11015
-23.0642 118.57 6.59216
-13.4733 118.92 3.55071
7.76687 114.859 -9.99579
-11.7683 119.183 3.2518
20.4656 122.427 -3.95542
20.8869 120.456 -6.93548
-0.0476503 127.666 10.9695
-5.74876 110.659 -11.1281
20.6096 121.612 -5.23459
-3.34219 127.145 11.3879
-14.0758 119.149 3.92789
-14.2044 119.178 4.00614
-10.4945 109.196 -11.5518
20.7224 120.233 -7.30068
28.6257 126.55 -1.26616
-12.1059 118.593 2.28925
15.361 117.595 -9.18759
25.4385 127.843 1.69047
6.31185 115.157 -9.37776
5.50117 128.663 10.0131
2.01668 128.325 10.8003
-9.20853 124.79 9.80887
-18.2632 113.841 -2.44696
29.517 125.5 -3.37515
-23.3167 117.208 4.16174
-10.0272 109.568 -11.5865
-12.934 121.198 5.9363
-16.8743 114.301 -2.44146
-7.09435 110.83 -10.9604
1.73876 112.871 -11.3555
-22.2705 116.31 2.26188
20.655 121.223 -6.47499
19.0848 121.598 -5.36869
19.1722 127.607 3.06511
23.5904 128.824 3.15769
-22.8579 119.264 6.54331
-12.0919 118.493 1.50412
21.0423 121.788 -5.94531
19.3783 121.477 -5.80201
-12.2551 119.136 2.4367
-14.6272 115.801 -1.45268
-17.6346 111.981 -5.81481
-14.1863 117.829 1.18582
19.5299 122.871 -4.00884
-12.6984 118.992 2.26698
-2.2359 111.451 -12.2876
20.4175 123.865 -2.96269
-2.13426 111.532 -12.2464
29.5995 127.175 -1.64827
-13.0475 121.102 5.31549
-14.2846 121.194 5.89048
-4.28077 127.34 10.9534
21.4122 126.027 -0.356719
-17.4885 111.211 -7.23934
21.7787 127.855 2.05463
28.5953 126.444 -2.44918
-12.8394 119.856 3.33241
-15.5154 116.892 0.0966471
15.7299 128.016 4.45477
-17.2805 111.918 -6.36232
-14.9697 121.604 6.52827
-4.91054 127.182 10.7006
20.4265 121.477 -6.68973
19.8453 121.538 -6.40171
-8.01226 111.089 -11.0648
-10.8699 110.081 -11.4743
21.0902 124.673 -2.43979
-15.6309 121.928 7.08459
19.6656 123.434 -3.69298
-12.0544 119.728 2.63489
7.93638 127.84 6.83032
21.2327 125.02 -2.04442
3.78622 129.367 10.4834
20.6468 125.316 -1.44788
25.179 128.353 1.20758
-13.7935 116.857 -0.879344
20.8886 127.453 1.47664
18.4223 129.553 5.35339
-4.85531 127.34 10.6927
19.5516 120.273 -8.28708
-15.4931 122.068 7.06622
-25.4138 117.687 4.40223
2.18666 114.995 -9.52827
-15.5097 115.19 -2.79429
4.99592 116.064 -9.09037
-12.6236 122.605 6.64847
27.0255 125.137 -4.28527
30.6698 127.481 -2.2867
28.8643 125.888 -3.91703
15.6159 128.245 4.27749
-17.3284 110.562 -8.80812
-14.4546 116.353 -1.64736
-13.1544 109.951 -11.2526
19.6928 123.003 -4.72003
22.0836 128.832 2.68175
7.64971 128.223 7.08143
-13.6297 118.887 1.5937
-16.7683 111.942 -7.17351
-23.0416 119.897 6.41519
-15.2629 122.312 6.99392
-14.5602 116.449 -1.6328
-15.011 115.603 -2.68026
-18.8171 114.085 -3.46297
-12.5023 110.258 -11.2176
3.2876 129.595 10.4792
-17.1288 122.144 7.33486
19.9412 128.27 2.4592
-12.1713 119.749 2.08363
24.9088 129.142 1.8566
-0.390694 113.115 -11.7921
20.3971 126.204 -0.790582
16.3499 130.646 6.99868
29.0276 126.17 -4.00887
18.9444 122.033 -6.21236
15.1855 119.929 -7.86215
-26.4539 118.884 5.87987
21.1715 128.444 2.03319
-23.2171 118.137 3.61449
-9.10831 125.468 8.84803
-13.8902 110.112 -11.2534
19.516 125.814 -1.15321
-25.357 118.678 5.11818
-12.5247 119.2 1.16075
-24.3742 118.453 4.42958
-22.1678 117.119 1.70756
10.2757 126.598 3.3128
21.319 128.695 2.22487
-13.4056 121.982 5.35404
9.10461 126.907 4.11738
-22.4574 117.949 2.891
20.0666 126.393 -0.675034
-13.254 122.234 5.60299
17.1889 121.947 -5.96416
-12.188 121.044 3.44832
21.2177 126.806 -0.583198
27.3454 125.544 -4.64896
20.7397 125.954 -1.64996
-18.4966 114.092 -4.16376
-12.5145 122.478 5.55435
24.9503 129.638 1.99272
28.3138 128.239 -1.2949
-12.4826 121.04 3.3649
-12.5505 120.801 3.00669
-16.7319 117.306 -0.447254
-26.4005 119.226 5.77453
6.30582 116.942 -9.46554
6.47899 129.909 8.87549
4.35742 116.959 -8.77624
29.0686 128.402 -1.54975
28.1927 128.361 -1.33426
-12.7564 121.972 4.51569
-25.6885 119.922 6.32396
25.3182 129.088 0.682946
-11.5206 123.597 6.32032
-10.0095 111.456 -11.501
26.9144 128.379 -0.960605
-10.1651 111.427 -11.5129
18.4917 123.51 -4.8421
25.0482 125.303 -4.73063
-17.284 115.034 -3.84477
18.3727 123.604 -4.74858
1.84977 116.075 -9.41446
17.7423 125.603 -1.68732
-9.14568 124.727 6.90445
15.4701 130.945 6.71185
7.21552 117.388 -9.54345
-7.90465 113.027 -10.2181
22.4739 122.82 -7.41558
17.005 130.768 5.88156
25.8694 128.757 -0.248126
0.0954302 114.032 -11.7791
9.20174 118.288 -9.07787
25.82 128.832 -0.175655
21.2375 128.057 0.395671
-14.9807 123.649 7.36843
13.0763 127.493 2.54299
-25.0339 118.991 4.39768
24.673 124.072 -6.5934
0.260282 129.592 10.1671
-9.00481 112.39 -10.9086
11.4312 119.261 -8.6353
19.7671 125.062 -3.44761
-4.50235 128.635 10.4516
21.2468 128.421 0.697242
2.57455 117.159 -8.49835
-22.6393 119.011 3.30787
-17.1495 117.716 -0.56122
22.5541 123.242 -7.26167
20.2582 127.415 -0.501704
-8.3428 113.056 -10.4612
-7.75468 126.862 8.94654
-22.2955 117.942 1.57618
-18.2527 122.997 7.27204
-7.89567 113.499 -10.0656
-4.50476 114.145 -10.3919
-25.2017 118.773 3.74065
20.3906 121.31 -9.33916
9.14059 128.15 4.49052
18.586 120.971 -9.18003
20.459 127.662 -0.426798
-21.2733 121.822 6.53339
20.8383 128.028 -0.0555242
-8.11271 113.42 -10.2322
18.6045 122.508 -7.17296
20.8359 129.256 1.57479
20.288 127.622 -0.549535
6.65481 118.505 -8.55942
27.1398 126.157 -5.18001
21.6762 122.315 -8.65143
-17.1934 113.894 -6.47863
24.4424 124.334 -6.87297
19.2076 121.32 -9.29047
8.15473 118.364 -9.45837
-13.8477 118.461 -1.28314
-21.7295 121.944 6.54667
-15.4196 117.279 -2.39644
20.1186 127.985 -0.179079
-10.1256 124.482 5.9015
25.6064 129.57 0.0357416
-23.474 121.512 6.50999
17.6225 123.651 -5.48628
14.6912 121.771 -7.13443
9.1797 119.155 -8.84074
-14.19 118.763 -0.868663
23.171 131.533 3.61041
-14.6021 118.765 -0.746889
27.3504 126.345 -5.34949
19.5606 130.379 3.22649
22.3672 123.457 -7.64651
-13.2871 122.678 4.28744
11.1361 119.91 -8.60541
-16.218 112.092 -9.7305
-3.86084 114.939 -10.2116
21.0116 129.799 1.79917
22.1236 122.84 -8.52046
-9.56263 124.815 5.85011
20.8511 129.396 1.22131
17.9008 121.474 -9.00919
17.881 122.2 -7.96983
16.5022 126.366 -1.56206
20.6484 128.944 0.538898
-11.2743 124.223 5.48752
5.06399 131.402 9.71356
5.2573 131.449 9.65246
15.2068 129.866 3.75972
18.023 121.282 -9.49075
16.7489 125.914 -2.4411
19.4069 130.475 3.05845
27.2965 129.237 -1.60523
-16.0559 112.713 -9.26763
-21.0821 118.034 0.125326
26.9041 129.275 -1.48258
9.9555 119.811 -8.73767
19.6974 125.296 -4.5105
6.05462 120.379 -6.63377
-18.0758 123.945 7.1956
-14.5587 117.59 -3.14809
-5.92401 115.104 -9.84615
20.4858 129.537 0.972571
-15.611 113.938 -8.02509
16.7675 127.569 -0.501261
15.7722 126.338 -1.91449
9.97401 120.121 -8.64693
-8.37563 126.66 7.33262
10.3555 120.338 -8.50849
9.18603 129.485 4.89508
-13.2619 123.146 4.06634
11.5564 120.413 -8.93621
-2.20881 129.602 9.14356
9.9447 120.271 -8.5852
23.876 124.919 -7.07524
28.9708 129.211 -2.8654
-14.5447 119.24 -1.12369
-4.05634 115.841 -9.8011
-14.8726 119.07 -1.26752
10.7081 120.807 -8.26353
-9.67659 113.549 -11.1286
-4.40087 129.738 9.95505
-14.5819 112.432 -10.9386
-6.22976 128.377 8.6501
21.0533 131.629 3.2681
-15.1026 119.121 -1.29751
-15.0825 117.899 -3.04275
-18.5382 118.473 -1.00959
8.47613 120.667 -7.82776
8.44935 120.999 -7.36649
5.37716 120.731 -6.62734
-17.6828 114.979 -6.37589
11.4792 128.601 2.30777
19.7655 129.241 0.176813
13.3295 119.697 -11.1144
16.9911 123.472 -7.08938
-25.6703 121.638 5.89299
1.33498 131.101 9.43673
24.3914 132.369 2.79488
9.65955 120.678 -8.44039
-12.7702 124.043 4.54041
-8.34861 127.276 7.49101
-11.2177 113.631 -10.9894
15.366 131.329 4.42429
-15.894 125.424 7.46307
29.09 130.118 -2.34274
28.8967 129.525 -3.11821
15.7801 125.944 -3.42089
-19.1263 124.238 6.90654
-22.9171 123.149 6.73947
-25.8465 120.703 4.32864
13.9335 129.72 2.513
-14.7602 118.553 -2.88219
25.5744 131.057 0.114783
6.79385 121.723 -6.33903
17.7877 124.875 -5.88988
20.4795 129.719 0.0107579
-13.7265 120.833 -0.110944
-4.88272 116.568 -9.45155
18.9547 131.785 3.41369
24.2386 125.603 -7.31471
29.138 130.275 -2.47269
-21.4212 123.868 6.89566
-25.504 122.091 5.84604
-14.2319 119.935 -1.40678
-24.8204 120.799 3.68005
9.2712 121.863 -7.28716
-13.4209 119.608 -2.24033
-2.8018 116.538 -10.4985
-17.5011 115.424 -6.70533
24.1318 133.032 3.01867
11.8895 129.318 2.19223
28.7507 130.355 -2.54708
4.85714 121.407 -6.53869
18.4125 132.234 3.75918
-18.2202 116.645 -5.03821
-13.7038 120.215 -1.61958
-0.692169 131.028 8.93116
11.9244 129.514 2.16095
-15.514 119.025 -2.72386
-9.65414 126.921 6.34945
19.9879 131.163 1.51146
-5.56835 116.976 -9.31026
-10.0279 114.582 -11.0842
-9.23238 115.331 -10.3674
-15.5656 118.463 -3.64436
-13.8957 120.894 -0.813041
-14.9271 115.145 -8.62224
14.2427 123.142 -7.95218
-15.3614 126.623 7.79359
12.2133 129.747 2.14405
19.8543 121.303 -12.7117
-2.4668 117.143 -10.5312
13.0498 120.643 -11.2414
18.6274 130.515 0.744248
18.4006 130.948 1.38844
27.5278 128.473 -5.51824
-0.484017 117.47 -10.9194
-4.42716 117.687 -9.1804
25.177 126.853 -7.01756
-9.3329 115.705 -10.2573
15.0862 131.991 3.94463
-13.6804 113.908 -11.2512
17.456 122.411 -10.5877
-15.2455 119.029 -3.45338
3.69089 121.471 -6.91387
-3.22245 130.636 8.61105
23.6765 126.295 -7.45753
18.6075 132.119 2.67003
21.3905 123.776 -10.2228
-16.2133 118.412 -4.09204
19.9351 122.132 -12.031
-19.2587 119.332 -1.68716
-15.4982 119.856 -2.33656
-13.71 114.092 -11.1946
-14.0781 126.524 6.58806
-12.6954 126.159 5.53086
18.6927 131.16 1.11089
22.0856 125.127 -8.72378
17.1884 127.607 -3.41848
-15.1998 118.93 -3.91491
22.1479 124.601 -9.52563
-15.1879 120.175 -2.16188
26.9649 128.553 -5.69302
25.0028 133.537 2.10597
22.8912 126.311 -7.39664
14.6044 132.952 5.0659
-10.9466 126.053 4.56059
-16.3045 118.717 -3.91135
-22.847 121.724 2.74484
10.4956 130.351 2.79055
21.9415 126.049 -7.55829
0.575217 118.7 -10.2394
22.0083 125.443 -8.51515
9.64167 131.071 3.9493
-3.93112 118.382 -9.14116
10.0768 130.604 3.0462
13.7372 121.91 -10.6954
9.42755 132.017 5.23334
-14.8788 120.418 -2.37971
-15.5536 116.461 -7.75963
-14.2687 127.253 7.08196
22.8629 134.193 3.35256
-13.9638 121.572 -1.13286
19.8306 122.033 -12.886
19.5154 121.963 -12.9306
-19.4453 119.709 -1.89371
-19.4965 119.717 -1.88754
10.9928 130.6 2.39523
-13.4514 120.743 -2.71855
28.8705 131.415 -3.16827
0.946542 132.438 8.49357
14.5963 123.486 -9.24783
-23.4339 125.191 7.02928
3.8659 133.354 8.64188
-14.0162 127.578 6.96241
-7.14827 118.09 -9.05928
-16.5549 116.674 -7.63178
26.8442 129.308 -5.56909
18.3392 132.587 2.19337
-13.9888 121.788 -1.35582
17.4419 126.04 -6.86061
11.3153 121.881 -10.5379
14.3202 123.06 -9.97069
8.48 133.966 7.64601
11.0451 130.899 2.30798
22.1676 127.169 -7.08396
8.65757 133.283 6.53713
14.689 123.522 -9.57343
11.6385 122.091 -10.5012
17.4205 124.754 -8.89079
-15.5767 120.385 -3.06106
15.7017 125.545 -7.22211
20.8015 133.88 2.76101
-6.18251 130.45 7.73511
14.6141 123.653 -9.54668
-0.9181 132.217 8.29895
28.4329 132.038 -2.69992
25.7089 133.046 -0.28088
-9.21855 128.886 6.57045
-24.0128 122.804 3.28754
8.77651 133.104 5.92383
-11.9203 115.697 -11.283
-17.0316 127.561 7.39931
3.26872 122.935 -6.6323
-15.4537 128.512 8.12619
-11.2214 127.568 5.20252
-7.42335 118.573 -8.97833
13.885 134.329 5.58578
0.622691 120.259 -9.61277
20.501 123.884 -11.747
-15.2495 121.565 -1.97359
-17.4658 118.179 -5.9875
-1.58008 132.323 8.29538
-13.5526 128.24 6.84572
-22.591 122.287 1.65387
16.8741 124.782 -9.25682
25.9504 130.073 -5.07856
-18.725 127.14 7.02387
13.2499 123.313 -10.119
-14.0945 117.042 -9.03792
-7.44002 130.244 7.28724
-13.8631 115.879 -10.8075
-11.0723 128.595 6.21425
26.9883 130.589 -4.89108
9.50868 132.383 4.03446
-21.211 121.227 -0.614106
15.3167 126.287 -6.78887
-15.7755 120.802 -3.21223
-12.1769 116.087 -11.2557
5.30871 133.815 7.51902
23.8807 135.513 3.0879
-17.7935 118.216 -6.29653
14.3281 132.892 2.74056
5.70149 124.981 -5.35612
-0.144943 132.961 8.11986
21.8509 125.74 -10.2191
24.5507 130.099 -5.01075
-15.5616 119.742 -5.09041
24.2897 129.952 -5.19369
-13.2498 128.667 6.70722
17.441 128.371 -4.97414
-17.0848 117.709 -7.51418
8.62063 133.554 5.48959
-9.34409 129.977 6.90392
23.0399 129.188 -6.19605
13.9105 134.916 5.26924
-17.7664 128.178 7.26287
22.9428 129.076 -6.36885
17.1266 128.446 -5.18568
-3.31753 132.43 7.90713
8.26255 134.96 7.2599
14.2816 134.409 4.23181
27.9157 132.865 -2.96228
-14.36 122.197 -2.67059
16.4547 126.695 -7.57638
14.5588 127.55 -5.72289
25.9812 134.226 -0.443744
15.4478 128.572 -4.62899
14.0502 124.261 -10.2611
3.59243 124.595 -5.98819
-14.5928 122.437 -2.40707
-9.54347 130.387 7.04714
-21.4505 121.943 -0.624292
-11.122 117.654 -10.5823
13.5821 125.261 -8.80826
3.27706 124.404 -6.29544
-13.9402 117.832 -9.36707
-0.263463 133.569 7.9822
-17.9275 128.574 7.29026
-10.9833 130.124 6.93715
-23.1455 123.605 2.11116
16.667 126.153 -8.84505
-14.6828 121.956 -3.34344
8.56266 135.292 7.07854
17.658 135.532 4.05685
-21.5733 122.177 -0.597486
-12.4965 117.045 -11.2772
14.4921 128.613 -4.71634
-22.5791 122.824 0.614448
18.5947 134.829 2.58236
17.6118 125.111 -10.9143
16.36 126.695 -8.22153
14.0946 126.214 -8.09185
17.5287 126.279 -9.26324
13.4407 133.31 2.2256
24.6054 131.63 -4.27873
13.7936 124.568 -10.393
-3.74182 121.659 -8.13289
-11.9864 117.458 -11.1321
-10.3151 130.78 7.12487
9.69954 123.972 -9.88105
15.9716 129.342 -4.59633
-11.6935 117.847 -10.8423
16.4504 128.345 -6.2181
13.8427 135.337 4.60093
9.91163 124.034 -10.036
-22.7565 127.588 6.90149
10.7601 123.91 -10.6043
-9.21552 131.252 7.14025
12.8753 133.216 1.84895
13.1154 124.336 -10.8739
15.4383 127.477 -7.26948
6.19262 126.715 -5.00095
-12.0995 130.739 7.40824
-0.913983 121.656 -9.62268
17.541 130.47 -3.85849
-13.7259 130.895 8.18099
14.4256 134.687 3.24883
12.422 124.281 -10.8175
22.743 136.561 2.85473
2.45017 134.742 7.67051
19.7159 135.521 2.44097
3.65647 125.712 -5.64737
8.86785 134.189 4.4385
15.497 127.014 -8.18959
8.5844 125.168 -8.28518
-0.712171 122.277 -9.06702
17.3201 129.163 -5.88861
0.100423 123.031 -8.32279
-17.0659 129.825 7.61007
-16.0036 130.267 7.84426
11.359 133.409 2.27805
13.8359 134.122 2.36197
-24.8152 126.235 5.20596
-10.7308 131.521 7.55092
7.084 126.931 -5.52124
14.2637 134.467 2.54914
-19.6962 128.714 6.74501
16.3416 129.124 -5.86801
-1.80273 122.06 -9.31419
1.07982 123.819 -7.88049
-21.1037 128.207 6.44048
-0.676861 122.964 -8.49733
-15.9 121.554 -4.93515
-2.52379 122.196 -8.93454
-22.9023 123.709 0.6646
17.4111 126.9 -9.58317
1.39708 124.114 -7.72024
9.42223 124.858 -9.60617
16.6575 129.901 -5.09226
-22.098 128.22 6.67976
8.65992 125.645 -8.24155
17.5755 126.243 -10.7276
-13.9572 118.901 -9.6405
13.9633 136.148 4.64926
4.09254 135.208 6.92182
-2.34532 122.333 -9.03723
-16.2287 121.472 -5.22756
27.1962 135.142 -1.69487
1.86852 135.151 7.51942
6.51009 135.789 6.67592
2.58927 125.675 -6.26928
21.7558 128.384 -9.43111
-5.76922 132.691 6.74718
11.0046 134.415 3.01261
0.156588 124.042 -7.77649
-6.7727 122.249 -7.87369
4.99618 127.414 -4.90515
4.15663 127.08 -5.10297
17.6511 136.848 3.8331
22.354 137.181 2.57081
-20.0207 122.726 -2.52693
20.2711 126.832 -11.4793
-11.2669 132.5 8.05154
21.8839 129.801 -7.98632
2.25564 135.364 7.09519
-16.1652 122.717 -4.26454
19.2304 126.31 -12.1101
-10.334 132.402 7.27549
20.1117 127.063 -11.4672
15.6799 137.571 5.08874
26.8771 135.811 -1.53898
-4.93025 123.505 -7.40553
-17.2289 130.901 7.57069
-17.3425 130.873 7.56363
14.6967 129.233 -6.54026
-20.1782 123.111 -2.5306
8.90606 126.723 -8.05101
-14.7963 124.09 -3.15847
14.0638 137.062 4.69298
-5.90537 133.163 6.41893
-3.36305 134.413 7.23582
-3.34752 123.622 -8.12155
-0.452532 135.227 7.3049
8.07776 127.8 -6.39375
-16.8712 123.113 -4.0086
-3.90134 123.883 -7.66409
-11.7035 119.754 -10.7047
-14.7876 120.924 -7.93103
9.42906 126.284 -9.17092
-1.2406 124.3 -8.10779
-16.2049 123.764 -3.4071
15.1463 138.258 5.64117
24.6237 137.947 1.73025
18.9347 138.197 4.09773
-10.281 120.987 -9.69482
21.8744 130.413 -8.06072
17.9693 127.505 -10.8347
1.48942 126.298 -6.53335
-21.1483 123.811 -1.79293
17.3136 131.676 -4.69064
16.6177 129.764 -7.16958
-8.56937 121.996 -9.02068
-15.1237 124.483 -3.09035
24.8544 134.975 -2.82665
12.6874 125.887 -11.2965
10.3596 126.071 -10.1856
15.0208 128.319 -8.70894
15.7914 128.59 -8.62492
9.45056 136.212 4.52509
-17.568 131.522 7.66857
21.4935 129.495 -9.50936
-0.972751 124.999 -7.68977
-12.5227 119.938 -10.6662
21.6759 130.343 -8.38809
-10.3098 121.154 -9.76149
18.5937 127.492 -11.3349
-15.4718 123.705 -4.26256
9.07668 137.445 6.25484
17.16 131.183 -5.60869
14.8153 130.398 -5.87085
-3.33457 124.336 -7.8538
0.229501 135.744 7.01884
-15.7574 123.021 -5.24408
-4.42367 134.384 6.75812
-15.8685 123.141 -5.03954
9.42174 136.43 4.55557
16.6449 128.856 -8.85738
-17.3445 131.775 7.6574
-15.0652 132.724 8.15745
16.7752 129.018 -8.82546
-7.21509 123.141 -8.40703
-12.8688 120.33 -10.3672
-14.3954 121.229 -8.5372
16.9906 129.793 -7.84861
23.8588 134.536 -3.65643
-23.6963 126.315 2.03405
5.91794 129.016 -4.96431
-15.289 123.285 -5.39306
-5.12757 134.288 6.53115
6.49747 137.2 6.41482
16.4667 129.791 -7.85922
9.42732 137.888 6.22123
-6.50368 133.599 5.94931
16.1152 128.924 -9.00806
-5.92581 124.284 -7.54179
-16.3527 123.631 -4.69865
16.6262 130.577 -6.95384
-14.8511 121.844 -7.92126
-16.366 123.747 -4.68682
-18.5959 124.075 -3.41556
14.8266 130.26 -6.92293
-21.7532 130.278 6.46797
14.9382 130.111 -7.24758
-15.7015 123.509 -5.44124
16.5435 129.521 -8.71835
-15.6137 125.354 -2.89433
-2.85965 125.059 -8.01885
17.3728 130.575 -7.61031
25.3318 136.423 -2.2255
-2.98963 125.132 -7.91717
-20.4388 131.102 6.92962
17.3439 139.255 4.64039
23.2627 139.54 2.87492
14.4509 138.904 5.1672
26.0305 138.578 0.452221
-6.32135 134.209 6.05408
19.9526 139.381 3.74463
25.9916 137.49 -1.16994
26.0358 137.741 -0.860012
11.9725 135.885 1.62193
18.8589 128.584 -11.2801
-10.3754 121.95 -10.0352
23.5773 133.769 -5.67289
21.3221 139.281 2.97483
15.2467 131.18 -6.31983
3.86811 137.265 6.48951
14.896 128.397 -10.1812
-6.33804 134.449 6.17276
-16.599 122.666 -6.83765
-19.3922 132.167 7.69003
22.3536 131.91 -7.96482
23.9784 139.791 2.63982
22.0779 131.62 -8.30695
17.0294 130.461 -8.14379
25.5965 137.234 -1.70388
-0.013508 127.298 -6.46089
-16.4542 123.627 -5.66518
25.5408 138.957 0.754055
-3.35463 125.694 -7.55734
-15.2472 124.104 -5.49355
4.08124 137.592 6.58629
25.6159 137.662 -1.25803
-16.4898 123.491 -6.04446
25.3905 137.337 -1.70158
9.13559 138.663 6.10764
-10.4229 135.096 8.15669
16.3033 139.867 5.15703
12.7384 127.294 -11.4163
-15.2097 124.501 -5.17966
9.17341 137.723 4.69297
-23.1685 128.878 3.91035
-2.19017 125.846 -8.12045
-1.75571 136.243 6.49964
19.9451 139.974 3.85421
2.91662 137.102 5.97982
-16.2444 123.696 -6.08171
22.723 133.472 -6.52653
15.2362 129.401 -9.59016
20.3216 130.257 -10.2395
16.7122 140.062 5.00346
19.3008 140.305 4.2989
-14.2607 122.496 -8.7811
25.629 139.382 0.625727
18.2479 140.295 4.56859
19.3281 129.769 -10.8249
2.06003 137.065 5.85345
2.49023 137.145 5.76664
-17.7313 125.093 -3.9994
-9.83936 135.522 7.89588
17.437 129.825 -10.1947
-10.2418 135.642 8.17519
-3.64474 126.531 -7.22821
-16.6851 134.262 8.49754
-1.76686 126.869 -7.47245
16.7192 132.713 -5.94435
9.20079 137.477 3.55983
21.582 132.062 -8.66829
-5.84783 125.546 -7.89638
17.8324 129.865 -10.4245
2.02024 129.631 -5.02862
16.1805 130.863 -8.48811
-14.4818 126.658 -3.25453
17.6928 140.573 4.74124
18.7256 140.684 4.51407
8.53275 139.136 6.01278
-15.3203 124.96 -5.41502
0.318558 137.002 5.95303
21.3764 140.448 3.13056
-15.8176 124.2 -6.36208
-21.8001 129.363 3.16618
1.99449 129.798 -5.00638
4.94219 130.842 -4.75521
-15.661 127.183 -2.42345
-10.8726 122.974 -10.2034
-22.2259 130.396 4.47416
-22.3091 131.255 5.70903
11.0448 128.632 -10.3031
-4.15153 127.245 -6.71777
-2.94591 126.97 -7.57373
-14.3825 123.192 -8.81808
-12.1186 123.09 -9.86005
9.36528 139.186 5.12554
18.7557 141.235 4.58961
22.0932 134.12 -6.84273
2.03377 137.698 5.58172
23.6329 135.817 -5.03262
-0.824295 137.167 5.81894
15.4795 131.33 -8.48453
15.2877 141.126 5.4867
19.0371 130.649 -10.7799
14.5014 130.128 -9.91701
8.74802 130.744 -6.93955
-3.93733 127.746 -6.57926
12.8485 128.941 -11.0372
11.7273 137.448 1.45954
-21.7465 131.5 5.1998
-17.3455 126.121 -4.08176
-8.89602 124.352 -9.68782
14.522 140.254 4.33982
-16.3104 126.821 -3.54342
-14.6671 127.308 -3.55023
10.4918 138.183 2.58865
-10.3818 136.497 7.82116
5.92734 131.511 -5.23859
15.2536 132.64 -7.18417
15.1502 141.414 5.32641
-7.68661 125.527 -8.9326
22.1088 141.81 3.26995
16.6204 131.769 -9.00266
-11.2289 136.682 8.13009
24.4786 139.643 -0.734301
-2.31066 127.962 -7.5542
9.16996 139.865 5.06376
-16.0433 127.975 -2.6237
20.6054 133.075 -8.79483
-10.8991 124.546 -9.40237
-21.0524 133.805 7.38504
-21.9415 130.428 2.90636
-14.7996 127.679 -3.62231
1.57146 130.878 -5.09029
15.4543 132.507 -7.94404
-10.2344 125.265 -8.92268
-1.17303 128.945 -7.09345
-20.9899 134.03 7.3644
-2.08938 137.913 5.93802
17.5324 142.213 4.86542
-19.386 126.673 -3.77063
-11.5916 125.401 -8.50134
12.3074 129.778 -11.0487
18.9866 131.943 -10.4227
-15.8159 127.452 -4.09828
-6.34684 126.866 -8.41804
-6.92403 126.571 -8.69412
-21.7622 131.693 4.00766
23.9892 138.85 -2.56827
-10.3509 125.871 -8.48891
-7.27545 126.48 -8.79226
15.6579 132.491 -8.66983
9.40499 140.723 5.28486
10.9598 130.29 -10.1373
15.4323 133.281 -7.53523
-15.6612 127.737 -4.06019
-13.3924 137.059 8.23669
10.6936 130.599 -9.77814
-3.31367 129.456 -6.27923
12.0386 138.91 1.47274
15.8031 134.395 -6.32742
-15.6614 127.552 -4.56381
6.22008 141.04 6.58227
14.2765 141.042 3.61889
-18.1311 136.04 8.33212
17.2523 133.511 -8.21214
-10.1905 137.136 6.93589
9.40552 141.36 5.69887
11.7471 139.253 1.81251
16.6355 133.282 -8.48072
-11.8945 126.385 -7.89106
-9.39412 136.928 6.17531
17.7255 134.425 -7.31602
-16.5906 128.264 -3.55588
-15.126 128.308 -4.08057
-15.3901 126.784 -6.16048
19.5379 143.238 4.44685
-9.42931 126.627 -8.60626
-21.7345 130.452 1.32624
10.7643 139.873 2.8124
9.88313 141.734 5.67298
7.83629 132.948 -6.07133
-11.3889 126.561 -8.14297
23.4987 137.788 -4.96031
-15.3357 137.295 8.45453
-21.3572 130.101 0.414925
-15.4561 129.76 -2.26229
-2.90406 130.015 -6.53113
7.24703 141.466 5.97192
-0.380429 138.977 5.21233
-15.2674 126.994 -6.43489
8.43161 133.245 -6.26823
-20.6306 129.836 -0.484451
16.4346 133.656 -8.61401
5.75219 141.504 6.4436
-20.0467 129.296 -1.52803
-1.39747 138.932 5.34132
-11.4434 138.343 8.1519
-1.57982 130.401 -6.8136
-8.86105 127.182 -8.72753
18.1546 135.057 -7.46772
17.2554 134.301 -8.29119
10.7208 131.66 -9.7211
-11.5555 126.952 -8.29385
20.4773 143.908 4.07129
6.97216 141.905 6.14989
-13.2219 127.094 -7.59588
13.4586 140.454 1.61436
0.851149 139.596 4.98076
-13.5904 127.198 -7.38593
-2.74435 130.555 -6.64837
17.327 135.53 -6.94088
17.1444 134.497 -8.36422
-20.1321 130.117 -1.02632
-19.837 129.712 -1.71812
0.733988 139.699 4.95143
9.88668 142.369 5.39633
-7.55257 137.983 5.39639
22.4345 137.348 -6.50907
9.56246 141.005 3.39683
9.20985 142.53 5.65561
19.1886 134.299 -9.71075
-14.9669 130.405 -2.81622
15.0468 133.562 -9.31087
-8.63635 138.026 5.66331
23.0596 138.413 -5.42031
14.8981 133.57 -9.38519
23.9456 143.124 0.869982
9.11406 142.662 5.63758
8.73141 134.066 -6.48804
-17.1517 128.993 -4.23803
-21.5952 134.403 5.00215
-15.1789 128.659 -5.51634
-15.1771 127.616 -7.04004
17.1885 135.035 -8.35794
12.0617 132.028 -10.7635
-3.63891 139.311 5.3196
-19.6416 130.122 -1.93061
-3.51811 139.417 5.37885
16.4438 135.77 -7.12559
8.85495 134.18 -6.6124
-10.1563 128.208 -8.17847
-15.2879 129.281 -4.79489
-10.1368 128.236 -8.17418
-4.24853 139.009 4.98152
-0.708397 132.593 -5.54295
18.6847 144.425 4.16879
20.0872 144.618 3.90853
17.2099 136.477 -6.63342
16.498 143.936 4.15804
-13.8415 138.999 8.23358
-14.4968 130.65 -3.39588
24.0147 143.41 0.636916
11.3693 141.216 2.12293
13.7779 142.736 3.38461
16.9033 136.432 -6.73618
20.622 136.066 -8.6254
-8.95072 128.885 -8.03274
9.46177 134.117 -7.36389
16.9383 136.791 -6.30271
24.5124 143.326 0.204754
-4.00963 131.347 -6.40263
-15.2343 128.804 -5.93867
18.1351 136.68 -7.02775
-0.115041 140.294 4.77249
-15.9286 130.429 -3.49436
-18.247 130.325 -2.83251
-16.1594 130.636 -3.16677
18.0084 144.56 4.12326
-21.5394 135.073 5.10368
-9.44614 128.952 -8.02835
11.7249 141.324 1.81154
-14.9567 130.769 -3.43674
21.925 144.509 2.59576
17.0023 136.687 -6.72675
3.83745 134.808 -4.60836
-9.78739 138.792 6.00488
15.2692 134.436 -9.37771
-18.9101 130.489 -2.57029
18.49 136.788 -7.31385
10.7776 133.887 -8.62988
9.18558 134.7 -6.96926
19.4342 136.509 -8.15371
21.4126 137.391 -7.63093
-14.862 139.229 8.2334
17.1643 144.675 4.21947
-14.0027 128.945 -6.76309
15.5114 144.169 4.05721
6.72945 143.425 6.19643
7.27153 135.191 -5.72304
23.1384 140.187 -4.46084
6.25275 143.468 6.38004
13.9247 143.778 4.01174
-21.7032 134.269 3.49161
22.08 138.723 -6.21251
21.2441 137.676 -7.45452
0.707159 140.868 4.56527
-8.67465 138.881 5.16888
20.4588 136.557 -8.80232
11.3963 133.877 -9.32372
16.0724 135.301 -9.01924
-17.0122 138.713 7.89407
7.30289 143.803 6.20266
-5.69028 139.533 4.8852
-0.741291 140.684 4.64072
8.88521 143.758 5.43214
-15.411 131.773 -2.77435
3.67906 142.669 5.6807
9.13451 142.481 3.4009
12.5731 133.386 -10.8148
-6.47334 130.563 -7.89932
-10.3973 139.745 6.58091
-15.5355 131.901 -2.7682
-21.1392 136.234 5.40435
15.3738 144.659 4.01065
-5.8899 139.862 4.96193
20.2672 145.448 3.33303
20.9029 145.402 3.01509
-15.0721 132.174 -2.72775
-18.6046 131.835 -1.9579
1.44222 135.819 -3.71431
-8.50401 129.988 -8.40547
-15.4613 131.739 -3.37705
22.3888 140.406 -4.90595
21.6726 139.6 -5.86822
3.02044 142.595 5.17755
-6.94974 139.962 5.0493
17.1888 145.482 4.05038
-12.5611 128.655 -9.01159
21.1495 145.567 2.69412
-18.3219 132.075 -2.1228
-3.99713 133.474 -5.42499
-5.51647 132.481 -6.28696
-0.452186 135.315 -4.23988
-19.3114 132.2 -1.77067
9.08658 142.894 3.03042
21.2375 139.067 -6.9254
15.2385 135.754 -9.47078
-18.9969 138.601 7.07684
-13.4028 130.281 -6.89225
-6.6678 140.466 5.09261
16.5052 137.511 -7.60849
6.93896 136.382 -5.74261
3.91603 136.411 -4.59532
0.296142 136.16 -3.64709
15.9432 145.695 4.15571
21.36 140.179 -5.81888
-15.4129 132.58 -3.22384
-16.3841 140.162 7.88274
-17.8263 132.476 -2.53921
-4.29362 141.398 5.12718
18.4874 139.04 -6.58422
22.7865 142.539 -3.2029
9.83914 144.704 4.55397
-2.8652 134.788 -4.903
10.2929 143.051 2.0177
-9.49019 140.485 5.60339
-14.2922 141.052 8.14579
-4.25981 141.473 5.0708
-3.22577 134.753 -4.89664
-20.097 132.961 -1.27967
-16.2059 132.363 -3.56407
23.297 143.898 -1.65578
6.71386 136.77 -5.8066
13.7833 135.502 -10.2303
12.3564 135.078 -10.3187
17.2622 139.95 -5.24772
17.2889 146.374 3.85023
-14.1492 131.529 -5.76709
12.1256 135.224 -10.154
13.1271 143.873 1.73533
-15.1453 131.572 -5.44312
2.30002 143.328 4.88241
-10.4328 141.191 6.41211
-21.3188 134.385 0.678634
-14.5025 141.306 7.99726
-14.6796 131.792 -5.46907
22.4165 145.681 0.681767
-17.0302 134.31 -1.06933
-0.456316 142.252 4.12928
-15.2841 131.828 -5.26756
19.8321 139.695 -6.9869
4.15944 144.826 6.02861
-20.074 133.468 -1.40257
-18.8375 139.436 6.59612
-14.8215 132.178 -5.22457
-13.2215 130.989 -7.50189
-14.8682 141.445 7.85942
-3.20861 135.793 -4.46139
-21.0797 135.55 1.72801
-12.0279 130.133 -9.29268
16.4874 139.381 -6.61133
14.569 136.711 -9.73457
9.59813 143.915 2.24406
-12.2989 130.341 -9.07994
-12.01 142.131 7.55642
12.7105 144.038 1.16907
15.3094 138.093 -8.30787
13.7999 145.878 3.30038
7.91833 137.299 -6.7466
-20.0423 138.658 5.37588
12.9821 144.417 1.4612
-16.766 140.982 7.45904
-15.6543 134.673 -1.98052
21.6067 143.264 -3.42106
-11.6063 130.578 -9.30739
12.4502 144.225 1.20743
14.7232 137.264 -9.54281
-18.7931 134.007 -1.93212
-4.79611 134.893 -5.81038
-19.6554 133.893 -1.81886
-18.7859 133.705 -2.46342
-12.398 130.931 -8.75431
18.7395 141.133 -5.67562
16.5907 140.987 -5.11129
-4.47114 142.298 4.4324
-21.0044 135.636 0.979434
1.30443 138.176 -3.63076
-13.0712 142.522 7.77498
-18.8314 135.132 -0.635343
21.8421 146.537 0.681618
1.60059 144.207 4.77476
-19.7636 134.289 -1.53548
0.608137 138.132 -3.54524
-17.0088 141.227 7.27764
0.273424 138.133 -3.50324
-11.5304 142.734 7.35585
-7.63578 132.776 -8.27999
-16.4062 135.512 -1.25703
-15.5595 135.363 -1.78994
8.36918 137.819 -7.0942
20.2576 147.223 1.82172
-16.7632 141.578 7.27083
18.5183 147.449 2.68801
-10.555 142.4 6.11899
-9.27789 132.085 -9.03757
13.4073 137.138 -10.1788
-18.8055 140.203 5.89009
1.02562 144.186 4.28025
-20.0199 139.142 4.7396
13.9344 138.959 -8.02547
-0.367683 138.503 -3.51099
21.9536 145.027 -2.40858
8.37043 138.196 -7.16728
-9.30251 132.318 -9.05887
21.2142 147.169 0.878588
-17.9081 136.273 -0.306053
-13.7135 133.748 -5.55091
-17.6083 136.319 -0.575091
-17.1531 136.207 -0.9434
12.436 145.345 1.20403
13.1076 138.449 -8.99528
-10.5918 132.12 -9.32837
-11.8773 132.171 -8.86407
-19.8339 139.216 3.92361
9.26599 147.104 4.36911
9.59769 138.409 -8.13956
-11.7955 143.755 7.19439
-11.7911 132.766 -8.46244
7.16859 138.894 -6.73642
-11.8267 133.168 -7.93865
-5.49977 143.202 3.98713
-16.5426 142.389 6.85786
-14.2302 134.436 -5.30774
21.5913 146.574 -1.20344
12.0202 145.888 1.26225
-15.3631 135.817 -3.0586
11.9883 145.905 1.2667
-5.09882 136.337 -6.14611
-17.2926 137.007 -0.744711
-13.0033 143.812 7.21721
10.1389 145.933 1.72882
11.4173 138.005 -10.0249
-11.3024 133.367 -8.36483
-14.3613 143.542 7.18203
13.7603 147.545 2.45009
-20.2099 139.026 2.73647
13.3338 147.184 1.97755
-2.22577 139.081 -3.91088
-10.9065 133.068 -9.31845
-14.1574 134.977 -5.41658
8.08667 139.404 -7.32099
-5.78035 143.669 3.79347
-18.3087 141.65 5.5008
-0.492992 139.943 -3.49543
3.55359 140.574 -4.07911
-4.62716 137.188 -5.90294
0.966139 140.351 -3.5627
-15.7006 137.601 -1.42137
19.0703 148.53 1.31633
11.5756 139.297 -9.19306
-11.9854 144.42 6.70469
9.40902 139.452 -8.22557
10.5193 146.594 1.47266
8.49948 147.872 4.02209
-6.48927 136.129 -7.24387
12.0483 146.858 1.21912
-15.6754 137.928 -1.40115
19.7094 145.12 -4.12731
14.5281 141.581 -7.2823
-16.7952 138.024 -0.923402
-16.5318 138.116 -1.13173
20.3015 147.93 -0.664698
0.280595 140.803 -3.4996
7.20383 140.314 -6.76056
-17.6099 138.73 -0.0214982
15.8351 143.332 -5.75066
-7.45099 144.135 3.87476
-16.9083 143.137 5.8851
3.13102 141.424 -3.88697
-18.7609 139.379 1.12439
16.9402 149.475 2.23747
-10.3552 134.594 -8.98291
16.6207 149.563 2.41148
-3.57247 139.364 -4.72119
-3.90268 139.061 -5.09121
14.0934 142.128 -7.47994
7.22163 141.025 -6.57586
-8.11813 144.637 4.09234
3.19533 141.98 -3.85679
15.4298 143.934 -5.56107
3.31992 142.064 -3.88588
15.8096 144.973 -4.34151
19.1981 146.765 -3.12019
14.496 142.89 -7.02276
-3.40637 140.028 -4.56611
10.4581 147.954 1.48488
14.2333 149.693 2.53049
18.7167 147.788 -1.85693
15.0499 149.786 2.30234
14.5851 149.784 2.41023
-1.75001 141.355 -3.64404
6.34987 142.428 -5.10049
-9.11785 136.043 -8.5251
-17.6879 140.15 0.430602
-15.173 139.538 -1.37731
-11.7319 145.31 5.55481
-10.1173 145.123 4.60884
-16.1738 144.288 5.57443
12.13 141.635 -8.60509
-5.11361 139.216 -5.74647
12.589 142.231 -7.94422
-6.80816 145.48 3.63759
-9.10872 136.365 -8.5071
-9.70724 145.363 4.47275
13.7295 149.802 2.14711
-6.60011 138.254 -6.86272
-4.94691 139.616 -5.53737
14.5057 143.832 -6.67339
-11.3419 137.017 -6.99003
17.902 149.48 0.0230281
14.4487 143.936 -6.63201
-9.01401 145.624 4.28684
11.0644 148.738 1.3186
-16.5643 140.532 -0.277905
4.80243 143.369 -4.08441
17.1472 147.356 -2.93474
-18.7962 141.891 2.34879
-12.4116 137.206 -6.70593
-16.2268 144.568 5.08805
8.39104 142.206 -7.33186
4.85013 143.631 -4.06232
-8.77552 137.098 -8.40282
-17.9902 143.276 3.72789
11.9757 149.208 1.19555
3.26524 143.49 -3.76275
16.7291 147.113 -3.54785
7.31815 142.799 -6.3007
15.6834 146.5 -4.16704
10.3442 149.136 1.4622
11.5739 143.122 -7.5483
-10.204 137.971 -7.02088
-8.47038 146.208 3.98323
15.7359 147.302 -3.32971
14.608 146.431 -4.22795
-12.8594 138.061 -6.12916
12.0633 143.607 -7.40579
17.4378 149.842 -0.51824
15.217 147.368 -3.26056
-14.9476 139.414 -3.54777
-7.38341 138.594 -7.54413
15.5214 148.655 -1.72999
12.6036 144.11 -7.31294
10.9298 143.404 -7.74067
7.74071 143.411 -6.642
17.168 149.697 -1.21362
-1.46797 143.405 -3.35854
-14.7654 140.086 -3.33294
-12.7055 146.717 5.31274
15.0137 148.155 -2.83442
16.7894 150.383 -0.35282
-3.2532 142.616 -4.09497
13.3111 151.063 1.75107
12.942 144.667 -7.22931
-3.89173 142.245 -4.56302
16.3163 149.885 -1.10528
-14.6099 139.509 -4.57335
4.70395 144.969 -3.87771
-17.5001 142.507 0.715013
7.1086 144.476 -5.68833
13.6884 151.418 1.73757
-14.5058 140.087 -4.32659
2.95186 145.353 -3.41538
-14.3605 141.392 -2.72492
-13.3194 147.028 4.88599
-12.0835 139.903 -5.82298
13.6935 146.781 -5.49135
-16.3561 145.093 2.97607
10.1662 144.634 -7.48305
14.3102 150.248 -1.03296
-10.2508 147.488 4.00477
8.2311 151.474 2.74436
-8.74569 140.276 -6.96484
-0.73756 145.012 -3.17815
1.54759 145.708 -3.18357
-5.77695 141.779 -6.12204
-3.93828 143.519 -4.37021
14.698 151.781 0.521532
-11.091 140.322 -6.36936
7.15749 145.634 -5.50088
12.9456 151.866 1.14905
-15.4504 142.894 -1.38695
-15.1587 144.144 0.0374427
13.8719 151.092 -0.737456
14.6187 151.772 -0.048124
-5.76364 142.452 -6.00498
10.231 145.896 -7.1624
11.21 152.204 1.4115
12.3977 146.92 -6.72674
-1.8408 145.707 -3.25471
-14.7927 143.779 -1.32666
8.90605 152.189 1.90619
-11.8255 141.994 -5.01893
-11.6227 148.371 3.91163
12.4621 147.795 -5.74781
12.705 152.365 0.573158
12.3334 148.043 -5.45666
12.7566 150.344 -2.3477
-2.98737 145.509 -3.52703
-14.1156 144.723 -0.600044
-0.601741 146.709 -3.0173
-13.4383 147.894 3.28315
13.2392 152.549 0.0729553
-5.64529 143.749 -5.58212
11.5944 147.595 -6.42743
13.2198 152.57 -0.229809
12.0706 149.821 -3.71952
-11.4359 142.849 -5.07864
-13.5878 145.125 -1.06844
-13.5735 144.679 -1.8647
10.9675 147.458 -6.90665
10.981 147.59 -6.74412
-6.86889 143.406 -6.21902
-10.7412 143.16 -5.19625
-10.1573 149.327 3.28384
1.59891 148.13 -3.04354
11.6093 152.203 -1.01888
10.0548 153.29 1.07371
-10.4451 143.685 -5.21991
10.5979 148.119 -6.62804
10.0896 153.396 1.05377
-9.0122 149.722 2.73363
11.3362 152.452 -0.845646
-12.73 144.407 -3.54937
-2.24426 147.479 -3.08043
11.0956 152.632 -0.731259
-10.6607 149.608 2.90898
10.8298 152.656 -0.813111
-12.8998 145.843 -1.89745
-12.8752 145.7 -2.17895
10.623 152.701 -0.884399
-12.8454 147.627 0.427973
8.52245 148.924 -5.79925
-11.3817 149.689 2.30732
-5.43431 146.18 -4.88901
-12.6735 146.137 -2.41229
9.93134 151.987 -2.43154
-10.4044 150.102 2.29978
10.1156 153.642 -0.292669
5.15015 150.192 -3.40938
9.57787 152.886 -1.28586
-5.61997 146.405 -4.95252
-12.5544 147.184 -1.48174
-1.74876 149.235 -2.66623
-8.64338 145.23 -5.89407
9.44398 150.44 -5.19456
-7.84305 151.147 2.00279
7.53371 150.68 -4.49712
8.09038 150.71 -4.78788
8.29942 150.701 -4.90587
-6.55668 146.504 -5.43736
-10.6195 145.83 -4.993
-8.36874 151.242 1.86338
-11.8158 146.39 -3.8136
-8.10187 146.362 -5.67561
-5.10806 148.218 -4.14618
-7.99452 151.538 1.61276
-6.08541 147.404 -5.00834
5.27305 151.636 -3.21611
-11.8269 147.256 -3.21151
-7.93851 151.615 1.53082
-9.14439 146.372 -5.63339
7.85767 152.971 -2.65024
-11.5329 147.479 -3.41257
-3.58235 149.838 -2.9704
7.28626 153.605 -1.90043
-10.7789 147.526 -4.24703
6.91108 153.107 -2.95538
-2.0997 151.314 -2.3641
-3.9466 150.465 -2.89604
0.397654 151.733 -2.73816
6.46701 154.997 -0.359549
-2.14744 151.454 -2.34892
4.30315 152.632 -3.06959
-5.41371 149.547 -3.91544
-9.7713 147.901 -4.86647
-8.68527 148.253 -4.8625
