ply
format ascii 1.0
comment Created by Open3D
element vertex 1957
property double x
property double y
property double z
end_header
-15.1606 119.255 -1.67402
9.27329 143.138 2.78134
0.509342 131.168 5.79856
3.18478 137.479 1.20184
13.7678 147.646 3.4093
-10.5189 115.857 9.76167
2.11755 133.014 5.52478
0.871465 131.373 5.83325
3.56646 137.998 0.822378
5.03771 141.749 -2.08115
-7.06029 128.858 -3.01086
10.1303 148.93 -4.27617
-7.19058 128.663 -3.00954
12.5916 145.937 3.50544
8.28151 142.753 1.27148
-8.69611 116.43 11.3685
3.82968 138.206 0.624917
-1.35466 126.18 9.17562
7.04682 141.045 1.60704
9.69996 148.828 -5.07392
-12.0958 114.568 8.60782
-15.236 113.494 5.26502
-1.27386 126.396 8.91001
8.38668 142.732 1.25545
-10.1416 125.924 -4.02192
8.58992 147.447 -4.98309
-13.471 121.393 -2.98012
-10.1347 125.743 -3.88812
-11.3397 114.756 9.23354
6.79709 139.853 2.50425
1.37465 134.36 1.68561
9.80001 148.65 -5.06241
-8.59127 127.09 -3.60981
5.33262 136.249 5.09532
12.3509 146.007 2.39149
-14.7979 114.848 3.51704
0.71858 130.375 5.89978
3.32386 136.422 1.52156
-15.4661 117.399 -1.13499
4.10178 134.568 5.1341
6.96072 139.367 2.89086
1.2885 130.864 5.86782
12.3555 145.872 2.18943
-15.567 112.727 4.93688
3.5854 136.597 1.32985
0.995888 128.474 8.51193
15.4052 151.074 -0.529549
-16.1401 115.379 0.172496
-14.1522 119.797 -2.85514
1.03811 130.14 5.95107
1.13374 128.175 8.78754
2.85893 135.222 1.67809
8.37811 146.098 -4.98084
1.14658 128.749 7.6853
-10.5089 114.499 9.41197
12.417 145.516 1.88084
-8.66391 125.894 -3.55277
7.44873 139.186 2.83176
1.31717 127.961 8.78558
7.46167 139.023 3.00116
3.10307 135.172 1.61455
-12.6325 113.354 7.44407
-14.2779 112.06 6.69637
1.82248 133.552 1.77552
10.9575 147.323 -3.27148
-15.6505 117.103 -2.51208
16.2402 149.79 1.34163
5.06154 138.691 -0.547128
-15.6194 113.249 2.71451
13.3801 148.883 -1.84907
6.16335 135.281 5.77429
3.04771 131.642 5.95168
-13.9876 112.014 6.78253
10.6524 143.58 1.12398
8.90203 141.826 0.833219
-6.57297 115.822 12.821
16.2942 148.692 2.48504
1.10361 126.74 9.29486
2.43102 133.518 1.97257
1.2521 126.766 9.35147
-2.35844 129.114 0.564336
-9.98008 122.942 -2.66462
9.98666 146.919 -5.06112
12.7175 148.131 -2.57382
1.75669 127.273 9.27358
16.6223 149.302 1.73327
4.10299 132.084 6.01337
-15.2843 111.055 5.04635
-0.22394 123.485 10.9646
7.55718 135.877 5.69295
-12.1695 112.586 7.34473
14.2054 143.995 4.42611
4.60843 131.971 6.20711
17.1267 149.237 1.56579
-15.5007 115.984 -2.71011
0.677555 131.318 0.98369
3.95935 134.519 1.57729
4.07381 134.678 1.51318
-8.5435 114.538 9.80751
11.2011 146.465 -3.86649
-3.65839 127.259 -0.275163
-1.84251 128.53 0.728878
-7.73634 114.669 10.7074
7.39657 134.897 6.06007
-11.7524 120.509 -3.48455
3.15519 133.076 1.95705
5.53202 137.918 -1.05512
-15.4081 110.478 4.45474
-4.97657 126.216 -1.19241
-8.67296 114.184 9.65922
2.1637 128.093 7.03776
-2.37085 119.617 11.725
-5.2805 125.88 -1.33629
-0.671236 122.094 10.8011
12.5121 145.771 -1.60755
-7.52145 124.432 -3.04521
13.3407 143.208 3.08442
10.5794 146.111 -5.13527
10.2698 141.422 0.795966
12.8482 143.789 1.49064
-9.34348 113.741 8.78484
10.4605 141.223 1.29986
-15.7415 114.575 -2.22463
-3.43907 126.609 0.0109551
17.5127 148.709 1.7195
-1.22907 121.043 11.005
-15.1168 109.97 4.94751
10.2141 141.216 0.734739
-3.19499 126.633 0.227401
-7.54214 113.629 11.3118
8.00716 142.294 -4.34079
17.4138 149.252 0.444838
-2.27904 119.107 11.6822
-16.3728 111.247 0.892691
2.81241 127.061 8.50216
-12.894 110.635 6.96071
-16.1111 112.792 -0.991353
-6.13044 113.47 13.3315
2.1983 124.791 10.363
-11.2069 120.152 -3.86108
-8.29086 112.775 10.7031
-1.70108 127.276 0.830131
8.30728 134.44 6.29762
15.8486 148.619 -1.64963
-14.9554 115.331 -3.12827
-10.1237 121.052 -3.64275
8.6657 134.746 6.20804
-12.0582 110.83 7.32205
-16.073 112.435 -1.06139
10.7042 140.913 0.698504
5.81067 136.713 -1.0558
-8.32741 112.379 10.7095
17.1449 145.938 3.57295
7.37224 132.506 6.97718
-11.2876 119.635 -3.90518
9.31147 136.525 4.38836
0.621534 122.293 10.4448
17.4427 148.972 -0.511579
2.94913 125.201 9.94034
-15.0187 108.953 4.70735
16.1756 143.084 5.54333
-8.69139 121.335 -2.66889
6.49773 138.494 -3.04103
-2.7616 125.626 0.450703
-9.0168 111.925 9.5673
-11.2274 110.907 7.54945
-3.04593 116.487 12.3635
16.6176 144.681 3.70436
6.07793 136.793 -1.60306
8.87967 142.46 -5.18103
11.8576 140.041 2.61028
-6.07625 112.388 13.0691
9.7162 135.937 4.86613
-13.8792 115.526 -3.34855
-10.0024 111.609 7.9477
12.182 145.051 -4.11344
-15.7762 108.846 2.77745
15.9848 147.315 -1.46891
5.24244 133.197 1.39485
-7.96482 111.268 11.2657
-9.50394 111.478 8.45282
3.98748 131.14 2.06343
7.87421 131.595 7.37022
-6.2223 111.947 12.7562
-15.825 111.405 -1.29329
17.3607 145.129 3.17667
5.94955 134.646 -0.0922287
12.6762 144.767 -3.80654
-8.65741 120.419 -3.04732
-4.39246 124.14 -1.67212
-15.7414 111.313 -1.45465
18.4504 147.37 1.35213
-10.2807 110.65 7.70333
-15.5174 108.105 3.15437
0.299669 120.109 10.8625
17.7023 145.266 2.90203
-6.79632 121.723 -2.29597
-12.7877 115.878 -3.474
-0.758881 118.552 11.2241
-16.0858 109.44 0.264478
5.71266 133.135 1.05756
-15.9464 108.064 2.19079
0.0939346 126.688 1.13245
-7.80072 120.66 -2.67193
-15.5783 111.332 -1.82478
10.014 142.646 -5.70744
12.5399 140.807 0.449584
12.668 140.971 0.406094
-14.6829 107.646 4.30393
16.428 141.973 4.7144
9.0054 140.87 -5.1392
12.1674 138.467 2.84914
-3.33653 123.954 -0.94919
-4.35326 123.557 -1.98881
-7.3015 120.666 -2.58291
-15.0595 107.282 3.84734
-15.7044 107.44 2.63356
4.25435 125.324 8.57183
0.963335 119.947 10.8544
-5.03067 122.797 -2.27341
1.30558 127.21 1.28504
16.9822 141.946 5.02819
-6.89201 109.812 12.5577
-8.72512 109.038 10.7795
8.15653 138.947 -4.46374
-15.9122 109.4 -0.727475
6.10042 132.719 0.913809
-0.626518 117.443 11.5603
16.9283 141.135 5.88043
-0.296302 125.609 0.792912
16.1001 140.67 5.18658
-2.47002 123.737 -0.0205708
-9.58495 109.648 8.38252
18.9176 147.476 0.0295126
-5.78449 121.524 -2.15365
2.74349 128.395 1.41111
11.2438 134.629 5.81223
16.1673 141.52 3.87591
6.45177 128.148 7.33744
-6.55301 120.767 -2.44073
7.32533 136.863 -3.31263
4.8768 126.636 6.969
-13.1631 114.382 -3.86252
16.2115 139.421 6.61567
16.2816 139.364 6.76258
15.6651 139.03 6.27345
-9.88833 109.316 7.90116
-4.81457 122.208 -2.10958
8.63629 130.041 7.68506
15.9597 138.719 6.89688
-15.4567 106.498 3.03975
4.98253 126.208 7.22673
-12.6784 107.848 5.23325
-14.7129 111.75 -3.23694
-5.96701 109.499 13.1918
13.246 140.27 0.321134
-7.4205 119.604 -2.92787
0.0691145 125.221 0.682854
5.08782 125.922 7.39392
17.487 140.777 5.95776
8.21458 137.674 -3.97838
-4.88188 121.665 -2.05076
-0.384165 116.785 11.4781
-7.48213 119.438 -3.04778
14.2612 142.513 -1.527
12.2614 137.62 2.11204
-14.7833 106.483 3.44083
-15.8852 108.083 -0.448959
17.3181 141.74 4.1115
-4.20537 110.659 13.8456
14.5888 142.676 -1.39163
6.01028 130.76 1.8291
13.7301 141.83 -1.57456
-3.373 122.588 -1.42729
3.9359 128.701 1.29567
19.4957 145.983 1.35613
8.03797 136.757 -3.55809
13.8737 135.732 6.68918
11.3085 133.623 5.63485
4.33448 122.697 9.95308
-10.6902 107.941 7.19451
13.9637 139.353 1.5109
14.1164 136.189 6.05291
16.5304 138.664 6.3407
-8.49923 107.317 11.0218
-11.2825 107.198 6.9058
16.0363 144.507 -2.61157
10.1843 131.212 6.67929
13.6753 139.327 0.866151
-14.7512 110.655 -3.29363
-15.1223 109.735 -2.62257
10.1358 140.004 -5.55516
15.0102 139.589 2.40812
12.7252 142.067 -4.69622
9.94 130.118 7.40494
-8.58298 106.823 10.9795
-3.06868 121.587 -0.870225
9.16437 137.846 -4.48733
-10.0385 106.09 9.71992
-12.1529 113.954 -4.31798
-14.1553 111.212 -3.6587
2.70707 126.699 0.826922
-4.653 120.845 -2.41472
14.1583 135.74 5.89462
-11.3704 114.653 -4.24396
19.8844 146.344 -0.00408981
-10.8863 105.811 8.52314
12.5589 137.025 1.53275
-7.76575 107.153 11.3793
10.5967 131.379 6.20315
14.5573 136.595 5.03219
-9.22076 116.99 -4.51423
14.6632 135.399 6.70498
14.9127 137.12 4.60852
6.20636 129.054 2.25761
-10.4489 105.35 9.30882
20.0296 146.485 -0.550695
16.7397 137.815 6.29861
10.2977 130.021 7.12961
15.719 139.243 2.74424
-14.3531 110.274 -3.61369
12.2889 141.228 -5.38965
-6.55169 107.405 12.2026
-6.09227 119.002 -3.10304
12.4461 135.897 2.0567
-11.9486 104.706 7.4983
13.1946 141.162 -4.09266
16.0011 136.305 6.78004
-12.3977 104.656 6.76999
-12.0244 104.591 7.42713
-15.9184 104.61 1.25645
-4.75511 119.992 -2.81884
2.84085 126.012 0.535911
17.959 145.361 -2.95407
15.6725 137.684 4.02563
-0.584049 113.891 11.8112
14.217 133.595 7.33019
12.5066 135.804 1.67115
1.39004 124.202 0.521011
10.2363 128.928 7.54159
12.975 137.032 0.558913
8.4665 134.712 -3.19068
20.1148 144.461 1.23137
7.39518 132.054 -1.27787
16.0964 138.66 2.93451
5.39348 121.959 9.43188
-1.90445 120.774 -0.105364
-4.66163 119.618 -2.74739
8.52812 134.624 -3.19635
-1.68519 111.673 12.6118
4.9316 121.059 9.79105
18.0412 145.133 -3.21577
-1.91843 111.207 12.7702
18.3449 141.651 1.96696
13.5249 139.394 -2.52035
9.92014 127.696 7.9318
15.9861 138.099 2.88104
-11.8292 103.428 7.80577
8.69771 134.155 -3.00912
12.9963 135.484 1.72481
11.7285 131.44 5.25816
-2.66197 109.259 13.6786
17.6027 138.21 4.84759
13.2688 135.752 1.55118
4.01644 118.504 11.009
8.4708 133.003 -2.08235
15.8759 137.849 2.45451
8.80364 133.784 -2.80184
3.5171 125.691 0.208007
12.4436 134.093 2.31586
-13.0691 102.762 6.29016
-8.81432 104.511 10.3375
13.9677 140.594 -4.36162
19.0188 145.789 -3.79388
-2.52796 119.405 -0.573382
2.66581 124.643 0.1485
7.57731 129.56 0.86863
-13.521 109.665 -4.25393
13.8603 140.35 -4.51451
15.843 137.685 2.15123
-13.6183 102.972 4.70111
15.9772 134.82 6.21417
20.4436 143.397 1.2282
5.98235 126.568 2.19842
-12.0581 111.56 -4.82565
-13.5572 102.59 5.19209
0.471146 122.089 -0.117453
18.3649 144.731 -3.89021
10.0034 135.611 -4.16468
1.28417 114.866 10.9682
-0.955063 120.394 -0.0876089
2.60472 116.12 11.1909
-2.53602 108.56 13.6983
15.6653 134.17 6.35356
-4.99056 118.022 -3.12458
7.5801 128.836 1.2361
5.77186 120.871 9.37891
15.0131 135.184 3.85341
2.96152 124.541 0.0049645
18.8475 140.906 1.82333
15.2648 135.565 3.65236
-1.1092 120.056 -0.144727
15.6018 141.612 -4.22872
9.98037 126.443 7.9655
9.67435 134.623 -3.73211
10.8559 127.849 7.36034
-1.04396 120.068 -0.169199
14.666 136.653 1.05019
13.6806 139.482 -4.34005
17.6602 143.789 -4.24155
-8.67848 103.791 10.342
-14.1126 108.151 -3.97164
20.2858 145.958 -3.28177
9.50778 125.528 8.13343
-10.8861 102.363 8.73607
-13.8451 102.849 3.52635
-12.7332 110.027 -4.65005
10.1922 126.38 7.90924
3.49074 124.771 -0.136632
14.8899 130.588 9.30099
10.932 136.949 -5.48268
14.9189 130.856 8.95703
17.3416 135.593 6.15141
3.05881 124.194 -0.129269
16.0149 133.851 6.40242
-12.8399 109.699 -4.58178
9.35167 133.147 -2.86384
1.44654 122.426 -0.298603
-1.58044 119.078 -0.411049
7.71446 128.132 1.35153
-13.6458 101.828 4.74923
15.3728 140.782 -4.35524
15.4127 135.259 3.27895
15.7736 141.388 -4.58896
4.1548 124.644 0.512466
10.9679 136.361 -5.15397
13.2826 133.393 2.43447
-13.3578 100.872 6.26982
-13.7271 101.812 4.40327
-13.675 101.32 5.12784
13.0323 131.502 4.54244
0.320173 112.059 11.7736
17.7367 135.71 5.9245
11.0946 136.448 -5.30222
15.7502 131.658 8.28781
7.85224 129.447 -0.799193
15.2055 130.273 9.30724
0.975827 121.68 -0.662354
11.1396 136.315 -5.25563
10.7299 126.335 7.76178
7.95504 128.975 -0.107822
1.60304 122.107 -0.603685
14.2686 130.469 7.26517
15.2045 133.414 4.64964
18.3589 137.13 4.17673
15.3033 133.433 4.56163
14.5391 137.278 -2.00459
-5.60332 116.089 -3.74499
7.93399 127.158 1.75905
-12.9329 108.413 -4.46975
9.78976 124.321 8.41223
-3.93377 116.491 -1.8745
-4.46849 104.915 13.1742
14.7897 131.421 6.22868
9.29834 131.746 -2.63012
-12.9487 100.123 6.64143
-10.9964 100.822 8.63412
-15.3526 100.447 2.46846
16.916 134.068 5.61081
-3.89678 116.322 -1.88072
9.66721 132.091 -2.79958
16.8352 133.938 5.62169
0.157681 110.592 12.1178
2.6726 122.661 -0.600621
3.02302 114.615 10.9415
-6.02232 115.312 -3.92684
1.76488 121.774 -0.921857
16.8625 133.83 5.60325
14.6914 139.019 -5.00752
-6.75655 114.486 -4.25087
-0.920905 118.511 -0.85547
9.70558 123.34 8.76285
14.3607 133.925 1.33967
6.9694 119.838 9.36193
8.94245 122.048 9.32937
10.9888 125.524 7.66192
8.23102 128.683 -0.93291
7.27096 120.05 9.30848
14.8993 129.976 7.34277
15.036 130.837 6.32617
-11.5195 99.8416 8.13634
10.2517 132.326 -3.15227
8.39028 127.931 0.0124025
-5.09726 103.699 12.6236
-12.2559 108.37 -4.79158
-7.10454 113.849 -4.43234
7.81471 120.509 9.17028
-12.4856 99.4005 7.06473
21.6008 142.519 0.00643072
15.2655 136.642 -1.62467
-7.43166 113.484 -4.60194
-7.61397 101.855 11.0677
-3.09455 104.863 13.7457
14.2946 137.525 -4.54209
-10.2087 100.07 9.33044
15.3959 136.662 -1.77031
16.6192 131.698 6.8986
20.9895 144.341 -3.78016
-12.3943 107.85 -4.77098
11.6278 127.123 5.46094
9.51719 122.027 9.20324
18.9668 137.42 2.37401
-15.9869 99.9675 0.292637
7.44286 124.498 2.40242
15.8214 138.115 -3.51291
14.482 135.417 -1.93217
1.35589 111.08 11.3487
14.9912 135.606 -1.4765
15.4637 126.682 11.4757
-8.87048 111.644 -5.14361
15.3955 127.825 9.71714
16.5147 139.95 -5.25665
9.36624 130.082 -2.70271
14.7326 126.39 10.3741
9.67978 130.557 -3.08034
16.3799 139.632 -5.29293
-0.794545 117.436 -1.11037
18.0098 133.731 5.2608
2.45071 112.233 10.893
21.2216 143.932 -3.91039
-13.2498 98.1353 6.19429
8.20616 119.304 9.90266
-1.21383 116.794 -1.06371
18.7899 135.106 4.32201
20.0676 139.072 0.814298
7.61125 118.323 10.2278
14.7771 137.758 -5.54448
14.8684 137.801 -5.53739
3.60956 113.438 10.6593
11.8049 126.715 4.94799
-0.61578 106.842 13.2247
-15.8382 99.9313 -0.60285
-11.0369 98.5942 8.54551
11.5356 132.907 -4.04697
14.8419 135.758 -2.91362
-6.06101 113.34 -4.11866
15.9978 136.193 -1.95398
-4.78644 114.034 -3.36817
-5.922 101.635 11.853
12.4026 134.388 -5.1199
-0.262005 117.486 -1.34483
0.495987 118.395 -1.46293
21.657 140.788 0.165789
-5.3212 101.973 12.1658
-2.7911 103.562 13.8088
16.0583 129.626 6.83484
-12.8487 97.6263 6.51798
-1.62212 104.85 13.7379
-15.9775 99.0515 -0.261782
-5.25045 113.429 -3.67173
-11.1822 107.76 -5.05942
9.93909 120.807 9.31955
17.2817 139.641 -5.31357
14.6658 133.43 -0.796759
12.7901 134.744 -5.51854
14.243 133.06 -0.988097
16.5901 131.766 4.2998
15.0572 133.466 -0.402771
12.1733 126.771 4.34905
-0.914044 105.499 13.4805
14.728 131.612 1.54242
16.4668 133.689 1.29981
3.02894 120.455 -1.10571
15.8024 135.116 -1.79222
-15.4518 100.049 -1.49692
-15.6837 98.2005 0.641004
20.588 142.625 -4.91203
15.8623 136.273 -3.42333
9.43061 119.158 10.0841
17.1686 139.072 -5.44897
14.9101 135.442 -3.94606
6.06516 114.705 10.8253
14.028 133.117 -2.2892
14.5686 135.086 -4.23613
14.6108 130.623 1.7719
17.0764 128.7 8.18146
-9.14684 98.3461 9.6643
20.1331 136.797 1.59654
22.1602 140.439 -0.31366
15.6981 133.28 -0.394226
14.5705 130.403 1.81323
-12.0002 105.284 -4.36222
-12.6183 96.7647 6.3831
16.5729 132.007 2.58937
16.655 131.914 2.84002
17.1386 126.266 11.3092
-12.9649 96.6524 5.8903
-12.2547 104.777 -4.24656
16.4588 132.061 2.18301
17.6247 129.508 7.41745
16.4767 128.644 6.80145
-3.51641 101.623 13.211
-14.6329 100.644 -2.54128
-5.8712 111.262 -3.71938
4.30178 120.376 -0.722062
-12.9416 96.3927 5.7915
-14.3237 96.1436 3.97487
16.8841 129.634 5.73625
14.3026 131.56 -0.880258
11.5062 122.205 7.56307
20.8972 141.798 -4.96594
5.75184 113.504 10.6101
2.85696 109.931 11.06
-15.2043 95.9438 2.606
-7.97873 98.3738 10.3103
-5.68419 111.017 -3.53556
14.4394 135.523 -6.40982
-0.862603 115.057 -1.72585
15.9333 123.085 12.9296
13.0998 133.263 -5.37809
-3.75151 112.425 -2.55136
-10.0345 107.386 -5.37265
-7.30422 109.714 -4.4023
14.6594 133.287 -3.18607
-10.1591 107.104 -5.26469
-15.6267 97.7831 -0.844253
-10.9343 96.2528 8.34956
8.71502 122.672 2.04392
14.8886 123.206 10.7448
19.0027 139.877 -5.84736
15.9259 122.662 13.0051
0.818012 106.344 12.2322
14.8021 134.235 -4.67688
15.1006 122.832 11.4276
9.90699 118.12 9.90326
14.8747 133.571 -3.72377
17.2992 124.018 13.0823
13.3481 127.267 2.54755
14.2585 133.53 -4.68527
14.0983 133.775 -5.29719
16.6062 134.854 -2.9529
17.5543 126.826 9.48178
13.4692 132.816 -5.04439
17.0047 134.66 -2.17006
10.6138 119.507 8.83491
16.7058 130.742 2.70312
15.5271 130.643 0.988911
-14.5448 99.8166 -2.70464
18.1737 126.112 11.1937
-4.56734 99.8349 12.4209
13.0776 132.438 -5.35033
18.5752 129.593 6.8863
18.8999 130.718 5.83473
13.7215 132.528 -4.59542
10.5082 127.889 -3.15903
20.7792 136.02 1.38812
14.9202 130.426 0.082972
-9.2355 96.6943 9.41746
16.9594 131.82 1.14357
13.6517 132.328 -4.63286
16.2203 122.154 13.2398
14.7806 135.07 -6.68719
9.76832 125.799 -1.6643
16.9339 122.746 13.468
-15.4651 97.3034 -1.2135
16.7383 122.51 13.4193
9.71915 125.426 -1.32835
21.3448 136.849 0.762952
19.4475 139.691 -6.06933
15.1361 129.894 0.73927
15.1787 132.619 -2.93531
14.9518 130.101 0.167571
7.03854 119.88 2.05748
12.6047 124.823 3.78294
9.39875 116.387 10.4545
22.4736 139.102 -0.751096
17.2167 134.108 -1.95158
17.323 133.006 -0.328021
14.6125 130.392 -0.88936
-11.5431 104.01 -4.70257
17.2 133.867 -1.72221
20.8768 135.687 1.34348
19.1677 130.438 5.9166
14.3215 132.04 -3.69462
9.64429 124.573 -0.601395
-15.6037 95.3263 0.919775
20.0053 132.518 4.31557
-2.36437 100.839 13.5516
10.6092 118.466 9.14229
17.2347 128.282 5.78065
0.357644 115.518 -2.5222
17.3758 133.519 -1.23063
-13.4616 101.05 -3.84819
13.9823 127.15 2.29764
17.1745 134.274 -2.61077
14.8241 129.915 -0.244056
-2.90164 100.337 13.2292
4.87549 110.821 10.6496
12.437 130.51 -4.80911
5.25007 118.813 0.205088
-12.2335 102.864 -4.68721
17.6825 132.362 0.578343
-15.4191 94.4094 1.99969
15.0168 129.506 0.315621
15.3146 134.653 -6.29941
-10.3444 105.185 -5.11107
13.7692 130.687 -3.24498
13.4345 125.896 2.74255
-13.263 94.7809 4.60165
9.0111 121.436 2.08525
20.7362 133.044 4.05509
9.96437 123.83 0.220581
-12.7039 94.4942 5.80014
-9.96673 95.4373 8.68523
14.9944 131.241 -2.32599
18.4755 127.256 8.4463
21.6013 136.657 0.274085
-12.9258 94.4114 5.44608
14.7306 127.621 2.12795
-1.67105 100.896 13.7091
18.3768 128.163 6.94877
21.2301 135.661 1.01612
21.1821 133.587 3.75932
15.3678 121.959 10.8149
-12.3758 94.3373 6.27425
9.99187 123.832 0.00256257
15.8659 123.375 9.57194
16.8572 129.057 3.17864
6.77154 119.01 1.48834
4.0055 117.804 -1.11983
10.9768 127.195 -3.40944
-6.44136 108.427 -4.29202
-14.5299 98.075 -2.48829
21.668 136.482 0.0879075
7.81348 113.388 10.5536
15.2201 130.84 -2.07588
-7.43186 107.48 -4.6718
-8.90885 95.7026 9.14874
16.041 134.567 -6.04775
10.0741 116.136 10.1114
18.979 124.46 12.2984
-11.0634 94.1595 7.9085
7.95566 119.186 2.57933
17.5582 121.622 13.8878
17.2822 128.147 4.50432
16.0421 131.6 -2.18236
-10.9187 94.1811 7.93158
-12.7519 101.181 -4.48
5.13016 110.061 10.6753
21.2945 139.748 -5.40714
16.6122 128.348 2.9295
4.39422 108.816 11.0381
-11.906 93.6641 6.88157
18.643 130.372 3.15244
-15.0434 93.3974 2.32636
-1.63678 100.046 13.5957
-15.5989 94.6041 -0.361439
-13.492 93.7371 4.0506
17.2062 126.2 6.43463
11.8375 120.332 6.2396
10.1667 123.768 -1.04894
23.2092 139.918 -3.33072
-8.01672 95.7448 9.47387
17.4204 135.973 -6.87028
23.4554 139.749 -2.94888
-15.57 93.3144 1.03343
19.3235 129.55 4.53795
16.1621 130.683 -1.87328
16.8556 130.395 -0.457376
-15.1935 95.2172 -1.27285
-5.53502 108.118 -4.24028
17.7744 128.39 3.55384
19.9909 129.045 5.96865
17.8674 135.97 -6.84474
19.2551 129.945 3.50415
22.6674 137.523 -1.74459
-15.6283 92.7815 1.08933
17.5019 126.661 5.14352
19.3453 122.901 13.0959
9.09314 113.228 10.6687
23.6663 139.483 -3.0938
-8.74487 105.297 -5.75005
23.2679 138.746 -2.74676
-15.6503 93.1949 0.225798
17.0822 127.445 3.27051
19.1568 130.366 2.42582
-10.5654 102.816 -5.22738
10.7935 124.645 -2.544
15.9313 127.505 1.3639
16.8636 128.753 1.05066
0.640984 113.66 -3.18538
15.9751 120.258 11.1174
22.7363 137.366 -2.12251
19.2013 130.617 1.70864
19.6101 125.071 9.92802
-5.82492 107.201 -4.44997
16.1932 132.791 -5.92339
3.40163 116.215 -2.7579
-9.25581 94.0352 8.3155
21.0853 138.173 -5.87741
14.3654 130.65 -5.83215
20.1526 130.347 3.43357
5.89599 116.686 0.366291
10.6891 122.852 -0.838935
0.735722 101.2 13.6475
22.0077 133.609 1.67754
16.356 118.102 14.2733
10.655 123.416 -1.7413
-9.16262 103.933 -5.35264
10.8763 122.389 -0.0710433
18.6219 127.44 4.76967
20.0755 126.591 8.12187
-14.9095 92.0623 1.99101
20.2462 130.132 3.47524
15.7607 118.99 11.8914
20.0313 129.277 4.30359
19.3836 121.765 13.5945
22.4413 136.15 -1.49374
2.95852 104.949 11.5003
14.3488 128.953 -4.05397
16.6765 126.358 3.06662
19.2894 128.384 4.27777
15.1766 131.414 -6.23871
19.0053 127.742 4.63403
15.5852 128.771 -2.02133
-8.59539 104.258 -5.38638
-13.1436 97.716 -3.37082
-11.6984 91.9496 6.6148
-8.00782 104.943 -5.5771
11.0392 123.776 -2.30122
15.2478 131.355 -6.27553
11.6052 125.069 -3.22519
14.3652 128.316 -3.46238
15.1382 128.978 -3.2146
15.937 126.974 0.728561
-1.06243 110.779 -3.0513
14.0501 128.326 -4.07154
19.9078 136.768 -6.71053
-9.65294 102.62 -5.06917
-12.1226 99.5744 -4.6837
17.6187 124.498 6.59224
6.19292 116.13 0.569309
17.1161 126.193 3.44213
15.6402 127.251 -0.280406
-7.04899 94.996 9.28102
-15.0487 93.7302 -1.23509
8.34421 111.244 10.5027
11.8913 117.524 7.22676
-13.1391 91.345 4.76444
-0.0458108 99.2168 13.981
11.9422 117.568 7.0102
20.0927 129.054 3.6883
7.53557 109.918 10.6909
22.5017 134.617 -0.384111
-6.96848 105.509 -5.51726
12.3479 125.542 -3.47044
-6.96063 94.7554 9.22903
15.6099 128.601 -2.70152
17.6431 117.804 15.2164
17.1974 125.497 3.95487
14.5769 123.461 2.72989
23.067 137.856 -4.05822
15.616 127.724 -1.55016
-2.63334 108.543 -3.13843
-13.5532 91.4345 3.60138
16.0156 125.017 2.71121
11.9009 117.149 7.19567
15.3997 128.495 -3.043
-15.187 92.7705 -0.8026
-7.83359 104.217 -5.30755
23.279 137.018 -2.79125
3.00928 114.672 -3.13882
22.1293 137.305 -4.98055
-4.49771 96.2624 10.5537
18.1669 133.761 -6.25864
-10.7184 91.5457 7.46649
-14.1284 91.0526 2.90929
12.2216 118.413 5.62813
-14.0925 95.0338 -2.56337
-11.1221 91.2822 7.08799
19.263 130.487 -0.281869
13.7336 127.624 -4.82764
14.1333 128.452 -5.36346
4.60608 115.394 -2.04271
-13.7239 95.5637 -2.86135
11.0154 114.812 8.49593
-5.3036 106.106 -4.53932
15.761 127.076 -1.10754
-14.443 90.6292 2.68993
16.0808 124.463 2.91147
3.00983 114.346 -3.21878
19.8589 135.636 -6.68008
-10.7509 91.2547 7.35743
18.5043 118.2 15.1187
15.6727 126.832 -1.08477
-2.94647 107.794 -3.43276
13.0625 120 4.26831
4.59624 105.565 11.1242
8.67893 116.58 2.20438
15.8983 124.081 2.90798
18.4757 129.125 -0.0989641
19.2408 126.138 5.16586
16.392 127.76 -1.4978
19.2707 126.509 4.58166
15.4783 130.379 -6.57197
2.97413 102.911 11.9436
23.4707 131.723 3.65625
-15.367 91.0466 0.0766243
-9.83458 100.889 -4.97777
16.6751 126.012 1.05039
-14.5184 93.4093 -1.92622
16.9101 115.653 15.4923
17.5028 132.134 -6.22026
-7.95299 93.1052 8.36515
15.2027 125.816 -1.1202
3.38183 114.158 -3.20102
16.3212 127.434 -1.66996
1.14416 99.2421 13.7774
9.37219 110.74 10.4826
16.5288 115.038 15.4733
20.8398 128.721 3.2635
16.3595 117.842 11.3427
6.47093 114.916 0.193689
9.48805 110.777 10.4854
16.2581 115.599 14.1807
23.5619 132.546 2.08702
18.1639 125.601 3.3106
8.25247 115.565 1.92139
17.5638 115.876 15.7307
20.2892 135.15 -6.55597
8.80691 115.996 2.14304
17.19 115.25 15.8821
19.2939 133.856 -6.47001
-14.2343 88.8001 3.9121
-5.22707 105.22 -4.93823
17.765 121.283 8.17137
19.9958 126.343 4.63807
21.0182 135.505 -6.43931
10.2724 118.053 1.04401
-11.5343 97.3439 -3.98289
14.6253 124.796 -1.66354
5.90634 114.32 -0.730217
6.46127 106.49 10.822
10.1998 116.969 2.01211
22.9512 136.38 -5.18057
-1.19161 108.355 -3.64849
10.9102 112.052 9.76085
-15.662 88.8844 0.866873
20.1691 134.113 -6.41683
21.6481 126.273 6.57271
11.205 112.485 9.48321
14.7671 128.203 -6.64284
21.4668 128.326 3.37697
15.8999 122.253 3.11515
15.0457 128.522 -6.85654
-15.4191 88.1784 1.91091
14.1663 119.889 3.61453
16.6331 126.062 -1.11487
14.1641 126.432 -5.4074
5.00841 114.205 -2.67964
-13.0738 94.2148 -2.92192
22.0147 127.384 5.20886
21.6177 135.249 -6.20908
24.2285 130.921 3.72156
0.660587 110.253 -3.98695
-1.39454 107.817 -3.78766
20.82 119.951 13.4798
17.3266 118.665 9.88965
15.7533 121.879 2.99961
24.015 133.379 -0.16662
1.61998 111.034 -3.77492
24.1762 130.439 4.07177
-1.54635 107.531 -3.84521
17.9798 121.88 6.3186
5.1907 113.996 -2.46522
0.329644 109.627 -3.92324
21.8723 128.271 3.36735
8.55078 114.557 1.776
11.4956 113.224 8.10637
20.6869 123.538 7.94007
17.7603 119.369 9.13166
4.34361 113.349 -3.12899
10.605 116.781 1.72809
23.4499 134.201 -2.53735
14.2282 125.33 -4.53615
10.6772 116.663 1.87538
15.7524 126.358 -3.72929
-3.9902 94.2169 10.0961
19.8293 125.936 2.97842
-12.3205 88.5914 5.01576
18.1755 114.281 16.358
10.7414 110.675 9.93685
-6.19436 102.824 -5.20606
19.3061 132.17 -6.48556
19.9166 125.78 3.15075
5.72104 113.5 -1.75621
-15.4532 87.2924 1.75391
20.1541 121.374 9.41594
15.5261 120.766 3.12317
-6.13941 92.3089 9.02828
11.691 113.224 7.57299
20.5666 122.916 7.79517
12.2548 120.282 -1.34397
14.523 126.76 -6.7811
11.3891 118.149 0.237619
-0.708465 96.0732 12.0107
22.9017 127.754 4.60828
5.30605 113.47 -2.84451
-9.25063 99.166 -5.48418
22.2959 135.061 -6.52094
3.47694 99.8831 12.9738
17.7855 118.33 9.53847
-15.6428 87.0545 1.32893
-1.46438 95.5445 11.3542
22.8904 127.377 4.84831
-11.7445 94.7728 -3.39809
17.7873 121.395 5.18164
24.4148 129.397 4.31984
22.2896 128.014 2.94794
14.3781 118.717 3.58784
-6.32568 91.797 8.8193
-10.0087 89.0983 6.87206
16.8442 115.572 11.6052
10.8084 109.98 10.0336
-3.28785 104.854 -4.49985
21.4872 119.561 13.2021
13.9964 118.054 3.79561
17.98 119.028 8.53705
12.2299 118.973 -0.215798
-14.7345 89.2421 -0.674108
11.1302 116.777 1.04155
2.1475 110.356 -3.89067
-10.8697 96.0272 -4.13726
10.9651 110.13 9.85596
-13.0814 87.3936 4.24066
0.706578 108.828 -4.1067
21.6021 120.409 11.94
12.9055 121.28 -2.57808
1.14774 96.4029 13.4835
-15.1564 87.6591 0.519381
4.57081 101.199 12.1056
-10.6103 96.2901 -4.38753
17.4968 129.634 -7.20554
21.8653 125.537 4.99891
21.6702 120.632 11.4213
5.71165 112.964 -2.49093
5.00076 101.728 11.8031
-5.5663 102.233 -5.1653
15.3997 122.011 -0.245937
22.8092 127.008 4.21862
17.8038 117.199 9.96781
17.7001 120.566 5.15642
0.940168 108.693 -4.24416
7.35249 104.983 10.6471
-14.6148 85.9641 3.03269
-0.530743 107.112 -4.45204
20.2756 131.638 -6.30978
-12.7806 86.9921 4.3887
17.5552 129.308 -7.30085
6.65026 103.776 10.9858
-12.7819 86.8838 4.39456
16.5688 111.807 14.9208
22.3126 125.288 5.11085
-15.5552 85.7346 1.47176
17.7838 123.818 0.171962
3.45806 98.2158 13.3552
18.3029 124.404 0.0992587
21.9614 119.016 13.041
12.2241 117.686 -0.115589
25.2904 129.314 3.87568
-1.00414 94.8137 11.0078
9.3228 106.947 10.1178
0.693034 107.974 -4.51579
-4.01693 92.5202 9.47557
2.92729 109.928 -3.83697
12.4318 113.345 5.99318
11.5291 109.8 9.44471
4.40006 111.156 -3.32377
7.50744 104.33 10.7945
17.7745 123.012 0.747108
21.1212 124.608 3.66819
-15.0418 86.0512 1.20944
24.4742 132.348 -1.91032
13.2392 119.889 -2.0455
15.8491 122.86 -2.21985
15.1632 123.569 -4.30677
-13.6804 85.4785 3.84861
18.8363 124.645 -0.207621
17.513 122.47 0.718839
22.3728 124.985 4.6258
-13.6527 88.6094 -0.596425
5.63069 111.911 -3.16777
-11.8177 92.4412 -3.24074
17.1498 110.633 15.9597
19.4525 112.59 16.7492
12.1943 110.431 8.57698
16.0498 121.457 -0.688462
21.1812 120.37 8.64455
17.4367 113.449 12.3831
18.6991 122.792 1.47374
17.6657 119.164 4.82906
22.1554 120.492 9.82187
-9.9277 95.5744 -5.11972
9.95442 112.697 1.72161
25.4302 128.051 4.28615
25.6646 128.813 3.59601
-9.07672 96.6757 -5.4778
25.4715 129.158 2.77623
-1.96206 93.1599 10.2228
3.11201 96.4988 13.3793
19.372 123.047 1.79749
10.9551 113.321 2.21233
-13.9598 86.9791 0.237971
2.42909 108.577 -4.34396
23.3496 125.541 4.36186
18.6823 124.548 -1.48734
21.2874 123.701 3.64895
20.0913 123.706 1.80644
17.7565 128.076 -7.76665
-15.0392 84.719 1.57907
22.5154 119.218 11.652
18.3344 125.005 -2.76015
17.4399 124.244 -3.11748
18.3705 116.679 8.68512
21.8225 123.978 3.77574
-12.9799 88.3337 -0.54091
21.8657 120.137 9.07789
-7.3765 98.2243 -5.58675
17.0888 118.076 4.55383
16.4296 120.947 -0.398678
7.88486 103.014 11.1127
12.1514 109.461 8.78364
12.2634 114.296 2.29543
16.4129 117.668 3.9781
3.51623 96.5304 13.2559
20.6131 130.299 -6.99737
21.4033 123.48 3.52563
14.7931 122.549 -5.31394
23.1395 124.788 4.36859
-11.8557 85.2704 5.05446
12.5062 110.31 7.92327
22.3984 119.818 9.94864
20.7825 120.09 7.09762
17.1104 119.098 2.83477
17.0345 108.918 16.5989
16.0448 116.989 4.00663
-13.3982 86.9605 0.130278
-12.404 89.9781 -2.49219
20.6467 123.054 2.65104
21.2891 123.82 2.53118
14.9348 115.456 4.23668
-10.5461 93.3679 -4.51601
-8.29958 87.2261 7.34015
17.1151 117.573 4.54394
5.31318 110.226 -3.42251
20.8802 113.591 15.72
25.03 126.651 4.07756
17.357 111.367 13.293
25.2785 127.522 3.23504
-12.2235 89.483 -1.92473
21.7328 123.874 2.79076
21.422 120.673 6.67684
-12.6801 87.7338 -0.283929
1.26598 94.0234 12.4067
9.04232 103.865 10.7896
12.7772 110.77 6.99756
12.9085 111.587 5.97601
17.6863 112.14 12.4956
-0.12807 93.4359 10.8292
24.8494 131.788 -3.63322
17.0623 126.408 -8.181
-3.37381 101.555 -5.4006
17.6855 110.493 14.4846
-1.06562 104.036 -5.35671
-0.0537711 93.3029 10.8073
16.3217 108.089 15.5383
22.2979 123.571 3.3895
15.3401 121.854 -4.93487
19.537 124.073 -1.56538
15.5343 120.081 -2.26839
5.93601 110.166 -3.40677
3.21042 94.6981 13.5973
19.9221 121.53 2.33058
-11.8458 89.1449 -1.8199
10.7859 105.995 9.62806
-8.63935 86.2157 7.06295
23.0812 123.817 3.92272
-12.8597 83.5388 4.19992
-6.55095 87.9161 7.8335
10.8355 105.935 9.61121
16.874 107.395 16.8127
23.8965 124.131 4.57606
-2.84156 101.648 -5.50365
-11.5263 84.1266 5.18092
21.8127 118.993 8.28733
17.6793 116.748 4.9626
16.9119 125.61 -8.41164
25.7989 127.475 2.59337
0.211181 92.9631 10.8148
23.9456 125.244 2.7976
17.6312 107.537 17.4382
0.34934 104.723 -5.13318
24.7459 126.215 2.60748
15.7566 119.555 -2.00557
3.44966 107.331 -4.06794
16.2957 115.416 4.46819
15.7563 123.305 -7.23945
-9.53664 85.0508 6.57355
18.5294 114.912 8.51253
18.2261 118.527 3.06411
11.4214 106.209 9.55442
-7.07753 96.5094 -5.43453
26.2536 128.178 2.07148
2.04441 106.05 -4.58968
21.9818 118.262 9.13408
-14.0857 82.5974 2.87682
-7.86969 86.2445 7.33474
-14.2591 82.7491 2.31797
18.6642 122.825 -2.33409
2.56756 106.37 -4.37226
-2.27644 101.772 -5.49676
18.2999 118.305 3.27753
24.4884 126.495 1.50123
-7.54707 95.6988 -5.23211
12.3768 112.374 2.33713
-4.99375 88.8132 8.02877
5.89614 97.4824 12.7675
-1.22736 91.7815 9.62493
7.11875 98.9866 12.4873
1.58753 105.427 -4.84348
17.2935 121.633 -3.12352
20.2352 123.683 -1.46452
18.1617 116.84 4.71941
13.3309 113.261 2.21432
15.9623 118.682 -1.23107
22.2231 113.912 14.8591
16.1934 123.637 -7.71075
17.8197 126.054 -8.54892
15.9243 123.666 -8.17798
24.2131 124.892 2.80052
21.5453 118.583 7.34477
24.21 124.935 2.68245
13.0638 109.269 7.13322
18.1191 116.16 5.38537
15.7106 106.941 14.3247
-13.4304 82.4182 3.41045
17.4903 124.225 -6.70529
-8.69104 93.7895 -4.99528
17.6503 118.588 1.23093
24.8504 125.266 3.04648
16.1441 114.378 4.65747
16.2883 123.584 -7.76876
16.0731 107.066 14.5214
22.9385 115.122 13.9242
16.0363 123.427 -8.03458
20.3023 109.927 17.0021
23.4895 116.724 12.5007
-13.8513 82.4443 2.38516
20.668 116.555 8.33502
14.4709 117.619 -2.62761
21.2091 117.166 8.26871
19.7823 119.521 2.8473
15.3366 106.227 14.2628
14.0228 115.868 -1.0671
21.254 117.196 8.08648
19.4638 122.459 -1.88276
23.3822 124.361 1.48448
20.9261 110.384 16.8914
20.801 116.484 8.24715
0.924552 92.3526 10.9517
19.5698 127.192 -8.35207
19.7232 117.697 4.90897
16.7398 121.459 -4.82195
2.72921 105.577 -4.48291
18.4356 114.831 6.8349
19.995 117.009 6.18619
22.718 121.267 4.50264
21.2673 116.511 8.80691
14.2753 111.539 4.93444
26.0604 129.707 -1.98228
-5.10405 87.9542 7.6538
6.51842 97.3314 12.5529
25.0319 126.084 1.28547
21.3473 120.535 3.2423
25.862 130.817 -3.97022
17.2685 123.728 -7.39781
16.5734 123.436 -8.0741
15.3271 117.485 -1.81654
2.90474 92.8611 12.9598
25.9978 130.543 -3.46355
-13.53 82.0321 2.65806
24.0933 124.093 2.46716
-13.0371 84.8928 -0.569375
19.3869 116.621 5.4664
-13.4457 82.8726 1.51641
23.5564 115.746 12.9873
-6.14423 95.3454 -4.44253
21.1717 110.158 16.9887
21.6299 122.985 0.0689323
20.2793 122.774 -1.71716
-10.4159 90.2078 -3.9777
-13.4594 81.7615 2.94825
13.9616 114.725 -0.42004
18.019 109.088 13.5153
18.6587 112.531 9.74946
22.1361 120.066 4.71818
20.0869 116.83 5.98666
-2.31719 89.8585 8.73503
-1.37029 90.5979 9.08104
15.5582 105.931 13.9277
18.5643 113.866 7.59585
17.8983 123.824 -7.10512
3.06104 105.386 -4.49754
17.9473 117.006 2.31881
3.08632 105.409 -4.49457
0.226986 102.563 -4.97659
-3.99884 88.2883 8.10814
14.7559 116.411 -1.87417
21.0295 127.834 -7.95714
21.6026 116.397 8.54686
-8.10036 93.0949 -4.98021
3.99532 106.14 -4.38795
15.0792 105.133 13.9355
18.7137 112.551 9.28641
-4.26577 97.5089 -5.21744
13.1302 107.466 7.72111
-4.67119 96.8101 -4.89222
-10.0579 90.3058 -4.20587
23.737 122.699 2.99973
22.9777 129.497 -7.49216
21.5005 117.579 6.57798
21.9386 118.838 5.50958
23.7273 115.544 12.7448
23.6168 117.083 10.4546
26.2807 129.284 -2.28409
22.8464 113.222 14.49
23.0064 124.851 -1.22507
21.2515 118.531 4.75784
18.1349 114.163 5.90272
-7.32449 93.4235 -4.58384
20.1601 126.517 -8.04752
9.93527 101.776 10.2358
-5.8575 94.6688 -4.16472
25.4434 126.839 -0.451848
25.6012 125.626 1.39527
-3.35333 88.2987 8.32015
22.1407 110.794 16.4227
9.15948 100.046 11.2857
8.99036 99.7173 11.4581
-9.58992 83.3108 5.55567
14.4191 110.452 5.0153
24.9445 131.087 -7.21122
21.7019 128.014 -7.9842
23.1949 116.494 10.0875
-8.98643 83.6228 5.84686
21.2582 116.386 7.09894
11.2916 103.528 9.49803
22.2524 124.034 -1.88376
23.0273 112.822 14.5988
22.8738 123.154 0.155421
7.94858 97.7268 12.1777
9.91582 101.343 10.213
9.25313 108.489 -0.631075
21.17 116.467 6.60266
-7.05007 84.5529 7.24244
9.96208 101.368 10.1208
26.324 129.449 -3.40557
23.8567 124.47 -0.356944
25.008 123.423 2.76163
21.6292 116.315 7.3076
-6.09503 85.4502 7.23
-12.5905 82.3285 1.53574
14.0681 111.297 2.53955
18.218 113.316 6.11519
9.48693 99.9648 11.085
8.34438 108.616 -2.67725
-1.44666 99.2949 -4.86779
19.9154 125.058 -7.58778
21.1412 126.371 -7.5993
-0.988898 99.8676 -5.07216
-9.3948 90.0335 -4.44482
27.0832 127.23 0.244687
17.2675 104.891 15.819
18.8462 109.921 11.2573
26.8205 127.702 -0.968222
23.5744 116.197 9.85497
19.7116 105.626 18.4297
21.6299 126.086 -6.73739
23.732 113.53 13.6893
-12.8638 82.3493 0.430512
16.1352 103.947 15.1387
23.0936 111.509 15.337
-5.94944 85.0817 7.16521
-1.96509 88.3614 8.75582
-13.399 81.8841 0.123068
1.18337 90.7926 10.1615
15.8346 115.215 -1.0416
-10.7317 86.7386 -2.60178
23.049 127.538 -6.95477
-12.2332 80.7549 3.18927
18.4349 108.302 12.2712
23.84 113.282 13.6814
22.3807 116.187 7.46074
-4.03706 94.9179 -3.76769
23.4167 128.326 -7.66557
16.4381 105.516 12.8498
15.1501 113.406 0.0329326
6.26364 94.1569 12.8484
26.6207 128.528 -3.19632
-1.68532 98.1407 -4.79723
16.1209 115.351 -1.19722
15.121 112.977 0.526056
18.9142 104.166 18.3753
19.1264 104.217 18.6292
18.5936 111.551 7.74301
4.23119 104.368 -4.39148
9.6125 107.706 -0.778888
23.1944 116.101 8.46464
14.6423 102.375 14.2216
24.4582 123.739 -0.131804
1.20116 90.3792 10.0195
18.6134 123.109 -8.28634
18.7796 115.18 2.7904
20.7392 123.684 -5.96295
18.6499 115.133 2.56237
13.8077 106.697 6.73138
26.5831 126.662 -1.20586
-13.1573 81.4086 0.0779148
8.94671 97.6879 11.5353
0.677219 100.364 -4.78962
7.66049 107.413 -3.80878
-6.79848 91.9815 -4.77679
-0.461055 99.1583 -4.96023
-8.58666 89.8956 -4.68015
-11.2274 85.3673 -2.52089
18.1391 103.428 17.5933
-3.83885 85.914 7.83518
-1.08022 97.4222 -3.77475
24.2929 115.892 9.66699
-1.21846 97.3904 -3.99221
18.3875 111.31 6.88558
14.3499 110.068 2.4049
3.42627 102.378 -3.74958
4.75332 103.492 -3.2771
19.6014 115.145 3.41372
24.021 112.495 13.792
0.603947 89.5444 9.4716
16.6294 115.319 -1.41368
27.2231 126.77 -0.976221
1.78362 90.1145 10.3918
6.044 93.3968 12.3858
17.2506 102.454 17.0731
15.0025 110.742 2.25517
-6.79652 83.5361 6.2533
26.8671 128.277 -3.67203
-0.443493 97.8415 -3.7055
17.8224 102.718 17.5107
-4.27301 93.4562 -3.60354
22.8124 115.68 7.32005
-9.88669 86.6994 -3.13451
-3.26886 94.2425 -3.37401
0.138291 97.0171 -2.00619
2.54935 101.108 -3.95245
20.1235 104.418 18.369
15.0602 110.334 2.48787
-13.0369 81.9603 -1.56823
9.07548 97.1219 11.4358
14.4171 109.692 2.34213
-4.09151 85.2549 7.57137
22.7232 115.512 7.03779
22.8469 108.443 16.8966
26.8453 126.494 -1.80441
0.171219 96.3086 -1.2203
-1.43299 96.1778 -3.50242
-4.64582 92.7409 -3.73021
0.187853 98.3293 -4.025
0.635533 98.3544 -3.60446
-3.55637 85.2809 7.8714
-2.73153 85.8157 8.35687
4.79701 101.983 -2.34099
-2.40767 86.0737 8.47015
23.5702 109.519 16.0171
-0.0539169 95.9115 -1.47267
20.0846 115.043 3.04149
13.9021 108.823 2.11461
26.0087 128.404 -6.37676
17.3362 110.132 5.39938
19.0936 115.584 0.53283
24.6793 113.418 12.0371
-3.91484 92.9384 -3.59243
18.0597 106.555 11.3101
5.96779 102.898 -2.164
-12.0494 82.2093 -1.34497
2.20553 99.3037 -3.05396
24.0153 115.047 8.63979
22.6675 115.05 6.57
15.285 107.731 5.21418
3.5649 100.092 -2.2498
14.5783 106.95 5.16966
-0.475925 94.7184 -1.15457
1.43521 88.8529 9.81472
-11.4966 82.4233 -1.16695
9.04077 96.1322 11.4209
27.1612 128.018 -4.66788
12.7937 107.511 1.50005
27.7087 127.246 -2.79485
27.0686 128.215 -5.11146
-11.3904 82.4955 -1.18524
10.0873 98.6534 9.46774
13.6732 101.036 11.6332
13.5854 99.203 14.0095
16.0225 111.9 0.282091
16.7639 108.98 5.36177
8.72569 106.495 -3.52823
0.0841943 94.7235 -0.607607
22.6577 123.794 -5.98762
6.55351 102.943 -2.03787
19.2029 115.205 0.475119
13.5055 107.823 1.86446
8.21587 105.58 -3.15158
17.4223 109.496 5.48828
-10.4878 84.9572 -3.55446
27.8644 127.021 -2.6449
17.901 109.918 5.58138
17.4948 105.235 11.3655
10.4275 99.099 8.93341
15.9109 110.071 2.25818
10.197 106.212 -1.20563
24.4468 110.861 14.1946
12.8414 107.23 1.42556
-6.90524 89.9932 -5.12099
17.301 113.232 -0.0152825
5.91557 101.637 -1.52266
13.9976 101.288 11.2992
20.2566 114.943 2.07757
7.0903 93.697 11.0984
-5.43278 91.1672 -4.58746
1.44946 95.7533 -0.364141
-0.853264 94.9525 -2.83509
16.5964 104.185 11.1416
19.1673 101.926 18.1715
10.993 106.322 -0.379646
19.1088 101.881 18.0822
-10.2465 79.7058 3.55416
9.73125 97.0954 10.2238
-13.3475 79.8257 -1.37791
24.9919 113.405 11.0999
0.476395 94.2664 -0.159788
6.53692 101.96 -1.50134
8.61874 105.53 -3.22165
6.25772 101.539 -1.35806
15.0828 99.4706 14.9211
-9.80086 83.7802 -1.60167
24.4896 110.089 14.6261
4.30571 89.7601 11.6527
19.5067 101.809 18.3338
15.2142 106.487 5.29433
-9.82464 85.1576 -3.74881
27.316 128.122 -5.94013
17.963 113.382 -0.0642278
25.0191 113.903 9.86415
7.44605 102.871 -1.89907
5.87077 100.55 -1.17888
24.1035 108.504 15.7639
-1.39733 92.2194 -0.89966
11.5767 100.364 7.74019
19.2099 114.421 0.0973959
-6.25248 82.5987 4.81597
13.4671 99.8594 11.2564
-1.52288 93.522 -2.98517
16.9944 100.519 15.7222
-5.76032 82.6247 5.45613
13.1905 98.2324 12.9904
23.4366 123.954 -6.68661
23.0455 114.325 5.90208
14.9628 102.027 10.363
23.8814 113.981 7.54257
20.7844 102.452 18.6235
17.8206 112.818 -0.141183
25.0298 113.605 9.76419
18.5924 106.342 9.77797
16.1575 106.746 5.49496
14.9321 107.883 2.01839
19.2204 101.259 17.6231
3.56458 96.9587 -0.430037
8.27997 103.504 -2.21709
9.72759 95.7647 10.592
17.1122 100.261 15.6537
19.1995 114.049 -0.0961815
15.8599 106.25 5.49635
17.6559 107.964 5.78924
21.4819 103.294 18.0474
12.9327 106.13 1.06878
2.36875 95.0181 0.0185546
23.0076 105.057 17.6744
-10.8003 81.6655 -1.95948
-3.27775 91.2052 -3.5978
15.6461 105.638 5.5184
-8.9532 83.2977 -1.45296
18.8142 100.688 17.0941
-3.08222 90.5587 -2.51528
24.869 112.988 9.40539
0.884344 93.0034 0.114123
18.2349 100.3 16.6063
21.5053 112.883 4.29031
17.1832 106.919 5.78353
23.7949 106.068 17.0283
16.5189 103.029 9.9885
16.2045 98.3059 15.9572
-7.46231 84.789 -1.68724
25.2255 110.145 13.5022
12.5476 100.831 6.89447
-3.97681 89.2135 -2.45091
-1.70733 84.1093 7.97945
-10.6185 81.2389 -1.72108
-2.00289 89.6864 -0.151644
11.9007 105.118 -0.0801664
-9.83956 80.1397 0.940246
-5.35071 89.1603 -4.62815
-6.72771 86.0688 -2.49428
14.3485 100.15 10.3914
16.391 108.531 1.95711
14.594 97.9303 13.7056
-9.99386 81.7245 -1.66088
-10.7179 79.9095 -0.339134
18.4338 99.7687 16.9451
-6.92593 83.8366 0.0215676
24.3242 123.823 -7.12156
-6.75182 87.5928 -4.96902
12.1902 104.998 0.0770571
21.7951 112.143 4.93987
25.48 111.55 11.3763
7.86437 91.4703 11.9671
-0.565485 90.6509 0.184596
-2.95489 83.465 6.353
26.5664 125.784 -6.61539
19.8207 112.304 1.56462
0.164849 91.0066 0.689163
-9.60306 81.9215 -1.78147
4.45342 96.4825 -0.268193
24.6974 107.569 15.4461
1.59112 93.0684 -0.0310595
12.9453 96.389 12.758
24.7147 107.544 15.4363
27.7342 125.814 -5.02413
-8.58569 79.1873 3.40926
-9.45603 82.5106 -2.5067
15.5253 97.9327 14.5189
24.1986 106.036 16.5966
-3.36241 88.09 -0.948563
-8.82105 83.7884 -3.42902
27.895 125.313 -4.31101
-10.0676 81.6349 -2.42555
21.7317 101.353 19.1253
8.20576 102.007 -2.47799
14.4028 102.132 6.77473
-4.19526 82.4085 5.37663
10.866 96.6698 8.78194
22.9288 112.599 5.36483
15.4474 97.7948 14.2317
-5.54178 87.4585 -3.87148
3.21723 86.9984 10.1528
18.3737 105.213 8.32999
-8.20287 84.7943 -4.31751
-5.36278 87.4574 -3.69794
-5.69754 87.4075 -4.20603
7.86069 101.121 -2.32303
12.4568 95.7556 12.0632
25.0797 107.894 14.7046
24.7105 111.794 8.78308
-2.63937 87.67 -0.0264233
7.26131 99.7767 -1.5546
22.3494 101.732 18.8344
14.3715 101.546 6.88816
24.0365 112.675 6.35078
-4.66433 87.7852 -3.41742
23.2055 103.105 18.1412
3.20805 86.7345 9.98076
-8.43903 82.2254 -1.91663
18.3981 105.021 7.82686
23.6956 112.183 6.08625
3.32076 86.6007 10.0004
15.7407 97.4147 14.1489
18.4216 105.174 7.47289
11.8344 95.2492 10.9947
3.77048 94.1216 0.141761
8.22952 91.0279 11.1831
11.2528 96.4628 8.29707
10.5704 103.541 -2.48156
-7.76983 82.2101 -1.27883
24.5153 111.667 7.60524
8.38099 90.7087 11.6569
14.5685 98.8149 9.97214
10.1764 94.3461 9.35081
13.5359 97.4577 10.2137
13.5723 100.136 6.58415
3.657 86.4401 10.2071
22.2724 100.646 19.1683
15.4894 97.1774 13.5548
16.8163 97.0607 15.664
-8.5949 80.5791 -0.618949
3.74846 93.741 0.163297
8.38775 91.7435 9.96253
17.4174 96.8599 16.6985
22.5415 100.86 19.0277
18.1373 104.923 6.53949
-3.99767 85.1466 -0.182877
18.3797 104.13 7.94746
16.2115 100.648 9.3865
1.75373 91.0584 0.431314
25.6546 107.924 13.8312
0.25899 83.8928 7.96195
16.806 101.693 8.78003
20.1798 110.816 1.4036
26.956 123.265 -5.33479
15.1334 105.369 1.13895
11.2317 95.3932 8.83353
23.6508 110.633 6.78837
-8.75928 77.7904 2.19353
15.8115 101.689 6.96089
2.3978 85.0622 9.26333
4.4657 94.1865 -0.14844
4.23295 93.8171 -0.0157726
24.7798 110.447 8.48178
3.98314 86.0947 10.0447
9.74023 101.089 -1.79128
9.16257 91.3421 10.6862
17.0132 101.571 8.62594
18.1473 107.917 1.63245
-8.72321 79.1553 -0.00391668
22.4216 109.251 6.30836
-8.70876 77.6572 2.01099
14.0822 97.1261 10.1403
-0.885171 86.4853 1.83992
18.1874 103.017 8.29073
10.3285 102.34 -2.79917
6.16049 96.2396 -0.819724
19.6066 110.528 0.130932
15.6637 96.5297 13.2842
8.86976 90.1929 11.5634
7.49252 98.1526 -1.46771
-3.78737 81.6537 3.91614
-5.15688 80.8391 2.91795
13.2704 103.293 0.232244
-0.613857 86.144 2.50832
14.4349 95.3298 12.8742
25.6518 106.697 14.408
24.086 110.18 7.21196
10.4151 100.805 -0.934028
8.17105 89.2675 11.4567
-1.17727 85.8763 1.80329
15.4027 98.4644 9.86972
-9.42329 77.2934 0.956161
15.0041 95.7259 13.008
-2.98555 83.6238 2.09104
25.0335 109.402 9.5351
6.46336 87.344 11.3497
25.679 106.458 14.5035
-5.49937 80.1368 2.91235
-0.466401 82.8722 6.76666
10.2503 100.105 -0.515957
-5.24397 80.4995 2.69066
10.6621 100.662 -0.722633
18.9055 95.9619 18.2437
9.2679 99.5154 -1.37968
12.305 93.7483 11.0915
15.8675 100.8 6.81741
3.18292 84.893 9.20662
5.88707 95.1049 -0.81535
-5.01965 81.478 1.18343
22.0779 108.772 5.12302
-2.29735 82.3547 4.06423
-6.89431 80.4434 -0.621042
10.0771 90.9205 10.8514
20.594 109.534 1.32346
3.5163 84.7827 9.15557
10.208 98.9319 -0.0787744
10.0724 91.1979 10.3182
-6.75648 80.9408 -1.37954
-1.46061 82.4633 4.57204
11.4517 101.035 -1.20049
21.6202 108.689 3.79573
20.6929 109.3 1.52387
11.5008 100.65 -0.676769
26.0485 106.053 14.1284
11.002 98.8282 1.00987
-0.946945 82.3485 5.32422
-1.62685 82.4556 4.11734
16.0232 104.414 0.898325
9.96585 98.3404 -0.0833482
-6.47786 77.7641 3.00017
21.3454 96.5191 19.8067
25.7455 108.505 10.0727
11.6725 94.2449 8.11407
-0.998161 82.3101 5.07659
12.1228 100.081 0.716452
26.1918 107.195 12.4279
17.2168 101.063 7.10418
12.5871 101.649 -1.10255
15.9765 95.2484 12.7428
1.75885 87.5425 1.47861
1.5006 87.0702 1.6548
12.2273 92.6176 10.4429
8.04194 96.5139 -1.36011
11.2369 93.0884 8.1237
12.0657 98.3239 2.16972
12.2462 98.42 2.31251
-0.493831 82.0114 5.23219
26.2373 107.337 11.3259
13.7958 94.7264 9.38974
16.7134 98.147 9.00613
15.0292 93.8199 12.3127
6.7242 94.1644 -0.89242
23.3185 106.985 6.84007
-4.96155 80.1315 0.406251
17.2143 99.4441 7.80926
9.05281 96.9771 -1.36635
18.4669 94.6793 16.1254
-4.82797 78.1513 3.16497
10.6914 90.929 9.31889
23.9206 105.411 9.66567
14.7758 97.2388 6.79476
22.7479 96.8195 19.561
-0.757616 83.1959 2.30236
23.3932 106.67 6.94687
13.1944 101.042 -0.941991
12.5692 94.1519 7.55036
13.5801 100.534 0.254452
26.2181 107.232 10.3644
14.0242 100.009 1.5482
-4.95955 77.9335 2.79638
26.3298 106.926 10.8367
20.2077 93.8626 19.3607
12.9068 91.6789 11.1921
16.8593 98.4142 7.9888
20.2743 107.308 0.985883
11.3316 90.5309 10.2481
14.4953 98.6919 3.87458
13.8554 92.1771 11.7931
15.3609 95.5306 9.27184
2.86273 87.287 1.46264
-6.77271 77.9216 -0.440938
17.0415 97.8791 8.58388
21.6178 107.362 2.52939
7.71233 94.5308 -1.1726
20.5607 107.024 1.31039
5.2871 91.0165 -0.0816642
9.71652 95.8486 0.0595097
18.4794 94.2335 15.5731
0.457709 83.5556 2.62742
14.6293 99.6344 2.22887
2.93846 86.3663 2.55261
1.36067 84.1115 3.22003
20.694 106.929 1.46195
4.38832 83.718 8.31788
13.243 94.0071 7.73859
19.7369 93.4827 18.3222
9.29153 95.5783 -0.541285
22.3813 106.771 4.04646
10.3379 95.7146 0.79883
14.6122 95.6718 7.36711
24.5038 104.645 10.1498
3.37306 86.8657 2.21757
17.8127 94.1651 14.2812
12.6313 92.2043 8.92107
-4.2751 78.0598 2.41995
12.3767 90.8238 10.3388
16.1204 101.573 1.27945
16.9826 97.5301 8.13329
15.0577 100.17 1.56448
18.3269 94.0069 15.0147
21.5461 106.742 2.44925
22.4905 106.543 4.15121
23.1166 106.148 5.6336
3.63579 86.456 2.82267
-0.117576 81.3961 4.02529
3.71763 87.3108 1.7724
11.7591 91.741 7.96921
16.1916 93.6956 11.9513
13.4115 96.7075 3.56591
-3.76962 79.4375 0.950982
24.4024 97.8896 18.6995
12.7409 92.441 8.33977
18.2047 104.038 0.760753
8.07315 85.8779 10.1793
16.392 99.2803 4.49728
12.7607 92.2645 8.45513
-1.00048 81.9264 1.57323
10.4701 95.2437 0.803188
13.2491 93.2174 7.83381
7.54494 85.4453 9.756
18.3244 101.824 3.73093
15.1674 92.4751 11.7191
19.3902 92.8278 17.6834
12.891 92.223 8.52286
17.4432 100.17 4.54617
25.3639 99.3403 17.7423
15.8356 95.4472 8.49687
15.4363 92.6251 11.6773
18.534 101.43 4.32002
-5.17176 78.319 -0.245596
4.4853 87.9211 1.31759
24.5216 103.49 10.4449
24.2572 103.421 10.1359
19.2584 92.7552 17.0509
7.05386 92.0383 -0.671953
14.5651 91.5498 11.4799
26.6745 102.846 14.4526
15.1513 96.8383 5.06347
18.7542 93.0372 15.7329
19.6639 103.614 2.59006
-4.76802 77.9183 0.448728
10.5791 87.8592 10.2473
-1.32918 80.9125 1.50436
13.0735 92.533 7.58199
12.5433 91.6529 7.94733
19.3523 92.0938 17.609
-2.10648 79.649 1.81197
12.9319 91.0889 9.08018
19.0881 92.7371 16.2219
24.6624 97.0951 18.7471
18.0838 99.8764 4.86709
25.8584 99.6656 17.0464
0.683317 81.1219 3.9488
-1.23175 80.5558 1.78133
13.4381 90.2769 10.8577
14.1905 93.5066 7.52699
20.9162 104.763 2.35014
-1.7877 79.5891 2.17302
26.7762 102.475 14.4294
13.4448 91.4407 9.09831
16.3092 95.5186 7.80719
-1.9457 79.2378 2.20722
13.0469 95.3247 2.99909
20.4581 103.22 3.48913
13.3216 95.4099 3.26323
14.1658 90.5961 11.0264
-0.718587 80.4563 2.1564
14.2534 93.6558 6.91849
26.7734 104.142 11.5996
5.85212 88.2444 1.41759
21.5508 104.54 3.04109
17.1493 98.1317 5.10446
16.2926 96.9012 5.42577
14.3282 91.8081 9.38195
24.1816 103.395 8.44189
2.29022 81.6067 4.86056
13.7892 90.0771 10.7869
14.0182 92.4139 7.82634
12.5159 90.3105 8.39538
4.14778 82.5025 6.27796
-0.500065 80.0313 2.5492
19.1652 90.5836 18.1367
13.136 90.5873 8.89486
-0.0479557 80.4449 2.55708
13.2071 91.1216 8.14839
16.1175 94.4466 8.0013
