ply
format ascii 1.0
comment Created by Open3D
element vertex 1800
property double x
property double y
property double z
end_header
5.13037 119.057 -4.37153
21.4467 136.78 2.21575
13.3749 128.025 3.0715
-8.9162 103.84 -4.15462
7.42594 121.599 14.2246
-16.8052 95.3316 1.71705
15.2483 130.129 -0.282284
12.9704 127.707 3.03327
-21.6331 90.2134 5.63753
12.1249 126.844 3.24807
13.7133 128.569 -0.448884
-16.3805 95.9285 1.5557
-24.9027 86.7025 23.6565
-16.7819 95.5126 1.68925
15.0372 130.055 0.69235
1.45982 115.333 -5.26232
-26.905 84.5944 24.0528
-19.9218 92.2658 23.8959
-29.053 82.4 14.6607
-4.63591 108.875 -4.54914
-0.619726 113.278 -5.19164
-15.7434 96.908 20.7756
16.4084 131.779 -3.6115
17.4413 132.957 -3.01818
-26.8495 84.9253 10.8721
13.4892 128.708 -2.82843
12.4961 127.662 -5.23941
2.05022 116.372 11.3987
13.8428 129.206 8.11066
20.3938 136.311 5.8472
0.365233 114.6 11.5415
20.8477 136.839 5.07135
8.24369 123.181 14.1103
7.41196 122.303 13.5514
-27.1327 84.8507 11.1381
13.8292 129.336 7.86283
20.4932 136.571 0.241525
15.3728 131.022 7.69335
-21.9824 90.5283 23.4507
15.648 131.4 -2.01912
-6.21799 107.702 14.0619
-14.885 98.3134 20.1338
-26.0973 86.1674 23.4132
12.2115 127.726 0.128042
19.8945 136.081 -1.09847
-12.9456 100.48 18.6174
14 129.758 7.51458
-27.6757 84.5774 25.2858
17.729 133.839 6.85535
-18.8845 94.1314 23.7368
12.287 127.933 -5.59093
-0.599898 113.975 -5.1238
-31.2059 80.8018 18.4792
-14.2821 99.1615 -0.41847
-4.89666 109.374 13.3037
-9.61629 104.242 -4.07437
0.108357 114.798 -4.61376
-3.11713 111.305 -5.45398
-12.8004 100.823 18.4592
-10.121 103.737 -3.46449
6.38382 121.657 -4.49831
1.75833 116.717 11.0802
11.8435 127.649 -2.88784
13.9647 130.007 -2.83349
20.9434 137.586 1.05726
-17.9406 95.4177 1.59492
13.008 129.004 9.46853
15.238 131.443 7.69029
19.8817 136.48 5.87793
20.8838 137.6 4.76817
15.0895 131.458 7.64076
-1.74154 113.227 -5.53523
14.7216 131.108 7.72134
-0.514356 114.604 -4.94093
10.6066 126.689 11.4856
12.534 128.767 -5.52558
-7.24926 107.327 15.2711
-12.0031 102.176 17.7884
1.84236 117.194 10.859
-20.1179 93.3845 24.4106
-5.30808 109.457 13.4841
-19.0965 94.515 24.1392
13.5521 129.937 8.67146
8.25083 124.224 13.6854
14.1602 130.641 8.0267
-10.9771 103.377 -2.65157
13.0054 129.408 -0.298423
5.06061 120.818 -3.46723
-27.7692 85.2548 24.8371
-3.95559 111.071 -4.86601
11.2635 127.63 1.50451
20.1957 137.359 -0.540417
-20.191 93.5694 2.5479
11.8611 128.387 -0.126777
-26.2036 87.1228 9.06914
-9.17962 105.605 15.8615
-27.1333 86.1338 24.1106
-4.38984 110.801 12.9225
9.5249 125.907 13.4474
8.23337 124.519 13.5544
-24.1739 89.4255 7.46704
-23.0559 90.6436 6.35906
-17.0856 97.1388 0.798498
16.31 133.384 -4.13513
10.994 127.633 0.859028
-18.7856 95.3703 23.9357
-22.9164 90.8903 24.0989
20.8385 138.35 4.76844
11.7911 128.531 -3.8434
5.06452 121.267 10.4529
-1.80541 113.803 -5.36022
15.3372 132.411 -2.40912
-5.37501 109.987 -4.31378
-26.531 87.0482 9.4711
-9.25081 105.813 16.0391
-11.8874 103.005 17.9208
-8.78302 106.426 16.0423
2.30474 118.442 -4.64946
-16.9033 97.6409 21.909
19.3614 136.991 -1.68633
18.9689 136.575 5.98405
17.686 135.211 6.61288
20.9675 138.776 4.62639
1.58054 117.82 10.5652
-31.0207 82.4631 17.1563
-21.0394 93.3203 24.0095
2.44826 118.781 -4.32619
-25.5777 88.4081 24.415
18.7922 136.535 -2.3841
-3.67387 112.227 -5.31229
-23.0883 91.2448 6.114
21.9001 140.052 2.78222
-6.64253 109.087 -4.34413
-24.928 89.2979 24.0305
12.6939 130.115 9.1697
12.6638 130.112 -5.1507
-20.5789 94.1389 2.45105
11.3877 128.821 -0.531226
0.270761 116.859 10.7662
7.95683 125.23 12.0167
7.91964 125.195 11.4762
16.312 134.289 -4.2281
11.1933 128.744 -6.13953
15.571 133.527 7.78515
4.88722 121.927 -3.99874
9.63246 127.082 -6.26329
20.103 138.501 -0.484738
-30.4778 83.6388 15.1428
-11.9964 103.681 -2.23065
20.0787 138.518 -0.513932
12.0113 129.774 -2.22557
0.539581 117.462 -5.30385
11.4718 129.365 10.625
-19.8388 95.4069 1.72084
-9.29429 106.899 16.8483
-19.2453 96.1169 25.0732
-1.10913 115.771 -4.97573
8.18664 125.913 11.8053
-22.5558 92.6426 4.62488
-32.0632 82.3628 19.6421
16.6548 135.216 6.97322
-7.79186 108.693 -3.25129
16.9845 135.661 6.79108
19.8366 138.756 5.46328
11.0194 129.19 -6.21018
11.3682 129.581 -6.20453
12.7527 131.112 -4.98922
-30.2021 84.5534 14.3314
-9.25203 107.301 -2.9138
-19.5139 96.181 1.32035
-17.8261 98.0603 23.8795
15.2428 133.931 -2.90403
-8.93134 107.748 17.12
-24.9561 90.3713 7.44459
-15.2712 100.919 20.7218
-28.6228 86.436 11.9695
18.1981 137.245 6.08417
-11.6833 104.864 -3.17578
-10.5745 106.115 17.7362
-20.0996 95.8137 24.7738
13.818 132.609 -2.60946
-15.8257 100.47 21.0821
-0.715685 116.857 10.7794
-5.22477 112.032 13.3236
21.3869 140.914 1.79014
-3.67274 113.725 -5.11764
17.9926 137.255 6.15675
-7.4523 109.668 -3.53725
11.6455 130.391 -3.96658
-19.2086 96.9444 25.3343
12.7894 131.742 -3.8901
-9.53072 107.528 -2.48934
14.2102 133.298 -1.98042
-24.5717 91.24 6.90233
1.29842 119.338 -4.75292
-10.3231 106.732 -2.53896
-11.6432 105.327 18.437
14.3978 133.583 -2.68797
-10.1047 107.002 -2.44914
17.7053 137.228 -2.49827
12.4767 131.566 -0.254505
14.8997 134.198 -4.20262
-31.5172 83.8941 17.5896
-17.908 98.6525 0.350152
-12.6637 104.374 -2.40136
-15.5981 101.23 21.6581
11.9741 131.147 9.27095
0.457086 118.655 10.2458
-7.70016 109.813 16.6142
-2.01259 115.996 11.1571
14.6223 134.114 -3.41714
16.2061 135.847 7.04666
-7.35552 110.319 16.2775
11.6094 130.882 -4.02549
-6.66052 111.093 -3.88518
5.9522 124.79 9.39673
17.2315 137.019 -2.93147
-7.35599 110.362 16.2883
-15.8629 101.155 22.0375
-26.2855 89.8668 8.22883
14.005 133.574 -1.63776
-3.04985 115.118 -5.2519
-10.2511 107.411 18.302
-32.1541 83.65 19.4578
-26.165 90.1626 8.06856
-16.0608 101.123 -0.350785
11.5261 131.16 -2.38204
-15.1395 102.317 21.8035
16.3336 136.454 6.91519
-6.29531 111.905 -3.89275
15.8436 135.938 7.24225
11.6591 131.4 9.41082
10.7214 130.45 10.7231
13.3328 133.289 -1.50741
-23.2844 93.6151 25.0582
-1.5386 117.201 10.8007
-12.6258 105.163 -2.90687
12.4548 132.405 -2.32176
-6.91567 111.402 -3.69199
8.33647 128 11.9332
9.94457 129.747 11.6952
5.97033 125.457 9.00363
1.83568 120.975 9.60787
-7.09089 111.296 16.0475
16.8163 137.247 6.5802
-17.7551 99.7681 -0.0720141
-9.8647 108.348 -1.7393
14.1879 134.447 -2.07179
-24.6737 92.3035 6.33246
20.7177 141.552 3.21938
17.7687 138.359 -1.95947
-28.0362 88.7439 24.8644
4.73093 124.316 -3.97789
-5.09595 113.683 13.227
20.3999 141.372 0.388117
3.85156 123.431 -3.10092
-9.96571 108.468 18.6524
-2.11042 117.018 11.0092
-27.7186 89.2597 25.049
-29.2597 87.5905 11.9588
-15.6925 102.319 22.2165
-11.1163 107.293 19.2486
14.5123 135.082 -4.05299
19.9157 140.974 -0.0362016
20.7076 141.86 1.09155
13.4506 134.002 -1.95222
-6.40864 112.506 15.3153
18.0174 139.003 -1.5845
8.9164 129.212 -6.12833
7.55704 127.753 9.19255
14.1383 134.928 -1.90779
-32.7805 84.0733 22.7298
-5.77732 113.364 -4.14434
-29.0405 88.1532 26.1696
-20.1418 97.8364 24.1123
-28.7453 88.523 25.5338
18.2013 139.485 5.86634
1.71845 121.645 9.4394
-12.6664 106.071 20.3028
13.1762 134.113 -2.30932
-27.8367 89.6435 8.94654
-10.6484 108.335 19.041
8.12599 128.743 11.6271
-22.3255 95.7181 24.0033
-32.4793 84.7138 23.6559
-16.4777 102.058 -0.3711
-23.9935 93.9268 24.6359
1.49559 121.635 -4.11731
13.9737 135.263 -2.03762
1.65336 121.928 9.37383
16.6254 138.193 -2.91819
-12.1249 107.034 20.1528
12.9904 134.273 9.02571
-5.19443 114.551 13.5486
-23.8453 94.372 23.8308
-8.19803 111.343 17.2057
-30.7053 86.9584 14.3732
6.27291 127.097 -5.50559
-16.0981 102.851 -0.35098
-18.0194 100.79 24.0478
8.02553 129.048 11.3024
12.8619 134.284 -5.95225
-28.3106 89.6336 9.09646
14.8912 136.51 7.78958
-31.3945 86.3255 16.2978
-8.26024 111.426 17.2759
-20.8988 97.7604 1.80817
-6.88399 112.965 -2.72416
-1.27028 119.13 10.4359
-2.85685 117.439 11.3445
6.9994 128.133 8.42151
-17.2478 101.88 -0.495353
-5.04355 115.169 13.4738
-32.9418 84.9208 22.2328
16.2229 138.288 -3.20323
20.7324 143.218 1.74133
-18.6029 100.551 -0.0465378
1.36302 122.233 9.31025
19.1193 141.509 5.51615
-18.8553 100.382 24.3823
13.1873 135.122 -5.7022
7.89751 129.414 8.76458
-0.516154 120.295 -5.13051
-24.3477 94.4662 23.6021
8.3004 129.88 11.1912
19.2735 141.788 -0.231112
6.10892 127.524 8.21642
-13.4402 106.32 -1.81512
9.64677 131.396 10.9068
-29.2271 89.2308 10.9394
-26.196 92.5227 6.50093
-7.10406 113.238 -1.97452
-6.22176 114.216 15.4812
-8.90726 111.375 -1.34
-31.5742 86.8384 16.39
-13.2796 106.701 20.8157
-25.2233 93.7624 5.64431
-21.3857 97.925 2.0499
18.4829 141.253 -0.58955
14.0406 136.452 -3.64554
-5.17602 115.618 -4.03295
-28.2242 90.689 25.1021
-29.3102 89.5036 11.1382
-26.6671 92.3682 6.7304
-27.991 91.0098 25.0149
-30.7331 88.0708 14.0985
2.78818 124.427 -3.21635
-2.66876 118.562 -5.10854
-32.7678 85.9355 19.4296
-29.603 89.3933 25.5799
16.1328 139.032 -2.77971
-18.6797 101.308 24.0359
-5.10583 116.021 -4.04202
-17.7324 102.353 23.1225
15.3503 138.256 -1.77037
-24.7413 94.7932 4.41807
-11.3619 109.333 19.0682
-24.9428 94.6265 23.048
13.9107 136.765 -3.65122
-3.0842 118.357 11.533
1.30313 123.106 -4.12815
-5.16631 116.136 14.0196
5.85265 128.098 7.89412
15.8401 139.028 -2.28555
-22.4072 97.5645 21.0061
-29.3924 90.0331 25.3984
10.5953 133.408 9.57468
-26.0505 93.6667 24.0478
-13.1257 107.696 20.3088
10.9362 133.816 9.53233
-26.4077 93.3163 24.3015
-18.6922 101.719 23.6844
-30.8001 88.607 22.9678
-22.7146 97.3935 20.9149
-4.69114 116.987 13.3663
-11.887 109.186 19.4366
-9.99302 111.243 18.2871
8.43214 131.233 10.4264
-2.00423 119.92 10.6629
-30.5745 88.9849 23.479
-30.3002 89.3465 13.2887
7.46032 130.322 7.88028
-28.7338 91.0993 24.7619
-5.93595 115.818 -3.01612
19.9305 143.888 2.79495
-29.5602 90.2465 11.7321
13.7204 137.262 -1.6391
-19.7013 101.03 24.5034
-27.3829 92.7071 6.84706
-22.3235 98.2097 2.30572
-9.35438 112.359 17.9846
-13.8581 107.468 -1.2249
15.8165 139.689 -1.87507
-2.80383 119.488 -4.76315
-20.0759 100.762 0.564455
-8.54367 113.278 -1.03307
-31.194 88.7655 22.2736
-32.128 87.7705 17.3753
-4.74496 117.478 -3.77725
-11.3914 110.359 18.6847
-24.911 95.7055 20.4834
-4.90399 117.394 -3.56846
-25.5338 95.1109 4.79814
11.8984 135.765 -6.50184
-28.5624 91.9488 24.3654
5.65031 129.066 7.39288
9.75355 133.6 9.7953
-21.7901 99.4095 22.0306
-12.3266 109.715 -1.50019
-30.5948 89.945 13.944
-17.7312 103.892 -0.305492
-9.1682 113.205 17.8977
10.5231 134.552 -6.21824
10.9925 135.138 -6.40316
-13.0505 109.065 -1.51334
-9.61236 112.812 18.1083
-14.9103 107.087 20.8521
-22.2656 99.102 2.1038
-29.2109 91.5781 10.0391
-30.1787 90.5798 23.1772
7.2714 131.192 -5.23966
8.374 132.399 7.58044
1.40933 124.841 -3.83371
19.5956 144.62 2.75057
-14.7669 107.358 20.6613
-7.82886 114.873 -0.980375
-26.9877 94.1287 22.2551
19.6023 144.727 1.12107
-4.31714 118.773 -3.91276
-17.7687 104.192 -0.396919
-28.6973 92.3592 23.7954
-19.5339 102.322 23.3632
-9.38597 113.338 18.0016
-32.5446 88.2275 20.1217
6.35017 130.422 -4.98603
-2.78353 120.514 -4.55389
15.0016 139.857 7.30507
-27.4651 93.7974 6.41075
-3.11853 120.241 11.8767
-30.5448 90.5114 13.8199
-29.9728 91.14 12.5089
-0.991476 122.59 9.90239
-8.0269 114.958 -0.901121
-11.9579 110.717 -1.30286
10.9068 135.554 -6.46709
18.715 144.035 4.47817
3.61657 127.69 7.52785
-22.5389 99.3185 2.09416
13.4369 138.361 -1.20724
16.7767 142.027 -1.29143
-29.3826 91.9753 22.8141
-11.8047 111.029 -1.16323
-30.3028 90.9974 22.3593
-10.8608 112.108 -0.804617
-30.897 90.4089 22.3708
-29.5346 91.888 10.877
-8.40386 114.807 -0.832127
-6.96545 116.382 16.109
-23.9332 97.9772 19.961
-32.4015 88.7911 20.931
-28.0031 93.5676 22.582
-6.61789 116.752 -1.12661
9.35919 134.151 9.93556
19.1414 144.761 0.611578
-22.9922 99.1116 2.20993
-11.7679 111.382 18.7878
4.48702 129.021 -4.31648
-31.7902 89.7572 17.7871
-28.3453 93.5568 22.0688
-20.8463 101.709 23.9768
15.8237 141.511 6.73479
-28.9089 92.9835 9.47395
-6.66266 117.115 -1.01112
-5.35685 118.564 14.8391
-8.9347 114.702 -0.698938
-11.8656 111.549 18.8229
-11.3456 112.112 -0.768623
-19.2265 103.591 -0.266956
10.8239 136.212 9.1251
-27.623 94.5164 20.2255
-29.3684 92.6436 22.2077
-4.14068 120.012 13.2316
13.1567 138.794 -4.34132
6.04697 131.096 6.76952
-29.6154 92.4192 22.0142
1.56101 126.268 -3.56537
-31.7718 90.1305 21.0979
-20.4338 102.442 23.5101
-28.696 93.5044 21.8959
14.1139 139.941 7.28318
8.91665 134.321 9.49715
2.55077 127.446 7.58717
-30.5472 91.5567 13.8237
2.16021 127.035 -3.22066
-7.28909 116.867 -0.69089
-22.2026 100.722 1.49388
-16.4805 106.938 -1.6128
3.22139 128.346 -3.32668
-24.8147 97.9389 3.07973
-29.2484 93.1657 22.0556
12.5002 138.472 7.85064
18.8367 145.351 0.703629
11.3878 137.346 8.6045
-7.48616 116.967 16.5004
7.07172 132.745 -4.76928
-16.7046 106.993 -1.54084
-17.8012 105.825 -0.912475
-21.8668 101.434 0.856286
-0.901502 124.208 -4.42753
-29.9727 92.6937 21.3912
-29.758 92.9246 12.1491
13.2999 139.634 -2.47719
-28.8357 93.9378 9.33604
-16.5521 107.287 20.955
1.05213 126.391 -3.85697
-30.9794 91.7072 15.0364
-29.8468 93.0152 21.3587
-0.97923 124.346 -4.42528
-29.0944 93.859 10.9355
-16.8402 107.162 -1.55323
-4.23892 120.88 -2.90289
-4.15139 120.989 -2.92612
0.731216 126.325 8.61507
-12.7112 111.737 -1.2637
-22.0123 101.673 22.2187
16.627 143.607 -0.0728889
-7.36704 117.596 -0.54
18.093 145.254 4.14541
15.8006 142.785 -0.987215
-31.5198 91.6569 18.8874
10.6405 137.404 8.6755
-1.22559 124.621 -4.42214
-2.85611 122.853 -3.30216
-15.0381 109.657 20.1321
-27.7703 95.8468 8.59452
-31.4072 91.9363 19.371
-27.652 96.012 18.0197
-16.8817 107.732 20.8466
12.2214 139.344 7.95117
11.9334 139.101 7.98166
18.4858 146.247 1.88247
-11.3453 113.92 -0.537208
15.2009 142.737 6.27777
-11.3164 113.985 -0.516629
-22.7442 101.635 1.58068
7.56833 134.529 -4.93212
6.02109 132.936 -4.59437
16.1351 143.921 5.56438
-27.6071 96.4986 8.76319
15.0385 142.888 -0.0735612
-21.334 103.469 23.3738
-23.337 101.294 19.8471
-20.4659 104.421 22.8661
-27.1469 97.169 8.58285
10.8567 138.399 -6.47451
13.8886 141.778 0.367835
-5.17852 121.133 14.7623
8.13708 135.593 5.63737
-29.0439 95.2681 10.9799
-18.2817 106.988 21.4764
6.27333 133.625 5.92015
-17.6971 107.632 -1.12119
6.96096 134.394 5.76254
8.21471 135.761 5.84139
11.7495 139.591 -5.84129
10.2456 137.977 7.28525
-22.2956 102.732 21.5272
5.47683 132.892 5.91419
5.20373 132.608 5.97817
-7.74106 118.611 16.705
-4.84064 121.789 -1.17744
9.03716 136.852 6.181
-31.2231 93.246 18.6972
14.5615 142.914 6.16569
-29.0999 95.5623 17.814
-15.3308 110.51 -1.54602
-31.2786 93.232 18.6064
-11.1071 115.12 18.5606
-28.232 96.5388 9.38173
-25.0077 100.091 17.6659
16.1694 144.806 5.04195
9.33864 137.407 -6.01261
13.2276 141.629 -4.26844
6.71893 134.584 5.55212
0.567951 127.925 8.71382
-29.1879 95.6445 11.4776
11.3397 139.624 7.9834
13.6749 142.189 -0.0732377
-9.22399 117.377 17.7523
1.08411 128.597 -3.36395
9.73525 138.016 6.40353
15.5495 144.325 0.904156
12.7223 141.302 -1.77921
17.7351 146.82 3.02262
17.0689 146.103 0.938025
4.98153 133.04 5.81458
-29.7408 95.4277 14.0078
-26.4096 99.0473 17.9658
-5.14062 122.136 -0.931262
-1.4761 126.136 10.9776
-27.3766 98.1398 5.25251
13.1125 142.134 6.2054
-15.0043 111.651 19.9381
-1.57769 126.217 11.1201
-1.26359 126.574 10.7217
-19.8884 106.366 -0.333083
-3.90387 123.71 -1.80096
-3.30155 124.399 12.7633
-29.1707 96.3364 10.1834
-25.7791 100.061 17.2911
0.023083 128.052 -4.18186
-21.6627 104.584 -0.292555
-3.49665 124.364 12.9374
9.80204 138.789 5.92314
-8.73248 118.699 17.309
-4.20936 123.591 -1.5193
-17.098 109.617 -0.604715
-18.2098 108.433 20.8416
-7.14866 120.447 -0.360637
-21.4809 105.075 -0.156731
14.0351 143.641 0.744837
-29.2833 96.666 10.5387
-29.654 96.2788 13.6081
13.1335 142.699 5.96907
-13.6352 113.694 19.5134
-19.9962 106.78 -0.124465
17.0789 147.005 0.867835
-27.6378 98.5603 7.33967
11.7849 141.35 -4.77776
-4.22258 124.009 13.59
-26.6024 99.7273 3.96682
-18.7234 108.281 -0.221295
12.5813 142.279 -4.24148
15.2843 145.242 1.1749
-30.0827 96.0439 15.7638
-27.9731 98.4141 16.0873
-22.3759 104.492 22.1808
8.77479 138.291 4.90781
-23.4943 103.304 20.607
-6.04656 122.217 -0.386501
-28.0202 98.3973 16.6849
-6.13913 122.141 15.3451
-24.3054 102.466 18.9529
-29.928 96.3664 15.5662
-8.50319 119.631 -0.147852
12.0544 141.951 -4.52814
15.9474 146.207 4.55472
-3.33534 125.289 -1.84419
16.4889 146.815 3.791
-28.2688 98.2663 14.3959
-30.4742 95.8828 17.0433
16.1154 146.451 1.06012
-9.06197 119.162 -0.0570591
-21.0914 106.132 0.102361
-18.4429 109.043 20.6879
-1.37242 127.563 -3.62209
-17.0069 110.639 20.0367
-21.5252 105.724 0.0826237
-30.2768 96.252 16.6673
-13.7424 114.193 -0.8587
-24.5864 102.492 1.86685
-21.6845 105.728 22.6417
-0.141769 129.197 9.67887
-7.86896 120.851 -0.116851
-18.2621 109.577 -0.470423
-24.4279 102.907 1.90667
-28.073 98.983 13.3461
-22.3265 105.237 22.5039
12.2138 142.717 -4.3502
-11.835 116.685 18.4315
-18.1334 109.842 -0.573709
-2.14522 127.19 -2.80333
-19.9229 108.065 -0.0950953
-28.1404 99.2067 13.186
-22.2819 105.671 22.6456
9.67504 140.434 -6.0773
6.62372 137.126 -5.44009
-17.8158 110.64 20.16
-10.6283 118.466 -0.15303
-15.698 112.967 -1.30334
6.68889 137.253 -5.47405
-20.6883 107.572 -0.0729749
14.064 145.305 1.27682
-3.07445 126.783 12.3763
-4.4382 125.299 -0.817448
-20.027 108.409 21.2969
10.6625 141.695 5.83202
-10.8456 118.426 17.7695
15.8735 147.404 0.853882
-27.8037 100.029 5.59593
-17.1925 111.634 -1.8307
-4.00134 125.967 -0.956321
-9.18562 120.384 0.0323782
-13.8026 115.391 19.3195
-27.7157 100.302 9.66159
-25.0599 103.201 18.3659
5.26873 136.123 -4.92473
-21.4774 107.139 22.1986
-28.4907 99.526 10.1679
8.96282 140.219 -5.9268
6.35599 137.553 -5.54275
-9.59278 120.285 0.0860029
-5.51818 124.714 -0.0410718
-28.4317 99.8715 11.7184
-16.1998 113.176 19.9353
0.120378 130.868 -3.86888
-28.4331 99.9176 11.8056
2.98771 134.037 6.76231
-17.7221 111.633 -1.81098
-23.6808 105.203 20.808
15.1717 147.347 4.71818
-7.19294 123.088 0.142926
-17.6689 111.794 20.0351
-25.56 103.242 2.47975
-26.1559 102.606 2.72356
-21.8752 107.274 22.2221
-1.09287 129.819 10.5402
-24.9253 103.978 19.0406
-27.8045 100.896 16.7269
7.86765 139.589 -5.74308
-17.576 112 -1.85467
-14.7049 115.138 -0.647784
-3.9031 126.874 -0.723751
-22.5264 106.7 22.3326
4.36216 136.005 -4.39693
15.8167 148.445 3.36778
-26.2625 102.809 16.7496
-12.9153 117.35 -0.448189
15.7737 148.481 2.38336
-27.2038 101.949 4.56381
13.5372 146.157 -0.314526
-10.3728 120.321 17.3454
8.03268 140.295 -5.60066
-27.9419 101.302 6.29087
9.9335 142.483 4.53035
-21.6008 108.285 21.9695
-6.69901 124.457 15.3014
3.58255 135.625 6.95178
6.74515 139.063 4.57682
15.3623 148.413 3.77449
-27.1836 102.272 9.673
4.81959 137.031 -4.76706
-3.7169 127.778 -0.652399
-28.568 100.881 12.2934
-11.0333 119.911 17.5043
5.53751 137.887 4.89106
5.29417 137.632 4.9591
-24.1203 105.839 20.6078
-3.35729 128.402 -0.783956
-26.9369 102.888 4.14564
15.4481 148.88 3.35883
-20.046 110.374 -0.946649
-21.6807 108.63 -0.728252
-26.6016 103.299 2.90756
11.0583 144.166 5.10641
13.7027 147.053 4.53993
-1.09771 131.058 10.1978
-25.6038 104.501 18.635
-21.4647 109.022 -1.00145
-24.9916 105.215 19.7409
11.5077 144.805 4.93282
-19.3818 111.344 -1.48183
-9.01785 122.606 0.346429
9.43991 142.633 -5.95286
-13.753 117.494 -0.556522
11.642 145.071 -4.5374
4.84966 137.713 -4.84387
6.35281 139.366 -5.59066
-15.1114 116.104 -0.662876
-26.4981 103.756 2.80719
-26.0658 104.268 2.6895
3.77585 136.649 6.47022
-11.4481 120.141 17.527
4.6679 137.628 -4.73007
-24.3004 106.209 2.19683
4.81212 137.863 5.0834
-26.743 103.652 11.3949
-7.17584 124.907 15.4108
12.8012 146.605 4.4419
10.9153 144.561 -4.82219
-19.4819 111.614 20.3531
-27.7599 102.663 8.76674
12.9051 146.827 4.33794
-3.34712 129.202 12.0668
-28.2227 102.231 12.1157
-11.0196 120.931 0.244364
-12.576 119.283 17.8425
-3.40941 129.245 -0.547216
-11.2785 120.766 0.221714
15.1174 149.41 2.04125
-27.746 102.923 8.99672
-9.68967 122.518 0.368375
-1.74961 131.142 -2.17712
-26.8322 103.953 3.25606
-27.7366 102.992 15.7952
2.63236 135.956 -4.18518
-20.4793 110.936 -1.26102
-3.4791 129.457 12.0639
-14.5571 117.44 -0.586175
-28.03 102.858 7.28765
13.2249 147.626 -1.39721
-20.9808 110.549 21.163
12.6559 147.032 -2.42008
12.8259 147.276 -2.10481
-27.65 103.398 6.23965
14.7874 149.52 3.14992
3.52909 137.336 -4.37882
-5.53956 127.505 0.391132
-24.1672 107.312 20.7683
11.2405 145.788 3.97739
-1.8324 131.614 10.3513
-17.0096 115.217 -1.36691
-27.7009 103.678 9.64557
-15.1654 117.279 -0.606676
5.21654 139.44 -5.29422
-27.251 104.242 16.6713
5.40703 139.697 -5.29111
-17.365 115.003 -1.41404
3.69054 137.952 -4.45476
-27.8306 103.906 9.02944
5.41283 139.978 4.9554
0.637447 134.822 -2.76153
-2.45072 131.487 10.7166
2.23289 136.57 6.97061
13.5588 148.896 1.57721
-19.0356 113.558 20.3395
11.294 146.453 3.49248
-9.24204 124.21 15.5261
4.88813 139.563 5.05411
13.3197 148.719 1.48073
7.13198 142.013 4.07074
-3.9047 130.118 12.0893
-10.0455 123.487 16.1925
1.57361 136.118 -4.03932
-1.94754 132.318 -1.24376
-26.661 105.601 11.9933
-20.2488 112.567 20.5329
-0.199973 134.305 -1.91865
1.12954 135.777 -3.13581
-2.38586 131.991 -1.05817
-18.5008 114.511 -1.64917
-21.5523 111.229 21.1823
-22.1213 110.69 21.1217
9.05662 144.538 -5.50047
-26.8706 105.576 12.7415
-22.0428 110.816 -1.30496
-6.24576 127.965 0.572429
2.18413 137.173 -4.25351
-15.0977 118.43 -0.61862
14.1561 150.182 2.449
3.24517 138.353 6.14246
-7.20498 127.063 14.5319
-27.8554 104.662 8.6592
9.37756 145.106 -5.26915
-10.9149 123.11 0.379389
-5.015 129.524 0.449066
-27.5855 105.046 5.88768
-26.0189 106.76 18.6383
-3.28585 131.478 11.3274
-21.9699 111.322 -1.54708
-3.05961 131.866 -0.288596
5.66707 141.37 -4.963
14.3494 150.82 1.54933
-27.2316 105.782 14.0728
-27.2687 105.793 17.1082
-26.7632 106.343 3.39303
11.5064 147.858 -2.90386
-7.59498 127.219 14.3733
2.60794 138.29 6.75416
2.14587 137.837 7.13243
-11.3663 123.181 0.298822
6.0425 142.078 4.49697
-9.07083 125.738 0.660917
7.92773 144.331 3.26605
-11.2278 123.585 16.1434
12.5238 149.364 2.95256
-4.21103 131.212 0.32613
-3.19972 132.319 0.0618365
-20.7874 113.299 -2.08327
-19.1682 115.123 19.7914
-19.1117 115.173 -1.84482
9.27724 145.97 -5.0127
-1.69916 134.089 9.69852
-25.687 108.176 18.9859
-27.7909 105.925 15.7402
-1.5494 134.435 -0.771079
-27.277 106.729 11.1776
-18.3805 116.404 -1.32219
-11.2853 124.137 15.6324
-26.6925 107.418 6.75036
-15.0617 120.069 17.9945
1.46234 138.024 7.55438
-18.8457 116.096 19.3707
-19.2555 115.654 19.5547
8.36602 145.609 -5.24159
-19.8011 115.104 -2.12762
-26.3747 108.041 5.25443
-27.2985 107.138 16.992
-12.5691 123.142 16.4777
12.1814 150.001 0.744349
0.95543 137.841 7.86248
-6.17239 130.147 13.2292
4.19558 141.394 5.0693
10.6518 148.408 2.7258
-25.3188 109.459 19.2177
-4.14125 132.427 0.176944
-6.86699 129.502 13.6336
11.7152 149.664 0.562541
9.06269 146.804 2.79024
-25.0413 109.83 19.4724
0.00161572 137.037 8.51961
-8.6157 127.841 13.873
-9.57935 126.877 14.1373
-24.8643 110.289 0.882192
-3.63962 133.339 11.0882
-22.7755 112.592 20.3449
-17.0703 118.792 -1.18194
3.1021 140.709 -4.15018
9.55433 147.73 -4.72186
-27.1387 107.958 15.066
-26.427 108.78 12.6824
-7.88168 128.982 13.6133
-14.0357 122.393 -0.345013
-9.60922 127.208 14.0347
-16.4941 119.777 -1.20181
-26.5524 108.905 3.54072
-8.62855 128.38 13.6615
5.62019 144.12 3.96318
-7.44137 130.015 0.147978
-5.22012 132.513 0.297014
-10.5239 126.868 14.5376
-16.8129 120.104 18.1253
-26.7761 109.294 17.4362
8.09789 147.112 -4.75025
-25.6176 110.62 1.31725
-26.9205 109.22 16.1006
-18.9901 117.842 19.0998
0.492755 138.987 8.01165
-26.7269 109.524 16.8917
1.53648 140.176 -3.03448
-4.50438 133.644 11.4099
9.33398 148.669 2.40863
-26.0865 110.254 5.42758
-2.63374 135.721 -0.0999875
-21.58 115.172 -1.99101
-25.9485 110.518 5.84859
-0.182029 138.5 8.26706
6.17396 145.431 3.48552
8.71905 148.206 -4.50163
-26.3604 110.244 17.6558
-26.4002 110.214 17.3332
-24.3642 112.437 19.5845
-27.0612 109.578 8.31761
-8.6076 129.606 -0.641324
1.82786 140.934 -3.17634
-17.0035 120.554 17.888
8.06092 147.76 -4.52377
6.32294 145.928 3.33187
-16.161 121.539 -1.4276
-7.39074 131.07 12.8729
4.93558 144.484 -4.244
6.82222 146.545 -4.55984
-13.2394 124.802 15.3771
-12.3265 125.809 -0.363877
-26.0118 111.012 1.93976
-23.8875 113.349 19.645
-14.8669 123.136 -0.869782
9.51439 149.598 -3.64042
-11.0801 127.378 14.5743
-0.673383 138.69 8.15766
1.27487 140.864 7.05894
-0.693612 138.805 -1.05512
-9.12483 129.732 -0.977372
-19.176 118.844 -1.47172
0.753917 140.526 -2.07279
-18.9159 119.23 18.7559
-5.05418 134.322 0.034163
-11.7252 127.107 -0.671603
-17.3253 121.071 -1.54347
-17.7597 120.696 -1.55869
11.2027 152.144 0.499769
-16.1774 122.458 16.8151
-18.6922 119.765 -1.60841
-4.26725 135.43 0.0838199
-22.474 115.736 19.4537
-13.326 125.657 -0.498484
-26.7265 111.129 4.26032
1.85383 142.241 -2.92554
-16.7967 122.04 16.9938
-26.6692 111.356 13.2769
-10.9314 128.437 -0.772153
-7.34986 132.384 -0.455374
-4.57486 135.405 -0.0561379
-27.0829 111.022 11.8034
-20.8357 117.799 -2.27742
-27.1967 110.935 12.4177
-4.00827 136.126 -0.138493
-25.6006 112.707 7.07193
3.13295 143.88 5.02489
3.94561 144.808 4.29021
-26.7277 111.539 3.67711
-3.1701 137.12 9.17919
-18.299 120.745 17.9486
9.5583 150.971 -1.32288
-14.6656 124.724 15.7233
-24.697 113.847 18.8009
1.98336 142.797 -2.93708
-27.1513 111.208 12.4912
-4.67226 135.605 10.5172
-26.9608 111.493 11.7644
-25.5845 112.992 9.03755
4.15117 145.262 -3.92705
-8.62742 131.411 -1.41756
-19.6257 119.527 -1.67743
5.88523 147.229 -4.18407
-20.2822 118.877 18.7605
-26.8363 111.777 11.4064
5.22334 146.558 3.53034
-0.0157737 140.968 -1.4405
-25.6785 113.286 1.07541
-17.1111 122.609 -1.71318
5.35127 146.986 3.47769
-25.8088 113.233 15.83
7.99492 149.901 2.13567
-3.32248 137.633 -0.459873
-14.2695 125.864 14.8188
1.45818 142.929 5.92632
7.05361 149.016 2.44733
3.95755 145.68 4.0553
9.09436 151.272 -1.81601
6.65825 148.659 2.60855
-1.87327 139.447 -0.300717
-26.6425 112.618 13.6702
-11.5171 129.056 -1.62139
-26.0585 113.309 10.9164
-7.61543 133.333 12.0942
1.70054 143.438 -2.49095
-16.6757 123.524 16.598
-24.8304 114.689 18.3859
-25.7221 113.727 16.4338
2.55896 144.45 -3.01848
8.3827 150.781 -3.68967
-10.4558 130.352 -2.3986
4.1616 146.285 3.85515
-22.9051 116.938 18.9367
-0.318306 141.439 7.03498
-4.3453 137.138 9.32529
1.60335 143.598 -2.3514
3.5706 145.746 -3.56261
-18.0496 122.344 17.1378
-26.1698 113.532 6.63506
-25.9324 113.794 11.7028
-5.13123 136.385 9.97536
-19.4521 120.839 -1.8745
-3.21383 138.501 8.49786
-25.5391 114.382 17.5346
9.25666 152.138 -0.626749
1.99891 144.282 -2.61597
-20.5529 119.82 -2.0198
-22.183 118.057 -2.37264
-0.295869 141.815 6.75651
-9.85675 131.452 12.549
0.661593 142.893 5.72227
-12.6889 128.42 -2.20301
-0.959339 141.209 -0.79578
-25.1779 115.038 11.5266
3.52687 146.208 -3.47102
-24.7028 115.586 -0.340647
-13.0391 128.252 -2.40399
-26.7982 113.33 4.45781
-12.9138 128.41 -2.50483
-26.7347 113.427 5.57914
-4.63332 137.41 9.15977
-25.9008 114.402 15.9483
-18.4747 122.491 17.036
-18.8156 122.124 17.1958
-19.9138 121.04 18.0095
-23.1314 117.536 -1.82541
-4.30596 138.048 -0.956996
-26.5036 114.037 14.3592
-23.4519 117.365 -1.59848
-8.86059 133.24 -2.7858
-2.18036 140.555 -0.63472
-21.3099 119.817 -2.37509
-8.06986 134.221 -2.56929
5.37459 148.843 3.34097
0.153655 143.186 5.42681
9.50983 153.345 -0.0704931
-26.6738 114.163 5.9458
8.63215 152.48 -1.49761
-25.2122 115.778 17.5815
7.76919 151.547 -3.20535
-1.68753 141.291 -0.610054
-25.2638 115.778 12.3567
-7.639 134.924 -2.48637
-21.1485 120.27 -2.34006
-25.6611 115.414 12.8464
8.36456 152.33 2.20797
0.409928 143.763 5.21737
-9.20497 133.412 12.2013
-5.11461 137.864 9.243
-25.742 115.621 8.36224
-2.06156 141.312 7.38657
-6.45853 136.55 -1.52202
-18.3103 123.708 -2.18726
-17.9221 124.139 -2.28251
8.03367 152.316 2.60007
-17.3667 124.806 15.7315
-5.87384 137.268 -1.60998
-10.9081 131.842 -3.78277
-25.9 115.696 14.2377
-10.748 132.135 12.6538
-21.4171 120.555 -2.52232
-9.10162 133.923 -3.20469
-25.4951 116.151 0.3713
-6.50889 136.758 9.88284
-3.19513 140.381 8.07907
-26.1694 115.561 7.54286
-17.5348 124.936 -2.50483
-5.26003 138.292 -1.43738
-14.5896 128.194 -2.88233
-25.0857 116.86 12.6914
-4.47342 139.225 8.80112
-23.9252 118.132 18.1466
1.62474 145.847 -2.21295
8.29675 153.129 2.9607
-4.4871 139.258 -1.06975
-3.36506 140.494 8.11106
-24.8207 117.305 9.27481
-2.30338 141.874 6.78534
-21.4155 121.134 -2.33842
-25.0781 117.187 12.8357
-0.126856 144.25 2.32913
-0.293743 144.076 2.77127
0.802702 145.323 3.90416
2.48289 147.166 3.57256
-21.4056 121.279 -0.524212
-7.46858 136.433 10.263
-6.64643 137.347 9.68398
-5.68803 138.429 -1.65374
-24.7657 117.792 12.1516
-25.5483 116.979 16.0225
-25.0441 117.553 1.26409
-24.7577 117.87 0.386161
-24.688 117.997 0.450855
-15.1474 128.366 -3.15406
-7.18554 137.02 10.0098
5.97578 151.334 -3.14436
-3.88844 140.648 -0.965023
-20.5814 122.543 0.551879
2.43854 147.536 3.34783
-12.8834 130.964 14.3113
-20.3623 122.907 0.398093
-25.3135 117.542 8.29695
-15.4108 128.294 -2.92699
-3.24318 141.63 3.83278
-24.8782 118.179 12.7132
-10.9552 133.301 -4.30261
-24.6929 118.46 12.2665
-14.8886 129.115 -3.81013
-19.4771 124.151 -0.950594
-23.8077 119.503 17.6095
-7.27743 137.472 -2.50276
-20.3151 123.373 -0.693948
-24.7146 118.619 16.0385
-2.23879 143.025 2.77239
-24.1797 119.27 10.0594
-15.5452 128.653 -3.48434
-20.8371 123.048 -0.317569
-14.5187 129.903 -3.70892
-22.8827 120.889 0.468569
-24.4279 119.222 0.963572
-20.708 123.263 -1.60436
-4.09959 141.292 -1.09711
-22.5522 121.359 17.7038
-13.7831 130.883 14.2537
1.33472 147.31 -2.16531
5.10175 151.432 -3.02636
-16.6689 127.829 -1.58394
-2.42603 143.318 5.22535
-23.3177 120.667 -0.0155877
-5.57446 139.966 4.91063
6.31806 152.876 -2.44016
-26.6217 117.197 6.13176
-5.34302 140.335 3.66214
-14.7077 130.237 14.5398
-7.37768 138.188 6.43981
-23.7589 120.46 11.9865
-5.4081 140.376 5.31259
-7.36015 138.258 -3.21827
-15.9901 128.903 -2.16454
-17.3462 127.46 -1.13399
-4.01774 141.928 5.6
-25.9727 118.111 3.03961
-20.9605 123.565 -1.01159
-21.7127 122.78 -0.502702
-18.9595 125.769 -0.971018
-16.6515 128.297 14.5554
-20.1589 124.485 -1.00471
3.96458 150.702 -2.99072
7.64645 154.732 0.435982
-18.0687 126.846 -1.44323
-24.7337 119.642 1.38833
-22.1414 122.509 17.4892
-19.5822 125.272 -2.12236
-10.5233 135.115 11.7712
-4.57581 141.595 5.96038
-18.926 126.043 -1.72118
-23.4401 121.176 2.09824
-25.3171 119.203 7.92218
-22.3931 122.401 1.54177
-23.6976 121.001 2.13509
-20.8136 124.241 -0.511223
-25.4721 119.191 3.36266
-7.93959 138.237 7.5247
-20.0777 125.118 -1.8087
-17.9635 127.505 14.8876
-21.8055 123.338 2.29964
-19.9816 125.336 -0.582291
-24.2849 120.712 3.31965
-10.0634 136.177 11.1838
-19.7504 125.813 -1.5982
-25.8274 119.239 6.82782
7.11118 154.98 0.674321
-26.3919 118.647 5.95378
-19.1516 126.524 -1.77761
-13.5419 132.625 13.3123
-0.25568 147.085 -1.55491
-4.10829 143.02 -1.39753
-14.3459 131.93 13.0889
5.59406 153.551 -1.83395
-15.5037 130.779 13.7702
-24.2088 121.395 11.507
-7.18685 139.877 8.52603
-9.42426 137.496 10.3429
-18.3075 127.86 -1.87256
-21.223 124.746 0.74541
-21.69 124.254 1.7855
-4.51492 142.917 1.59814
-8.84768 138.229 7.93448
-8.70189 138.437 8.18516
-18.9349 127.422 15.38
-18.5858 127.813 -1.81402
-23.2702 122.778 -0.0219299
-26.5501 119.239 3.77953
-22.7494 123.404 0.132492
-20.8232 125.509 -0.942554
5.02396 153.553 -1.87816
-18.9967 127.578 15.3697
-22.4128 123.862 2.65347
-14.6699 132.282 12.4832
-22.482 123.799 2.86881
-19.0719 127.496 -1.49376
-24.0984 122.139 15.0112
-20.0915 126.522 -1.46786
-22.1428 124.337 2.39601
-26.2332 119.903 6.4237
-8.31521 139.386 5.39591
-18.6611 128.159 -2.28757
-13.3862 133.883 -2.12412
-18.6327 128.263 -2.22219
-6.79127 141.13 2.8665
-21.6571 125.01 1.30435
-10.2855 137.447 -3.53243
-23.3888 123.279 1.59647
-8.7878 139.143 6.21613
-24.7725 121.847 3.77868
-23.4348 123.366 1.76963
1.25125 150.16 -2.28617
2.99731 152.066 -2.52259
-24.8794 121.894 3.8149
-22.5821 124.39 1.13831
-22.5978 124.382 1.46015
-25.2287 121.562 4.1939
-11.6001 136.351 7.73175
-16.0841 131.498 12.2162
-23.2403 123.766 2.26426
-21.2337 126.033 1.55344
-21.7794 125.512 1.24597
-26.47 120.438 4.37541
-18.481 129.126 10.3995
-23.0792 124.155 1.86037
-24.1591 123.013 12.5772
-17.0628 130.746 -2.19134
-21.5067 126.006 -0.078232
-12.6368 135.693 11.4173
-0.488553 148.875 -1.68151
-26.2624 120.929 6.9901
-26.4895 120.703 5.96418
-22.9156 124.579 1.99239
-22.2295 125.449 1.87988
-13.5144 134.916 -2.60041
-17.1361 131.005 -2.02823
-20.9445 126.911 0.844984
-20.4899 127.444 -1.20222
-24.6761 122.965 3.50924
-5.45241 143.826 -2.69031
-19.4474 128.685 9.82386
-10.8004 138.057 -3.55072
-26.3671 121.193 6.72202
-21.3434 126.644 0.990315
-20.8128 127.225 0.143489
-12.4294 136.33 8.45594
-25.7124 121.923 4.2782
-19.0389 129.242 14.8568
-11.8772 137.027 10.1106
-24.7546 123.06 9.45665
-16.0206 132.627 11.0894
-25.1256 122.749 3.70798
-22.3536 125.769 2.58165
-25.5036 122.357 3.9256
-23.6524 124.509 15.0309
-10.4132 138.87 5.41832
-22.4066 125.859 0.429397
-20.801 127.645 1.24284
-23.5152 124.79 14.8432
-24.4018 123.82 3.00117
-15.3933 133.661 -0.770367
-21.2393 127.365 -1.72855
-20.0528 128.674 11.5987
-24.7963 123.544 2.30522
-15.9138 133.208 10.7399
-10.2124 139.383 -3.80896
-9.82746 139.865 -3.89985
-13.5557 135.888 10.8327
-21.9228 126.836 -1.22471
-13.9646 135.487 7.79941
-18.9168 130.139 -1.34366
-20.4517 128.508 -1.108
-23.4404 125.274 -0.68719
-4.80001 145.518 -2.32755
-23.35 125.405 0.21488
-19.3446 129.759 -2.55498
-21.6054 127.346 0.656323
-14.0455 135.589 8.20755
-12.7377 137.032 9.36015
-22.8939 126.027 -0.84037
-20.1582 129.01 0.584732
-15.4039 134.198 -0.77879
-12.8957 136.931 6.95297
-13.9699 135.771 -2.54009
3.51379 154.749 -1.52102
-24.5335 124.362 3.74852
-20.1434 129.135 0.280575
-21.5669 127.622 -2.56424
-23.14 125.928 7.4431
-17.9992 131.508 10.3688
-19.7996 129.564 -2.7874
-12.9567 137.004 6.80178
-3.2775 147.507 -1.6932
-24.1171 124.921 13.6119
-20.1982 129.178 14.1074
-25.5928 123.395 5.36208
-15.0132 134.908 10.8818
-14.5992 135.36 8.7717
-22.4867 126.803 -1.25883
-23.8522 125.323 -0.844461
-20.2296 129.272 14.2569
-18.2643 131.421 -0.724526
-7.69084 142.904 -4.03296
-22.9843 126.344 7.1039
-20.5611 128.978 8.61561
-21.3683 128.105 -2.02912
-4.66691 146.232 -2.2822
-22.5921 126.792 -1.26128
-23.5796 125.785 7.33632
-11.5534 138.831 -3.74948
-1.83458 149.406 -1.36727
-23.8039 125.579 2.72631
-24.2588 125.089 6.58937
-20.6406 129.011 -0.333465
-14.6977 135.476 7.06475
-24.1924 125.178 -0.779507
-25.616 123.67 5.4381
-24.4281 124.968 12.579
-13.9051 136.404 6.49542
-16.5931 133.518 8.60911
-21.5695 128.122 9.8038
-20.7769 128.976 1.34184
-21.4835 128.213 -2.32236
-25.4725 123.893 6.19062
-22.442 127.185 -2.17122
-21.966 127.724 9.89249
-21.999 127.705 -3.1961
-8.1533 142.85 -4.21961
-23.3654 126.388 -3.57254
-15.3884 135.054 7.58882
-11.8172 138.932 5.27174
-17.7698 132.487 -0.733157
-20.0597 130.016 12.8202
-16.1622 134.248 7.08821
1.98525 153.97 -1.8441
-8.37076 142.746 3.08462
-7.58349 143.611 2.12066
-24.4029 125.372 11.8345
-24.6548 125.125 11.0465
-17.8557 132.505 -0.665293
-23.6479 126.235 1.89078
-10.3753 140.654 4.67119
-25.5297 124.261 5.95565
-25.7759 124.002 -5.23016
-24.4903 125.419 6.36082
-24.0778 125.894 0.668437
-20.785 129.476 -3.86045
-22.6912 127.426 8.74708
-20.6326 129.697 -0.455077
-1.17302 150.817 -1.71065
-17.2025 133.45 9.81246
-24.1667 125.896 -0.0147717
-9.83474 141.451 4.9975
-21.1903 129.13 0.761372
-25.6689 124.3 5.61295
-22.5349 127.723 6.79671
-24.6928 125.401 3.60848
-24.0281 126.136 10.7248
-15.9175 134.944 9.52966
-24.1682 126.075 9.27323
-18.9137 131.787 -0.250531
-14.6149 136.503 -1.86843
-17.7021 133.164 7.55897
-22.6464 127.82 8.55895
-23.9443 126.411 -0.411095
-18.9828 131.837 11.4953
-21.7024 128.895 12.7045
-23.726 126.769 2.52867
-24.6695 125.776 6.27704
-21.702 129.008 10.8924
-19.8348 131.034 8.16093
-20.5888 130.23 -0.208869
-7.83222 144.099 2.47645
-19.9388 130.973 -3.7548
-20.777 130.11 8.14517
-24.4216 126.177 6.53396
-13.169 138.409 -3.51266
-26.2556 124.221 -4.59127
-1.84299 150.716 -1.49766
-24.8931 125.751 5.46849
-20.5723 130.455 -0.0884752
-23.4316 127.38 8.72987
-22.9256 127.94 12.3653
-25.7107 124.918 -5.42888
-22.006 128.954 11.5456
-4.23536 148.237 -2.09138
-18.576 132.719 -0.0146356
-26.8667 123.738 -4.56288
-25.5043 125.244 0.24032
-25.5917 125.186 6.42163
-18.8121 132.58 -1.13235
-4.47742 148.158 -2.27945
-25.6192 125.281 5.01705
-25.5461 125.385 6.07779
-22.3149 128.961 11.3226
-19.1973 132.345 0.686636
-25.1253 125.941 -2.61738
-25.6139 125.437 5.72856
-1.66676 151.432 -1.62354
-8.91246 143.6 3.46302
-12.6864 139.584 4.44005
-22.3613 129.121 8.29399
-19.4908 132.244 -1.31513
-22.8935 128.574 -3.5231
-18.3425 133.523 0.225576
-0.187393 153.231 -2.20077
-23.4833 128.02 8.76598
-26.571 124.685 -3.75327
-25.5193 125.851 -2.64044
-25.0113 126.435 6.43048
-22.6452 129.039 9.44097
-23.5678 128.038 8.77374
-12.6818 139.916 -3.26996
-23.7059 127.969 9.40723
-22.8078 129.038 9.08103
-20.209 131.854 -3.50699
-6.29811 146.952 -3.83126
-13.981 138.632 5.16253
-25.7677 125.849 5.25052
-25.7096 125.995 3.96275
-19.3544 132.914 1.01638
-13.2471 139.544 4.64298
-25.3787 126.461 6.49229
-25.3614 126.476 -1.56774
-27.2688 124.47 1.2765
-25.4336 126.498 -3.84453
-25.3624 126.596 5.9442
-25.8078 126.124 7.1409
-20.5843 131.814 0.793272
-23.7847 128.429 8.68565
-4.4202 149.479 -2.28469
-26.0798 125.998 7.11738
-25.2443 126.912 6.94399
-10.9578 142.415 5.03971
-23.3812 128.965 -3.87667
-25.6111 126.557 -0.0335288
-25.4018 126.797 6.11112
-8.27183 145.406 3.40717
-25.4679 126.774 -3.67342
-28.3593 123.653 -0.656186
-23.7994 128.61 8.52285
-27.1554 125.013 -1.47439
-9.72353 143.957 4.53064
-24.4794 127.991 7.90199
-15.7649 137.457 -0.739081
-16.4322 136.733 -0.951281
-18.1718 134.861 0.84768
-14.5829 138.753 -3.16941
-26.064 126.321 -1.66929
-27.747 124.519 0.0347348
-27.8354 124.478 -2.44846
-23.3152 129.382 -5.12093
-27.5726 124.799 -3.10779
-16.242 137.104 -1.49622
-9.66435 144.323 4.39607
-23.7914 128.993 -4.49624
-25.9625 126.67 7.27871
-27.1517 125.376 -1.04138
-25.2509 127.507 6.27335
-27.5905 125.006 -2.86246
-27.8039 124.783 -3.79588
-24.0379 128.906 9.03027
-16.2344 137.392 -0.902149
-25.8401 126.973 -0.514555
-22.8763 130.194 -4.27653
-27.2688 125.591 -2.45849
-26.5929 126.36 6.73697
-22.8042 130.48 -4.05883
-25.4463 127.631 3.84455
-13.9493 140.187 -2.83541
-18.4399 135.339 6.65362
-16.3006 137.703 -2.07805
-17.1394 136.805 -0.226493
-23.0705 130.411 8.78687
-25.3584 127.98 3.07434
-28.0115 125.097 -2.70291
-25.7742 127.558 5.27335
-17.3963 136.678 -0.445428
-21.2148 132.552 6.73091
-25.2033 128.235 3.66473
-25.4623 127.99 3.86619
-4.17086 151.198 -2.10433
-25.1054 128.496 1.70667
-26.196 127.321 6.05915
-26.607 126.904 5.9767
-26.1343 127.431 5.71034
-28.3076 125.184 3.66667
-9.92784 145.124 -4.11358
-26.3141 127.378 4.59357
-15.7562 138.843 -0.164704
-10.8478 144.182 -3.59396
-25.6763 128.21 2.84475
-5.80332 149.799 -3.25356
-2.12344 153.862 -1.84342
-10.6739 144.627 3.52499
-26.4878 127.534 5.45608
-26.0432 128.075 7.80424
-27.8728 126.106 -1.82371
-28.6823 125.247 0.859357
-26.7434 127.374 4.28269
-16.0677 138.993 -0.0548841
-25.8768 128.364 5.25636
-28.9155 125.094 3.84765
-18.7152 136.186 -1.08107
-5.21818 150.876 -2.62439
-14.3791 140.94 -2.56778
-15.3184 139.937 -2.5161
-29.3482 124.752 2.80551
-24.4674 130.132 -3.38784
-19.2535 135.809 6.97862
-15.8451 139.527 0.0658246
-21.1136 133.822 -4.05768
-28.1987 126.138 -5.00168
-21.3364 133.598 -3.9888
-21.514 133.484 6.00758
-29.4254 124.929 3.62247
-25.3419 129.406 2.99654
-25.4594 129.415 -4.30826
-13.3893 142.519 4.1293
-29.7385 124.838 1.80566
-17.3396 138.344 6.90312
-26.3161 128.607 7.86288
-15.3135 140.627 4.58045
-28.7832 126.014 -1.10429
-18.2051 137.496 -0.596262
-6.83896 149.826 -3.56371
-15.2379 140.741 -1.66423
-14.2668 141.881 3.98071
-15.177 140.926 -0.362838
-28.1167 126.921 6.80788
-28.0036 127.134 6.73755
-3.2892 153.966 -1.7069
-26.4945 128.818 -5.03633
-25.5407 129.866 3.34745
-8.92072 147.959 -4.26547
-25.543 129.936 2.90297
-18.2274 137.934 -1.82722
-12.3705 144.292 -3.34415
-28.3523 126.963 6.84405
-28.3598 127.011 6.83409
-15.2571 141.235 -2.21855
-23.4364 132.397 -3.21825
-27.2956 128.235 5.86072
-20.3498 135.767 -3.73238
-28.2184 127.317 4.25647
-11.6847 145.308 -3.54702
-29.8187 125.651 5.4279
-27.525 128.205 5.50457
-27.9961 127.729 -4.9631
-28.6734 127.025 -3.08318
-26.9345 128.959 7.79163
-17.233 139.501 6.06455
-23.0472 133.26 6.31834
-12.5656 144.639 -3.26094
-24.7904 131.391 7.89195
-22.5144 133.871 -3.66406
-4.82605 153.079 -2.263
-28.6593 127.244 -4.63608
-17.5679 139.301 6.53725
-29.933 125.911 5.27378
-26.0727 130.112 2.40361
-25.9225 130.356 8.05736
-30.5186 125.368 4.23956
-26.8226 129.411 7.73422
-27.9996 128.179 6.83436
-23.1102 133.511 6.00364
-22.6481 134.113 -3.65145
-25.4774 131.073 7.89983
-20.8766 136.108 6.55387
-4.11324 154.294 -1.84937
-28.6616 127.783 6.61508
-12.3607 145.497 -3.24621
-6.4022 151.968 -2.76629
-20.0314 137.205 -2.50827
-29.4415 127.071 -2.53183
-26.274 130.521 7.81435
-26.5668 130.226 4.35525
-23.2604 133.992 -3.21998
-11.2212 147.061 -3.6246
-28.982 127.818 -4.18418
-10.4855 147.933 3.10082
-29.8202 126.965 6.35997
-7.85946 150.821 -3.07349
-15.2266 142.905 4.14088
-5.05821 153.991 -1.44069
-20.8239 136.951 -2.39611
-9.7995 149.017 -3.798
-28.9908 128.369 -3.88683
-14.2784 144.346 3.7984
-23.2741 134.595 -3.07837
-10.2629 148.762 -3.81103
-15.0644 143.614 -1.69007
-25.7868 132.074 -2.44896
-26.9974 130.856 -2.19144
-25.5394 132.542 -2.63826
-13.6748 145.464 3.66016
-26.7299 131.366 -1.84115
-26.8153 131.33 6.478
-13.6366 145.719 -1.67095
-27.509 130.678 6.54614
-25.8198 132.522 -2.50081
-30.1416 127.885 6.12525
-25.6391 132.805 -2.63025
-20.7466 138.179 -1.30734
-27.0359 131.441 6.1124
-13.286 146.357 3.4866
-24.7741 133.925 4.88829
-24.4658 134.26 -2.59679
-14.6518 144.967 -1.12716
-21.2352 137.878 -1.41944
-19.9775 139.295 5.98922
-29.837 128.607 6.20798
-24.4241 134.521 4.23387
-21.08 138.15 -1.32733
-27.0934 131.66 5.68055
-31.7623 126.611 4.51693
-11.9974 148.054 -2.96131
-24.5822 134.467 4.03102
-15.9055 143.928 4.36337
-15.1551 144.75 -0.169411
-29.3528 129.468 6.15208
-12.8166 147.418 3.26355
-24.0389 135.244 -2.3709
-31.5597 127.13 1.6199
-15.332 144.753 4.19662
-25.875 133.328 3.9804
-28.5268 130.478 -1.61049
-24.3858 135.002 3.73616
-17.0597 143.071 4.98612
-9.24939 151.652 2.28384
-7.37615 153.709 -0.599841
-17.919 142.317 -0.272252
-26.4257 133.115 3.60538
-15.0674 145.589 4.16091
-21.5837 138.515 -1.57315
-24.0123 135.948 3.71102
-30.5754 128.925 5.50727
-21.9663 138.274 6.01437
-31.6213 127.807 1.82575
-12.9124 148.155 -1.37278
-21.0442 139.351 -1.25815
-14.7753 146.185 0.393102
-31.2708 128.306 5.36088
-26.8752 133.097 3.13321
-32.2891 127.282 5.64874
-8.45404 153.183 1.23885
-16.2348 144.786 4.68649
-25.6485 134.579 3.45415
-24.4733 135.938 -2.02855
-16.8895 144.228 -0.656008
-27.4691 132.755 3.0761
-14.5388 146.806 0.290186
-23.2269 137.532 -2.01783
-23.7686 136.993 -2.66955
-24.6721 136.14 -1.84025
-31.1493 129.124 -0.758902
-8.43368 153.78 -0.260112
-13.4835 148.402 -0.0576584
-19.898 141.612 -0.765818
-21.1185 140.49 5.8926
-17.2038 144.786 -0.869988
-14.9953 147.292 3.9248
-31.3603 129.56 0.610357
-9.88751 152.856 -0.353948
-23.5309 138.122 -1.65212
-15.7126 146.667 4.30907
-17.445 144.794 5.20132
-25.5137 136.053 3.32466
-31.0094 130.122 -0.334281
-15.9944 146.494 -0.289144
-28.945 132.499 -1.022
-24.456 137.402 -2.13501
-10.4043 152.716 -0.307193
-31.4015 129.961 2.57492
-25.1816 136.782 3.29856
-24.3327 137.827 -2.15571
-19.8579 142.867 5.80078
-30.0288 131.892 2.5175
-25.3689 136.988 -1.06643
-12.4753 150.983 -1.35971
-26.7016 135.622 2.45335
-11.8155 152.01 1.09397
-14.4733 149.272 3.37003
-26.4682 136.283 -0.929552
-27.4964 135.32 1.41436
-15.0801 148.837 -0.0687876
-12.5346 151.781 -0.515479
-13.1397 151.307 1.9945
-27.9839 135.209 0.964347
-16.5724 147.674 -0.623663
-25.695 137.836 -0.753617
-24.1494 139.543 4.58007
-20.1531 144.037 5.44746
-27.1838 136.452 1.80326
-13.1979 151.653 0.230418
-19.1131 145.269 -0.975588
-15.3373 149.372 0.12894
-19.6606 144.708 -1.21236
-24.6917 139.259 -0.837933
-13.5648 151.432 -0.190199
-18.8621 145.818 -0.794699
-26.3386 137.718 2.7722
-27.3002 136.782 1.64377
-22.876 141.623 4.10644
-15.7434 149.398 0.0942212
-25.0167 139.361 3.80297
-27.3834 136.804 0.054123
-17.4157 147.672 4.30431
-29.0109 135.129 -0.26249
-29.1355 134.998 -0.0233407
-27.4708 136.846 1.41818
-18.9572 146.412 4.59207
-14.9588 150.79 1.91044
-15.8617 149.814 2.93389
-22.7066 142.39 -0.616714
-17.7279 147.805 0.0647144
-17.1747 148.432 3.56616
-27.7374 137.02 1.0846
-19.2035 146.32 4.546
-22.4985 142.852 -0.646788
-27.0509 138.104 1.85635
-20.9291 144.862 4.2171
-16.4909 149.85 1.91056
-19.6871 146.426 -0.489572
-19.2791 146.925 -0.296255
-20.4733 145.642 3.98962
-20.9381 145.201 3.92823
-21.8633 144.304 3.68256
-26.1232 139.757 1.75499
-23.9675 142.155 -0.321476
-25.9275 140.1 0.889193
-25.1829 140.941 1.67828
-19.9318 146.697 3.5723
-19.2491 147.45 2.99168
-19.6087 147.059 0.551444
-24.1084 142.473 1.06581
-24.5812 142.044 1.35997
-23.3809 143.364 1.38682
-23.7077 143.066 1.50894
-21.1785 145.887 2.17535
-21.1367 145.943 2.02442
-22.1529 144.918 1.64781
-22.8214 144.234 2.53637
