ply
format ascii 1.0
comment Created by Open3D
element vertex 1935
property double x
property double y
property double z
end_header
9.25347 135.488 2.1225
-12.5715 116.502 -10.2922
-0.385756 114.563 8.15312
-1.57598 128.306 -6.16127
6.95578 127.106 6.425
-10.4195 118.374 -9.38609
0.751768 116.739 7.41351
-20.443 102.701 -8.69066
10.5809 137.824 1.38598
14.7679 148.368 -2.68653
14.1027 142.769 1.55304
2.07441 119.341 6.6292
-18.7151 106.774 -10.2725
16.7375 150.156 -1.71764
-16.9177 109.628 -10.5086
16.2179 149.909 -2.30501
-16.6271 109.902 -10.4354
-14.9545 113.015 -11.1021
13.1233 147.831 -4.74828
3.98157 136.462 -6.80198
-5.14242 122.894 -6.87703
-20.2221 96.2368 -3.00001
-3.26882 110.574 6.90997
5.47185 123.671 6.77303
-2.31533 126.328 -6.41468
13.3921 141.682 0.892683
-3.32271 124.684 -6.36281
-19.6513 95.4896 -1.85664
8.81366 145.034 -8.55611
10.626 137.161 1.16881
-20.5487 95.839 -3.50735
-18.8723 105.631 -10.2988
6.93811 142.189 -8.64824
-17.778 107.652 -10.7047
-9.35994 118.355 -9.06591
-3.58437 124.112 -6.50498
13.0971 141.17 0.617434
-14.4314 97.6237 3.00539
-5.01571 122.419 -6.98252
1.46225 116.136 7.62249
16.7871 144.871 2.08536
1.28149 115.56 7.8275
14.5829 147.676 -3.56391
-8.25269 102.115 7.07668
-14.8198 112.049 -11.1205
-20.5336 94.737 -3.00439
-15.4458 110.665 -10.7456
15.6735 142.379 2.64292
2.69154 118.18 7.15062
-17.5131 95.5068 0.281753
-21.0161 100.855 -9.50205
-2.26806 110.687 7.01186
4.66717 120.82 7.08132
-9.302 117.454 -9.13721
-3.30489 109.011 6.82933
14.0673 140.869 1.13175
-22.3515 95.1841 -6.70491
11.8186 137.937 0.637539
0.780238 113.424 8.05364
16.3831 142.626 2.52318
8.75834 128.423 5.15289
5.66731 121.73 7.05614
16.6153 148.252 -2.46036
-13.1956 113.193 -11.0148
-3.57662 122.904 -6.7966
-12.1082 114.2 -10.4838
7.75665 142.177 -9.05141
5.87571 121.794 7.03491
-2.22069 125.158 -7.16322
-4.38026 107.165 6.42979
9.06034 128.725 4.91182
9.72803 131.005 3.66919
18.1198 149.502 -2.02428
16.355 147.219 -2.35013
-10.4854 115.335 -9.77092
1.11966 113.213 8.05311
-3.27776 108.102 6.67971
-2.42312 109.039 6.97163
-8.1751 117.381 -8.66977
15.6349 146.405 -2.82853
16.2461 146.783 -2.34323
11.1728 136.099 0.51642
-2.0101 109.303 7.02651
0.0499883 111.728 7.60398
-6.6129 102.693 6.78288
-8.24603 117.092 -8.715
-2.48144 124.083 -7.30787
17.8724 144.49 1.7478
-21.1392 93.3119 -4.65042
0.559009 112.06 7.77481
10.8113 144.838 -8.38126
3.17218 131.918 -6.96707
12.9143 138.093 0.603164
7.56896 124.328 5.91726
-1.57914 109.442 7.0907
-0.455229 126.901 -7.47994
1.83174 113.46 8.02714
7.08545 140.238 -9.45516
-20.2535 100.288 -10.1028
-0.648009 126.553 -7.48113
-22.9888 94.1719 -8.30299
-7.20583 100.937 6.9692
-11.6298 113.272 -10.482
6.85871 122.124 6.63901
4.52654 133.73 -7.37935
-18.2485 103.444 -10.6764
14.2665 139.198 0.885233
9.39662 128.258 4.29214
-17.1933 105.06 -10.7739
3.97777 132.508 -7.15082
11.8874 135.927 0.464198
-13.5703 95.8257 2.51511
-22.6423 94.6717 -8.93511
1.98644 112.953 7.94484
-7.02437 100.648 6.8688
-14.027 108.946 -10.3826
5.67547 136.257 -8.5846
-9.33463 97.9762 6.02658
14.8462 138.935 1.36365
-23.0571 93.2373 -8.48715
-2.19624 107.578 6.87133
-20.5298 91.4521 -3.38515
14.9017 145.165 -4.40942
-2.17768 123.317 -7.77148
-13.3444 95.5775 2.48118
-11.5957 96.3442 4.11105
9.52708 128.186 3.70247
7.17387 122.118 6.06702
-8.19972 98.5259 6.65418
-13.24 95.5043 2.49401
9.77442 129.4 2.77801
7.41351 122.525 5.81592
4.02397 131.589 -7.23428
19.8873 147.748 -0.445915
19.166 149.002 -2.62417
16.3227 145.166 -3.04291
-2.59964 122.139 -7.86288
-1.2506 124.358 -8.07536
-16.85 93.2784 -0.898731
1.43803 110.98 7.75308
20.0242 146.636 0.311097
5.33853 133.791 -8.01801
-11.0453 96.0632 4.26994
9.68196 128.223 3.02825
15.7209 137.549 2.51074
16.237 144.478 -3.23863
7.23288 138.002 -9.61759
3.63135 129.901 -7.30871
-11.1352 111.887 -11.0449
5.62658 134.165 -8.6863
13.7101 144.211 -6.8988
5.846 135.023 -9.2264
7.65909 122.016 5.2267
10.1589 129.36 1.80533
-7.96123 114.554 -9.39152
-7.46265 114.904 -9.15369
-15.7691 92.8577 -0.303091
9.88885 127.89 2.4242
0.355694 125.809 -8.73815
19.0091 142.634 1.3074
-6.59914 115.462 -8.77325
-22.5682 88.5117 -5.83165
-2.89162 104.613 6.26795
20.5517 145.774 0.393482
17.5814 138.231 3.22326
8.01801 138.098 -9.74988
19.5237 143.174 1.24512
9.4547 125.654 3.47277
-12.2082 108.806 -10.6827
-15.7776 92.4531 -0.618085
9.70742 126.206 3.19208
-2.81227 104.25 6.24476
3.13855 111.641 7.57807
19.9225 143.6 1.11995
-12.7262 93.9284 2.12349
-11.7288 109.647 -10.9958
-12.9244 108.133 -11.244
-3.16285 103.758 6.08689
9.63102 140.443 -10.264
-16.6729 102.851 -11.7029
-12.2832 108.464 -10.9614
-14.4212 106.198 -11.8274
-14.4753 106.073 -11.8129
5.84777 133.287 -9.12155
17.7862 138.307 2.56263
-5.70757 99.026 6.52344
20.9928 148.155 -2.16263
-20.7599 89.4764 -5.29543
17.959 138.788 2.28597
2.63864 110.135 7.53681
8.41259 122.316 4.15274
19.2322 141.6 1.18858
-18.457 90.297 -3.20487
-3.68953 118.363 -8.84672
17.4504 145.263 -4.72473
13.6729 142.419 -7.46648
-18.5343 98.0217 -10.7637
8.72223 122.778 3.75981
-0.641158 123.007 -9.29724
-22.8429 89.323 -8.72765
-21.6343 86.8755 -4.82102
-20.7835 87.4924 -4.23671
-20.7242 92.9633 -9.20098
5.89978 115.361 6.6228
17.9732 145.527 -4.6687
16.3748 134.173 3.57443
-3.11156 118.995 -9.15847
-22.9503 86.8459 -6.72727
-8.40397 112.47 -10.4379
15.0432 141.514 -5.08396
-10.0858 110.876 -11.2822
10.2411 126.53 2.07731
15.694 134.179 2.46529
10.121 126.072 2.29604
-18.0931 98.2879 -10.7719
21.565 146.146 -0.559815
-14.1254 91.7761 0.609755
17.9261 137.589 2.30001
9.77214 139.294 -10.444
10.7519 128.263 1.02802
7.56972 135.226 -9.75919
-4.82347 99.2261 6.42426
-23.2285 86.9105 -7.53315
0.62064 124.603 -9.59005
-12.8324 107.186 -11.9779
20.3526 147.978 -4.10716
5.47694 114.091 6.72206
8.06476 136.051 -9.96167
11.3456 129.625 0.4042
6.75145 133.597 -9.55839
-15.8358 102.255 -11.6554
-9.60535 111.088 -11.2694
-20.3693 92.7371 -9.26428
10.5288 126.858 1.56985
9.68107 124.457 2.59554
3.63315 127.463 -8.53293
-5.65589 97.2138 6.57023
-14.9807 103.014 -11.5543
-0.779402 104.208 6.72921
18.1958 136.784 2.66983
-22.1386 85.0272 -4.89504
-15.2528 90.7959 -0.881164
18.5379 145.471 -4.97663
-16.1462 100.951 -11.6051
6.81456 132.954 -9.72757
-23.2371 84.3895 -6.16441
-22.9861 86.0288 -7.35549
4.39117 127.771 -8.3228
-2.40802 119.286 -9.82805
15.9143 133.139 2.49672
-22.0826 83.1017 -3.4659
15.7583 141.138 -5.16445
-23.183 83.3856 -5.31866
0.387313 105.353 6.72465
16.6824 142.383 -5.07606
-18.5373 88.7414 -3.91115
21.1765 147.71 -3.86011
-23.207 84.0227 -5.99532
-22.9614 85.4561 -6.99921
5.08632 112.154 6.76822
2.30872 125.676 -9.49205
-1.21277 103.104 6.42615
1.35573 106.33 6.9237
19.5891 146.236 -4.94028
-11.6172 107.329 -11.9069
-22.1432 87.856 -8.41272
16.7781 142.273 -5.25066
6.29267 114.302 6.14393
11.016 140.156 -11.2076
-0.921784 103.157 6.50225
-10.2643 108.441 -11.1642
14.096 141.262 -8.03833
18.9061 145.383 -5.25762
-16.8025 89.2859 -2.55799
19.6678 146.122 -5.11836
15.0356 132.377 1.19681
-20.2278 85.2479 -3.69337
8.72942 121.035 2.98131
-9.45838 109.631 -11.4423
9.79587 137.261 -10.5308
-5.88937 112.924 -9.59782
10.2821 138.285 -10.8415
-20.939 89.3874 -8.5965
-6.04278 95.2578 6.39019
-15.4833 100.665 -11.5263
8.15383 119.011 3.92771
-10.9196 92.2627 2.44447
15.9564 132.407 2.24503
-7.9008 111.064 -10.7854
4.44736 110.215 6.89078
15.5846 139.981 -5.28533
-23.0054 85.4451 -7.9421
22.0641 146.539 -2.49919
2.50315 107.149 6.94769
22.3246 145.573 -1.35021
-3.40047 98.6638 6.58862
-2.62731 99.9334 6.44544
-22.9012 83.0906 -5.81778
-16.6097 88.8371 -2.55542
-7.16254 94.123 5.47888
9.04439 121.412 2.52969
-21.814 87.1573 -8.24022
16.8202 131.435 3.85235
-10.171 107.716 -11.2732
10.8572 125.952 0.674145
-1.31433 101.838 6.21102
18.7306 136.51 1.64557
17.6446 132.994 3.38159
-21.2382 87.8599 -8.29902
-17.0826 96.5951 -10.6994
-22.5783 80.5125 -3.44105
-17.1948 96.4015 -10.7088
-15.6001 99.0319 -10.9746
9.6179 135.906 -10.4102
-9.91423 107.864 -11.3555
1.59595 105.472 6.58889
7.507 116.306 4.68745
13.1796 139.71 -9.16548
-22.5135 80.9273 -3.91191
-7.29537 110.762 -10.6874
-7.7128 93.3968 4.73084
-14.4573 101.103 -11.6359
10.1838 136.809 -10.8051
7.59536 132.348 -10.2679
2.04791 105.749 6.63054
-2.43498 99.0606 6.57374
-13.1283 90.1533 0.110983
-3.07308 98.0358 6.60935
-15.5928 98.435 -10.9066
11.8333 127.173 0.131506
-5.92506 111.867 -10.1081
6.35508 112.671 5.88508
-15.189 99.018 -11.0488
8.77181 119.978 2.45669
-18.8104 91.6055 -9.2212
7.27143 114.874 5.04294
21.4333 141.259 0.0718931
-1.39885 100.645 6.19185
-22.1824 84.8213 -7.69615
5.64664 111.102 6.20243
-14.179 89.2064 -0.860725
-17.5715 94.9658 -10.8386
14.7018 130.125 0.901508
-13.9613 101.137 -11.661
19.1371 135.633 1.85933
18.234 143.277 -6.44676
-3.85197 114.659 -10.3585
1.18866 104.066 6.30007
6.86812 129.782 -9.64961
-22.5538 81.9887 -6.03689
-7.31025 92.761 4.90366
4.45964 108.363 6.58022
-15.4122 88.072 -1.95754
9.08976 120.263 1.94024
-18.4505 91.5779 -9.37769
15.0114 129.952 1.07711
-7.084 92.739 5.08648
-16.4954 87.2155 -2.71878
12.178 126.703 0.161907
-8.62815 108.417 -11.5175
-7.87649 109.087 -11.1227
20.9531 145.774 -5.5093
-22.0802 85.4238 -8.88491
14.6141 129.368 0.878532
10.0853 122.559 0.910319
11.8544 125.928 0.208657
-22.6872 78.995 -3.91403
-4.83923 94.3795 6.2428
-17.8112 93.1578 -10.4049
2.35941 104.949 6.31365
-22.6675 78.9363 -4.01877
-17.3972 94.0908 -10.7884
-21.9797 82.47 -6.36876
8.77858 118.816 2.1682
-17.5837 84.2762 -2.18503
-0.997781 119.097 -11.6147
-22.4843 80.5015 -5.49644
10.3042 122.416 0.78071
10.5991 122.879 0.670856
-13.1704 88.9225 -0.612568
17.7198 129.798 4.03404
-2.12791 117.199 -11.5656
21.272 139.431 -0.00606284
-21.3576 83.2916 -6.72442
23.1552 146.305 -3.87979
20.3837 144.418 -5.96925
2.83862 105.017 6.286
-13.3205 100.475 -11.6671
-14.2214 98.6031 -11.2033
18.6842 142.709 -6.79543
-18.4711 89.6525 -8.82646
-20.7517 79.3228 -2.44028
1.6409 103.043 6.29449
-16.65 84.1534 -1.36843
-5.60243 110.881 -10.8598
15.719 137.693 -6.36165
-19.1229 81.3197 -2.20794
-13.0553 100.497 -11.6738
23.2728 145.532 -3.41801
8.1886 116.157 2.97617
7.34308 129.367 -10.3752
18.2209 130.007 3.91633
12.2554 138.191 -11.8002
5.29657 124.938 -9.16221
22.4249 145.846 -4.97793
-22.8053 77.6483 -4.12199
2.28559 103.856 6.07219
-17.5252 91.675 -9.90265
18.8447 131.93 2.81803
10.6228 121.854 0.767804
-14.7727 97.0079 -11.2257
19.4638 133.797 1.72788
5.37154 124.708 -9.22182
-10.9609 102.259 -10.9381
6.20917 125.624 -9.02084
1.37362 101.704 6.3278
9.28173 118.611 1.58291
-14.7322 96.8421 -11.2629
-20.4905 86.0951 -9.2616
17.6146 140.437 -7.14264
4.29866 106.031 6.29933
18.1102 129.06 4.00105
23.4685 142.632 -1.17086
21.1334 138.084 -0.216466
6.06643 125.26 -9.05113
-15.0275 96.2982 -11.2708
-3.80615 94.0347 6.17361
-20.0363 78.8843 -2.10109
15.0573 136.489 -7.10071
-22.3938 78.9906 -5.44379
-20.6642 83.0185 -6.81625
5.30508 107.567 6.13057
18.3282 141.732 -7.51567
23.1961 142.095 -1.19266
7.55219 113.319 3.88662
-7.31512 107.882 -11.5192
-8.20586 107.065 -11.9897
-13.29 87.5652 -1.01356
-18.2527 88.898 -9.09931
13.6051 138.366 -11.0403
2.18916 102.682 6.18456
19.5473 142.559 -6.78627
-13.9347 86.7703 -1.29913
-20.8772 84.7131 -8.93693
19.1003 132.412 1.8564
-15.2899 95.4148 -11.2681
22.7311 140.923 -1.13408
-21.8263 77.2394 -3.53474
-0.636472 118.071 -12.1669
14.9962 127.126 0.892896
6.32381 109.259 5.44162
-22.2453 76.5161 -3.55494
-14.5082 85.4429 -1.26609
7.1404 111.167 4.62131
-14.4958 96.3382 -11.3935
23.7964 144.121 -2.97469
-20.4677 81.7604 -6.18152
-20.7656 85.0304 -9.62652
17.0661 138.767 -7.32866
-0.660357 117.724 -12.2505
19.0657 141.772 -7.39304
15.0539 138.052 -9.47352
-21.3708 77.4226 -3.58528
-4.85099 91.6278 5.93272
-6.82403 107.861 -11.7677
-17.9749 79.8865 -1.31611
-17.6229 88.9114 -9.2071
19.0641 130.738 2.33926
15.2364 135.669 -7.48508
-4.61687 91.5248 5.98294
7.10139 110.504 4.37115
-20.8078 79.7855 -5.56044
0.234312 97.9101 6.53424
-3.04571 113.558 -12.3857
15.2952 135.481 -7.49567
-0.437805 117.456 -12.4416
-21.5709 77.4688 -4.57469
11.2284 120.491 0.622605
0.320773 118.324 -12.322
10.8844 119.968 0.627613
-6.17036 108.159 -11.8518
-3.72578 92.1379 6.23216
5.24855 105.732 5.93586
15.357 136.162 -8.24819
-2.65007 93.6891 6.21163
-8.55543 105.781 -13.1655
9.76179 131.66 -11.9511
-6.62245 107.49 -12.1745
14.8017 134.957 -8.14305
21.6564 137.19 -0.814124
-15.5258 93.0193 -11.061
-8.74177 104.207 -12.1035
15.4479 135.23 -7.56544
-19.7612 76.9006 -2.07011
22.3974 144.112 -6.24888
15.5671 135.646 -7.81049
20.1035 133.058 0.762954
6.61836 108.856 4.57161
-16.0027 91.6929 -10.6212
22.1458 137.857 -1.00832
7.82033 112.291 2.91336
-18.4071 86.1977 -8.98104
-1.27247 115.59 -12.5942
-20.4114 81.52 -7.45487
14.6747 132.718 -6.6713
-4.80075 90.4379 5.5868
-20.6053 83.411 -9.68614
-8.76729 101.999 -10.6623
15.034 133.493 -7.08524
-6.76939 107.031 -12.6187
-20.6406 80.1627 -6.93755
9.97807 117.054 1.00393
-13.7813 94.7351 -10.9874
10.2289 117.485 0.876665
14.2496 132.233 -7.20248
-11.5934 98.1914 -11.2993
24.3255 141.359 -1.87486
11.3835 133.47 -12.3327
14.6403 136.871 -11.0064
-11.2964 86.0353 0.290552
-10.1656 100.204 -11.2196
3.43781 101.718 5.98823
15.5104 124.913 1.12832
14.6728 124.107 0.704687
8.30393 112.906 2.2916
15.9619 135.91 -8.43338
9.90067 116.519 1.08936
9.72135 130.446 -12.0207
-19.8111 77.8501 -4.02852
6.3362 107.161 4.77776
-19.9005 79.8416 -5.99965
22.6661 137.959 -1.24857
-12.0361 96.784 -10.8547
4.35105 103.166 5.64592
13.0684 135.712 -12.4054
23.9771 140.325 -1.79164
1.65011 118.473 -12.2731
6.62963 107.899 4.28311
-17.7643 86.3232 -9.3005
-19.6128 78.394 -4.53601
24.5963 144.144 -4.60185
19.4981 127.971 3.2826
22.0904 136.533 -1.07132
11.5633 119.156 0.503593
-7.96761 103.162 -11.5157
-18.373 76.8762 -1.56373
4.09814 102.3 5.78423
-19.7298 83.7479 -9.80103
19.7732 130.131 1.56667
-2.6165 112.406 -12.7832
-15.1913 91.5736 -10.8668
9.89576 130.299 -12.1798
-19.5047 79.4043 -5.57861
-20.3228 81.5484 -8.70227
-19.5608 79.2649 -5.55887
15.1098 132.761 -7.37032
-19.6131 80.2237 -6.59241
23.5605 143.612 -5.85334
4.63984 120.949 -10.8983
-3.30801 90.8282 5.95477
-12.4364 95.0519 -10.5125
-13.469 82.1944 -0.0899501
-13.3435 93.9511 -10.7621
17.1245 137.26 -8.92817
-5.7503 88.9348 4.25003
-14.8839 80.3033 -0.375423
-5.87424 107.193 -12.8458
-0.928652 114.767 -13.067
-20.3635 81.8648 -9.37722
7.83518 125.368 -10.8592
-10.0314 98.7316 -10.8064
1.69603 97.8597 6.03803
18.3774 138.992 -9.00284
8.25978 111.744 2.22547
-15.1288 90.005 -9.80497
-18.1913 85.0728 -9.48128
-19.1827 80.2495 -6.39869
-18.2858 80.9497 -5.81976
15.5716 134.156 -8.4698
-5.82792 107.148 -12.9236
1.68194 97.7156 6.02987
-7.37236 104.45 -12.5954
24.9936 143.3 -4.06629
14.2356 132.22 -8.61582
14.4197 130.793 -7.07798
-9.66074 99.0821 -10.8469
2.25939 118.045 -11.9984
14.2607 132.725 -9.15802
12.9267 134.488 -12.6141
9.12625 113.333 1.65129
-16.9115 87.0197 -9.77924
-18.8102 79.5955 -5.55887
-14.9378 89.7189 -9.66444
-10.0831 97.7754 -10.4448
-10.3827 84.2434 1.49666
-17.4372 76.7977 -1.38953
9.28668 113.339 1.53427
19.7694 127.78 2.52439
21.1609 133.677 -1.0461
2.10362 117.5 -12.2727
5.03922 102.551 5.50449
-2.84631 111.075 -13.1459
-9.18373 98.9479 -10.6695
5.75283 121.034 -10.561
13.7854 133.313 -10.8983
-2.83989 90.4897 5.73204
-18.8532 82.4112 -8.7667
19.8787 127.929 2.34138
7.98934 124.918 -11.1859
11.7673 132.378 -12.9651
5.65596 103.482 5.27392
-17.8847 83.317 -8.4649
7.79946 123.712 -10.5103
-8.69325 85.7665 1.8348
-9.46364 84.6522 1.78209
14.9565 134.551 -10.7984
3.97679 100.567 5.43111
-12.0631 81.9432 0.595834
14.6664 129.729 -6.83551
8.3384 110.649 2.07036
1.61411 96.507 5.85824
-4.45547 108.272 -13.3152
23.3938 142.418 -6.64965
-19.7567 80.4567 -8.69144
-16.9066 85.8012 -9.73328
4.02917 119.34 -11.9677
14.2113 132.218 -9.88792
8.12284 124.887 -11.4776
16.5215 135.119 -9.41119
-7.05483 86.5207 3.06369
-6.82887 102.879 -11.6976
8.70452 126.379 -12.0957
4.01629 100.456 5.35541
0.0311374 93.7923 6.01758
-3.06214 110.219 -13.3746
20.6042 130.298 0.441764
-17.6884 82.8323 -8.3271
-7.0621 101.375 -10.8646
23.0655 136.041 -1.57705
-10.3289 95.6004 -10.0633
17.9897 122.75 3.70703
-18.1482 79.3478 -5.89067
-15.3275 78.5622 -1.32834
8.59123 125.811 -12.0957
20.0378 124.772 4.4976
-3.86562 88.2285 5.3965
-1.70476 111.485 -13.1443
0.389455 114.896 -13.5004
-17.1646 81.3873 -6.69376
8.44225 110.044 1.95658
-13.9964 89.8488 -10.18
-13.1796 80.1239 -0.157192
-13.2577 91.6138 -10.8759
14.0416 131.987 -10.6941
15.9022 133.525 -9.5679
-14.7631 88.3361 -9.94153
15.2474 128.217 -5.60215
-8.26416 98.0417 -10.0736
-7.79763 98.8704 -10.2108
-15.5921 87.1517 -10.132
5.26872 119.818 -11.7208
-16.4199 85.4364 -9.76084
14.9922 132.838 -10.4037
14.513 128.586 -7.15949
-10.6422 81.9954 1.29521
-5.64641 105.912 -14.0175
6.27193 103.54 4.46836
20.1064 126.731 2.0342
-11.3428 93.4194 -10.3774
-16.2297 82.6574 -7.18109
-6.15794 85.7 3.79173
8.43582 124.369 -11.8488
6.63866 120.739 -11.0007
5.09286 101.106 4.957
15.1896 120.359 1.02962
17.1129 135.426 -10.2245
1.66029 95.2897 5.52565
-7.7744 98.1004 -9.98554
2.83514 97.4142 5.14549
-8.78391 83.298 2.21752
15.0823 128.996 -7.1929
23.6625 135.819 -1.73873
21.6021 132.479 -1.48785
13.9255 131.801 -11.4357
12.4202 116.62 0.476836
-2.67441 88.6067 5.58064
17.0175 129.169 -4.84017
-8.14532 83.8077 2.48105
-5.45391 105.789 -14.0974
22.1482 132.782 -1.17733
16.2949 133.602 -10.028
15.6694 128.203 -5.94067
17.5462 130.949 -5.91036
-16.5479 81.4685 -7.02893
-10.2983 94.062 -10.0788
0.31218 113.694 -13.6553
25.7838 141.458 -4.3465
19.8784 138.364 -9.62233
2.98785 97.3491 4.9877
-12.6092 79.5954 -0.0356708
15.3902 127.625 -5.94964
-16.5376 81.7591 -7.43313
4.97538 100.489 4.76471
24.0119 141.157 -6.65863
14.9447 131.577 -10.2587
7.94779 107.665 2.12777
16.6151 129.031 -5.68714
8.23136 108.196 1.97991
-6.67549 84.743 3.14915
10.1332 112.21 0.85177
12.6124 131.042 -13.1519
-7.38409 84.1189 2.66167
-6.8955 84.5686 2.90054
21.4428 139.513 -8.96004
-8.19325 96.2912 -9.76386
17.1475 131.084 -7.13183
-16.6761 80.903 -7.23856
11.4766 114.235 0.611302
15.211 129.428 -8.2691
1.09452 93.4234 5.5532
16.2995 128.965 -6.40876
16.6826 130.101 -6.93965
21.2114 139.191 -9.11556
16.4065 133.812 -10.7699
25.6312 139.822 -3.67482
-9.71214 94.1472 -10.033
-7.87306 83.1871 2.5167
0.108968 92.0137 5.27085
-5.77643 101.47 -11.577
-13.0956 89.0856 -10.1941
15.5562 119.269 1.21619
4.6023 99.3222 4.55375
5.5734 100.835 4.483
14.5107 130.554 -10.6532
-11.3453 80.1447 0.32969
-16.4517 80.8765 -7.33884
-9.21337 81.732 1.78213
-5.21696 102.835 -12.2259
-16.0234 80.9232 -6.84791
-11.5842 79.8438 0.21412
10.7338 127.708 -13.407
18.3804 128.613 -3.77172
0.376746 112.621 -13.7073
-16.1333 80.5452 -6.81082
-3.79711 86.0926 4.93282
16.1406 130.128 -8.37534
21.6831 139.078 -9.04494
19.0969 136.342 -10.07
-12.5096 78.5078 -0.0962628
16.0115 130.33 -8.79392
-13.8217 86.2884 -9.13134
-14.6196 82.8695 -7.07812
16.3991 126.978 -5.23896
-13.3962 84.7935 -7.19736
13.3103 116.159 0.445761
26.2891 141.062 -4.78554
15.59 129.536 -8.84162
-8.38872 94.9683 -9.87486
24.2911 140.176 -6.76624
-16.1055 76.6185 -3.60822
23.0203 132.466 -1.49562
13.0337 115.488 0.461939
9.30694 122.584 -11.2044
-6.06242 99.3792 -10.8824
22.9432 139.749 -8.36434
-3.69899 85.7854 4.84877
-6.06827 98.4828 -10.1201
19.2986 136.081 -10.0147
-14.2906 82.3802 -6.5972
7.73003 120.703 -11.7777
16.2169 118.756 1.63689
10.8203 127.158 -13.5096
10.4499 110.947 0.83912
18.0916 130.739 -6.92737
-16.3717 80.5652 -7.92703
13.9195 116.358 0.577215
-8.63462 81.4388 1.84573
-15.0127 80.5512 -6.09465
3.10938 114.625 -12.6975
20.871 127.258 -0.0423192
14.9127 129.327 -10.1386
6.04638 118.563 -12.3753
16.6448 130.423 -8.78624
10.1924 125.781 -13.3581
19.0108 119.833 4.15708
16.5115 126.623 -5.52746
1.57749 92.8218 5.14838
16.2867 118.387 1.71546
10.2698 110.345 0.880934
-10.1954 79.9238 0.850506
-10.8549 91.5799 -10.7989
12.0957 128.907 -13.7525
-12.0278 90.0133 -10.9704
24.2461 139.826 -7.20194
22.3215 131.654 -2.38577
20.1926 120.946 4.5456
5.87531 100.486 3.77516
-15.0369 81.2116 -7.13651
17.5066 133.506 -10.7806
8.19923 120.892 -11.9548
21.1011 127.464 -0.350237
9.53099 122.421 -11.5707
19.1137 119.509 4.20255
-13.9604 81.6377 -6.22201
-8.2493 94.1894 -10.0259
21.0156 129.701 -2.65931
14.6989 129.448 -11.1062
-12.8371 87.0348 -9.77733
-12.4278 86.4376 -8.69696
17.6746 131.162 -8.74863
21.8284 128.788 -0.879204
17.4036 132.999 -10.864
-12.1707 88.7605 -10.6491
-13.1286 82.7386 -6.45026
17.4709 130.55 -8.58505
17.5091 130.576 -8.58982
14.2807 128.332 -10.9505
9.97694 123.815 -12.6938
24.0418 132.299 -1.27784
-5.0997 98.7855 -10.3972
10.0411 123.593 -12.5209
4.89132 115.684 -12.3341
25.3315 135.187 -2.36679
19.0307 118.897 3.9981
20.2511 135.583 -9.72191
-5.65269 83.0617 3.128
16.3127 126.123 -6.46757
19.1022 127.809 -4.20862
-0.962856 87.6196 5.2028
-3.87263 84.4496 4.09592
-3.90345 102.936 -12.9824
-6.80345 81.6944 2.54747
21.5811 124.761 1.68536
14.0623 128.964 -12.4857
16.516 117.115 1.75406
-11.5769 87.5085 -9.45344
21.4526 121.482 4.38029
10.2307 123.696 -13.0423
-10.661 90.2282 -10.8423
18.9207 126.4 -3.73419
18.7089 133.37 -10.4496
15.4042 115.822 1.14638
-0.0122364 88.7994 4.91562
-13.4092 80.5199 -5.82127
13.899 125.982 -10.3537
22.8209 131.141 -2.89465
0.353868 89.3583 4.73834
-0.504193 87.5114 5.21386
20.4979 119.447 4.54772
21.958 123.856 2.44615
-9.32178 91.3321 -10.4358
26.9314 140.1 -5.7812
24.7652 132.771 -2.00317
14.7551 127.918 -11.3107
-11.7175 84.4479 -7.53743
17.4167 125.565 -5.53212
21.7827 127.679 -1.54535
19.2967 126.704 -4.12528
26.7543 138.626 -4.90253
24.4396 131.619 -1.62844
-11.4464 85.0057 -7.86247
13.3399 112.571 0.689317
23.2301 131.132 -2.86904
-5.01509 82.5801 3.1689
18.3853 132.217 -10.616
11.4597 109.604 0.678578
-12.0712 82.1729 -6.38448
22.2102 129.121 -2.68095
-1.56398 106.24 -14.1729
-6.32488 94.4833 -9.89131
10.0815 107.032 0.961418
-4.71553 82.5006 3.17912
18.5399 131.976 -10.5762
22.0157 129.363 -3.42987
15.738 127.162 -10.012
17.5634 125.244 -5.79054
-6.03916 81.1617 2.47558
-0.339654 107.729 -14.2081
-3.60291 83.3897 3.67489
21.9006 129.505 -3.87999
20.5231 118.291 4.51111
22.2431 129.214 -3.22518
0.96726 109.591 -14.3584
7.41448 117.846 -13.1329
-0.0837711 86.9691 5.01154
-3.44103 99.5381 -11.1751
-10.0799 87.9838 -9.66767
11.843 125.07 -13.8045
23.3909 130.63 -3.12979
21.8376 129.644 -4.38589
10.8284 107.542 0.875935
19.3496 132.48 -10.4251
22.2809 129.243 -3.47308
5.02544 96.3205 3.19889
-9.98269 88.5569 -10.2115
11.0114 121.634 -11.9871
-2.5374 83.79 4.25301
10.918 122.826 -13.278
11.1508 123.854 -13.908
-13.1776 80.8215 -7.59299
-5.71148 94.281 -9.77142
-11.2501 83.0072 -6.97376
-3.13368 100.316 -11.84
-7.19623 92.2089 -9.94226
-8.64344 78.6463 0.463586
6.57685 115.423 -12.5976
16.4406 127.018 -9.77069
11.4319 107.99 0.773707
20.6441 133.502 -10.1582
-12.7613 74.9019 -1.93637
22.2411 129.702 -4.48058
19.0955 126.123 -5.51021
-9.67976 88.4863 -10.2647
-2.20078 103.738 -14.0864
-1.45978 84.8889 4.28291
-11.187 82.0608 -6.46819
21.8066 119.359 4.3002
22.3935 127.574 -2.48438
23.5103 129.903 -3.12283
15.9443 126.135 -10.0543
-12.1274 75.439 -1.80398
22.674 121.386 3.53088
21.0576 117.887 4.53104
21.2112 118.044 4.55207
12.0251 124.158 -13.6725
10.6213 106.195 0.933917
26.9226 135.957 -4.16703
-7.6697 79.1326 0.765594
-10.8678 82.57 -6.79794
10.2323 120.093 -12.4657
22.9994 123.236 2.08623
4.7975 112.507 -12.9703
7.56355 116.661 -13.1075
17.8465 129.625 -10.9858
16.5298 113.831 1.69058
26.7267 136.61 -5.32981
2.70964 90.3843 4.34209
16.0774 113.142 1.56191
20.2 116.133 4.36528
17.9336 125.059 -6.9722
18.0518 124.998 -6.76505
-7.23665 90.682 -9.79197
22.7132 129.313 -4.36157
22.7243 129.354 -4.39869
-3.9855 95.0768 -9.45115
-10.6924 81.7441 -6.37656
8.90572 118.056 -12.9876
-0.44087 85.2663 4.41226
27.2538 138.451 -6.66724
21.3116 117.506 4.46988
12.1761 107.829 0.832278
22.8555 134.744 -9.36643
24.5391 135.786 -8.08762
22.8378 123.702 0.60131
16.6438 128.025 -11.8804
20.8835 126.553 -4.72428
26.7579 138.601 -7.82897
-4.2851 94.2195 -9.47295
-8.55129 88.4558 -10.0265
27.2713 137.184 -5.8534
-4.04224 81.2503 2.74762
-5.48814 92.2079 -9.34917
22.7308 124.043 -0.0501533
22.2758 128.848 -5.10556
17.4927 126.434 -9.45158
4.67255 93.3368 3.43934
10.8307 105.116 0.995926
22.747 124.29 -0.355868
22.3056 128.733 -5.06816
20.5691 131.942 -10.4151
17.1986 125.455 -9.0809
-9.22903 76.8431 -0.519362
27.2283 134.856 -4.15787
25.213 136.002 -8.07672
24.6604 129.054 -2.44922
0.116631 106.063 -14.9121
22.8249 124.402 -0.764764
-1.6722 82.9223 3.89281
-10.2756 75.8848 -1.44668
16.6473 112.323 1.85223
15.6718 111.301 1.45353
20.7655 125.473 -4.68391
-11.0171 74.9291 -1.68634
-5.06569 91.8258 -9.18782
22.5353 118.48 4.0566
4.90682 93.0883 3.25198
22.8605 127.532 -3.90134
18.7905 126.895 -8.90923
13.9923 124.494 -13.2974
-1.34849 100.133 -11.8965
-2.95874 81.456 2.98877
-5.56078 90.7397 -9.1425
20.9287 115.371 4.42108
16.631 124.423 -9.82558
8.17437 115.742 -13.4547
22.5103 127.449 -4.62061
26.2868 136.772 -8.1603
15.1275 122.465 -10.2913
23.7032 127.524 -3.23915
20.4613 114.608 4.21417
22.4733 117.537 4.2389
20.8515 130.925 -10.3173
15.6872 123.298 -10.3824
18.7278 126.124 -8.87204
14.919 122.275 -10.5571
-8.44658 84.6784 -7.99441
-9.16031 82.5974 -7.07335
16.8595 126.562 -11.9475
14.9542 122.26 -10.6257
23.1193 121.537 1.22038
17.6089 125.749 -10.2074
9.96096 101.436 1.69845
22.6159 126.544 -4.13707
-11.0472 73.9024 -1.75114
13.5879 107.081 1.29106
10.2161 101.728 1.60358
14.995 123.311 -11.7479
24.9622 134.616 -8.51219
22.6104 127.241 -4.95792
18.1597 112.525 2.45946
6.27871 94.6954 2.52444
23.2373 125.242 -2.40266
21.9493 125.711 -4.65849
8.23139 97.9044 2.14726
18.179 112.282 2.48176
14.8913 124.134 -12.9957
-11.7871 79.67 -8.59576
20.0747 126.063 -7.70088
27.544 137.837 -8.34082
6.23862 94.3109 2.54682
2.30924 107.956 -15.4397
5.34046 92.5429 2.88875
-6.72158 87.47 -8.97564
16.0502 122.348 -9.94977
18.9301 125.228 -8.68329
17.1483 125.849 -11.7217
12.1133 119.357 -12.6477
19.8956 123.995 -6.29462
0.814974 103.825 -13.8694
27.426 132.001 -3.40101
8.33292 114.502 -13.4328
27.4864 132.333 -3.63234
12.6713 121.193 -13.6634
-2.00481 81.3633 2.90822
-2.39307 80.9672 2.72096
0.846927 103.77 -13.8447
17.6081 125.996 -11.3766
14.2717 107.179 1.37802
23.9253 120.646 2.16986
12.658 121.045 -13.6309
12.0375 104.144 1.01853
23.1197 117.719 3.68982
22.961 125.952 -4.12486
12.8959 122.09 -14.352
-7.48042 84.5909 -7.72735
22.899 121.687 -0.351185
2.08392 106.516 -14.899
22.1157 125.846 -5.28355
-4.74673 78.7712 1.25388
16.277 109.516 1.68076
19.5247 112.733 3.15813
20.9367 124.549 -5.79894
18.629 125.202 -9.59084
-4.15056 91.0285 -9.32341
17.7114 123.495 -9.29713
-0.298211 99.2721 -11.6571
2.56012 107.504 -15.3294
0.759578 83.9054 3.93474
17.2732 125.253 -11.5428
23.3368 117.941 3.45269
16.1695 109.218 1.64642
22.2404 125.829 -5.37005
17.9327 110.998 2.38488
23.0367 122.612 -1.34347
-6.84051 76.9081 -0.181083
19.4904 112.513 3.08022
-3.34081 79.6974 2.01699
20.7974 113.306 4.09687
-4.43679 90.2078 -9.19896
1.3967 103.904 -13.8753
17.5767 125.75 -11.8521
27.8668 137.341 -8.48408
23.1656 125.313 -3.86691
2.45 106.385 -14.8255
20.4458 125.642 -7.9196
17.7193 125.313 -11.3629
18.7968 125.016 -9.6173
-4.3773 90.0758 -9.1906
25.1007 133.679 -9.02095
-2.97359 79.7913 2.13129
2.52728 106.289 -14.7878
1.2456 84.0362 3.944
23.4483 117.642 3.38611
-11.1311 79.2863 -8.6517
25.0619 127.433 -3.44255
-8.30786 81.4165 -6.85926
1.94791 84.7239 4.03741
13.5136 122.062 -14.5259
23.6425 131.933 -9.79972
-9.95104 79.1749 -7.25054
-11.478 79.0841 -9.30244
-5.22067 77.746 0.483851
22.9612 120.54 -0.344791
22.8835 122.201 -2.03018
19.1742 124.257 -9.04187
27.6965 133.094 -5.54245
27.9281 131.66 -3.92736
20.9087 125.234 -7.63765
20.3045 112.159 3.54674
22.6629 124.562 -4.67589
-9.42988 79.6156 -7.22851
-6.79753 76.4494 -0.738949
22.0227 124.802 -5.85394
-10.4975 78.9251 -8.18191
0.850532 100.545 -12.6108
22.1457 113.673 4.41873
15.4612 121.834 -12.2573
8.09115 111.962 -13.2664
23.0879 130.734 -10.0208
18.7041 125.14 -10.8841
7.48652 94.1316 2.30291
15.7592 121.68 -11.7642
-6.11164 84.588 -7.56557
3.17169 106.637 -15.1667
14.9922 121.831 -13.0022
14.2578 121.473 -13.7686
14.6855 105.445 1.56078
27.418 136.184 -9.32096
13.1215 120.288 -14.2697
17.5049 124.827 -12.4652
21.6123 124.097 -6.2333
13.734 121.274 -14.4315
4.44415 87.8127 3.64753
12.2691 102.048 1.22265
21.2372 124.756 -7.42035
13.1167 120.074 -14.2445
19.0402 124.507 -10.2837
27.9219 130.63 -3.76163
9.69472 97.3116 1.90889
16.9298 119.812 -8.93018
17.6838 124.008 -11.7742
18.0043 122.814 -10.259
27.9358 136.344 -9.14426
17.9938 122.625 -10.1502
13.6638 120.969 -14.5882
0.555037 81.969 3.32278
11.1408 115.869 -13.415
27.652 129.297 -3.19825
27.7964 136.101 -9.27852
23.4782 120.013 -0.398548
22.4313 113.178 4.44689
10.0786 97.6529 1.81709
1.44705 100.247 -12.4041
20.9598 111.459 3.98041
-10.7146 78.7419 -9.26813
18.6681 124.765 -11.4654
24.0013 130.958 -9.87999
15.5118 120.618 -11.9846
22.9713 119.979 -1.20379
-5.31777 84.8902 -7.7485
2.25368 102.015 -13.2023
15.4712 120.277 -11.9712
22.9785 119.891 -1.34764
24.3266 125.509 -4.68841
5.81127 89.4831 3.13255
-9.84727 78.5395 -8.2417
17.6897 120.831 -9.54188
4.83128 87.1693 3.81197
-4.35276 87.2524 -8.84775
16.7924 107.053 1.8528
20.2613 123.829 -8.85205
-4.39531 77.223 0.296928
22.6862 123.998 -5.73012
28.1335 135.105 -8.50213
15.4135 119.857 -11.9674
-3.809 87.8089 -8.79228
9.13936 95.1239 2.18812
19.7753 127.17 -12.7948
20.3276 122.986 -8.20214
19.2067 124.426 -11.0737
11.4138 115.419 -13.4538
19.9898 127.343 -12.7167
-5.26483 76.4705 -0.556338
1.1614 81.7918 3.2632
28.0344 135.557 -9.4648
8.5995 111.003 -13.5435
19.2388 108.772 3.05079
-1.91083 90.6729 -9.2503
-1.01902 93.2843 -10.5227
22.6645 123.581 -6.03843
-2.37713 89.3447 -8.81303
6.2596 89.07 3.21988
24.5992 117.562 2.08074
22.6751 112.224 4.33828
1.81931 99.4984 -12.5086
-1.18821 92.8088 -10.4758
9.50872 111.705 -13.2979
28.0836 131.293 -5.91061
-0.170779 94.5999 -10.8218
-6.52426 75.2993 -1.74609
19.9568 126.816 -12.9319
12.1266 99.3257 1.56462
-1.52232 91.2049 -9.70623
21.6706 127.653 -11.5447
19.257 124.333 -11.8011
3.63483 103.774 -14.2754
18.9191 123.048 -11.121
23.3781 123.738 -5.66671
4.70838 106.678 -15.5356
13.4054 100.805 1.77684
1.42732 98.0379 -12.0982
-6.31935 81.7951 -7.78034
26.5047 127.076 -4.56739
21.5739 122.836 -7.47837
23.0477 123.109 -5.71832
23.8124 114.045 3.66579
11.0971 96.9843 1.92936
9.97398 94.9583 2.22816
-6.31251 81.6543 -7.85569
0.225412 94.7017 -10.982
13.2649 100.203 1.79023
20.1647 123.832 -10.5438
28.477 134.478 -8.96918
10.1257 112.424 -13.8006
-6.59578 81.2113 -7.96372
4.92745 106.518 -15.5184
20.4809 126.783 -12.9008
23.0542 119.404 -2.58719
19.2308 124.441 -12.4699
9.84915 94.4043 2.32175
15.1759 102.676 1.98606
8.13986 109.524 -13.9585
23.1257 123.137 -6.09825
21.6678 123.025 -8.02202
16.2052 118.384 -11.2591
21.4606 109.455 4.13233
9.69516 111.029 -13.4438
1.31699 96.8883 -11.8978
18.5659 119.602 -9.21278
21.0528 108.936 3.96962
24.625 115.854 2.48123
22.6114 122.732 -6.68578
21.1362 126.814 -12.4697
-0.58654 92.5124 -10.6417
9.84025 93.8126 2.42585
20.1794 123.531 -10.7871
16.4454 103.964 2.09591
-4.98175 75.7961 -1.34035
21.1492 122.812 -8.91421
27.5648 134.069 -10.541
6.37536 86.9734 3.79258
23.2404 111.486 4.28481
1.99107 81.2764 2.98807
19.7786 123.456 -11.5331
4.96702 105.903 -15.6727
8.4687 90.8884 2.94335
20.1107 107.665 3.40721
10.013 93.6896 2.44918
22.1736 127.046 -11.654
6.27841 106.848 -14.9015
-9.68497 77.926 -10.1552
20.986 122.704 -9.40667
19.9249 122.757 -10.9255
14.2767 118.14 -14.4101
23.3903 111.407 4.24152
24.6741 118.803 -0.851893
8.02541 89.6949 3.15301
22.115 122.048 -7.38843
16.9708 118.048 -10.7929
20.2905 125.633 -13.2528
4.06076 102.537 -14.2079
20.3268 123.126 -10.897
23.4865 111.438 4.193
-5.82826 74.0253 -1.55661
22.8521 121.154 -5.75339
8.28907 108.523 -14.1831
20.4481 120.441 -8.54704
21.0886 122.747 -9.82691
24.7375 123.82 -5.88355
10.0015 110.089 -13.4908
5.78447 105.823 -15.4172
8.76499 108.729 -14.0176
22.6805 121.039 -6.30135
19.3471 106.15 2.76038
17.5812 117.095 -9.74692
12.9937 97.2091 2.24321
15.0602 100.127 2.3617
16.8678 117.583 -11.2534
19.2686 116.867 -7.31956
6.66563 85.5658 4.23908
-2.44916 76.5691 -0.0321359
22.3131 119.11 -5.34226
15.6596 100.81 2.39234
24.2843 112.38 3.54461
19.5456 117.656 -7.8314
19.4996 118.516 -8.73204
-3.91012 82.9677 -8.06778
24.9515 114.828 2.09171
-8.69188 77.6119 -9.72443
23.3818 118.709 -3.66249
27.8846 133.331 -10.9679
24.9555 117.993 -0.881868
18.7391 116.61 -8.16216
18.7984 104.734 2.84298
17.476 117.203 -10.4589
22.3956 122.081 -8.2552
20.8222 123.134 -11.4358
9.88732 90.862 3.27599
22.5714 121.966 -8.01611
16.7553 117.209 -11.6341
21.3303 122.625 -10.369
7.90235 86.6706 4.28938
-6.51479 79.0742 -8.45773
23.8043 127.482 -11.5384
-2.45041 76.2807 -0.336735
29.4813 129.379 -5.53306
7.97018 86.6582 4.31117
3.4927 81.6347 2.77715
4.69223 102.16 -14.4927
15.1336 117.728 -14.5435
21.6353 119.783 -7.53727
24.3925 112.062 3.29856
22.3642 118.912 -5.80772
20.299 116.452 -6.4137
29.2591 133.948 -10.2605
1.24166 93.3878 -11.3309
21.7935 119.646 -7.37541
29.4259 127.916 -4.54728
24.8312 113.309 2.57895
27.3154 126.125 -5.83254
22.4324 119.342 -6.43307
20.7902 116.83 -6.38592
2.09161 95.4465 -12.353
15.3205 98.7504 2.71731
29.7976 128.731 -5.07693
10.0719 89.6167 3.91726
29.6228 129.525 -6.08276
23.7868 126.834 -11.6062
24.3565 111.472 3.32035
7.97367 106.736 -14.8127
21.3775 106.673 3.58271
24.3314 111.264 3.35327
15.9011 117.598 -14.0564
23.9956 126.934 -11.66
9.93578 88.6377 4.28786
26.9608 125.081 -5.99171
7.0127 105.549 -15.4301
4.13749 99.6072 -13.9074
18.9739 102.739 3.50342
23.3418 125.703 -11.684
12.654 112.937 -14.5629
14.7389 97.0907 2.88221
16.9267 116.625 -12.1506
0.519656 78.1417 0.807341
-1.6918 85.6229 -9.12959
24.7287 112.016 2.65945
12.5069 93.6018 2.82278
28.1497 126.74 -6.31682
13.0348 94.3538 2.78016
25.974 129.176 -11.596
14.5797 114.94 -14.1465
21.7712 123.932 -12.6129
4.08739 98.9104 -13.8284
16.8336 116.771 -12.9572
23.3408 121.948 -8.83658
13.1782 113.08 -14.6202
25.356 122.891 -7.01771
5.57765 102.203 -15.0695
8.20961 85.6413 3.73022
24.4949 126.744 -11.837
22.3492 122.849 -11.3005
22.5079 122.888 -11.1375
27.8324 131.083 -11.4392
27.0637 124.503 -6.43752
6.5256 103.983 -15.7259
25.5101 116.478 -1.25895
9.4478 86.8478 4.03437
24.4679 109.628 3.61635
2.22541 93.3232 -11.8768
23.48 116.665 -4.26948
30.1798 128.188 -5.73822
2.35579 93.5674 -12.026
16.6981 97.8937 3.58728
11.5279 89.3511 4.37252
30.7138 131.968 -8.67113
27.7452 125.438 -6.86079
25.4567 116.579 -1.89653
23.7768 116.053 -3.74595
23.0697 122.643 -10.8239
-4.7365 78.897 -8.62442
18.423 115.634 -10.8498
15.8087 95.8253 3.77834
-0.139792 87.2371 -10.1851
2.7787 94.0072 -12.4282
5.69488 100.974 -14.8726
1.896 91.8693 -11.6905
26.9308 123.652 -6.90158
2.47914 78.4832 1.15931
30.5471 128.872 -6.82747
4.2333 97.2929 -13.7809
18.5186 115.465 -11.0627
19.7258 115.63 -9.56362
12.5482 89.8771 4.31215
23.8884 106.989 4.05122
24.6101 108.27 3.83291
7.75878 84.1142 2.98614
-0.128787 86.1452 -9.69805
4.99761 81.015 2.0453
19.8682 115.602 -9.48368
26.0071 115.119 -0.653581
7.77048 84.0788 2.95133
17.2396 116.391 -13.9201
17.2341 96.8528 4.04593
13.1729 110.598 -14.2529
23.3179 122.66 -11.5699
13.5322 91.5596 3.64207
18.4305 98.2702 4.14879
-1.84196 82.4096 -9.05096
23.3754 123.9 -12.7329
6.3688 101.443 -15.376
13.4097 110.619 -14.2376
4.71622 80.165 1.79035
15.6797 94.1496 3.91877
30.6858 127.567 -6.3649
12.1866 108.23 -13.9256
24.2386 115.329 -3.96272
9.80225 85.8114 3.44322
10.7945 106.44 -14.2539
21.6995 102.859 3.94956
10.1011 86.0223 3.49666
25.599 122.628 -9.04113
6.0577 81.4203 2.08708
18.2403 115.817 -12.9111
19.0037 98.4014 4.1691
13.9205 110.747 -14.2164
25.4692 110.785 1.49977
26.9211 126.374 -10.9173
27.4369 127.32 -11.0829
31.0042 128.411 -7.25231
11.7952 107.288 -14.1218
9.5243 85.1571 3.08352
29.6707 125.939 -6.91489
4.6907 79.4465 1.57368
17.4814 115.31 -13.987
26.4684 125.716 -11.2736
12.0179 107.347 -14.1517
20.086 99.2245 4.28924
30.1992 126.02 -6.54377
11.4312 87.0287 3.65042
13.9505 89.7318 4.51389
25.1484 107.965 3.04319
7.48515 102.095 -15.7437
31.8028 131.869 -9.88436
25.0479 107.494 3.27373
28.7652 125.238 -8.08334
26.3047 113.582 -0.809114
24.3444 114.62 -4.47797
26.2364 114.432 -1.72386
10.902 86.1623 3.29707
22.8543 103.112 3.96941
32.0165 131.145 -9.3275
25.6533 109.757 1.5484
26.1274 111.4 0.643283
4.41325 78.6549 1.06125
31.3388 128.179 -7.73174
16.0481 112.983 -14.6854
4.38759 94.3381 -13.4844
-0.363094 82.8045 -9.3809
18.6981 96.4191 4.17677
22.0736 101.842 3.73245
0.293251 74.3462 -0.786784
12.7544 87.7434 3.91758
11.5783 105.966 -14.501
16.7913 93.1764 4.33611
16.2726 92.3744 4.25961
32.564 130.271 -8.34956
20.181 98.1103 4.2423
24.891 121.752 -11.1072
24.6583 121.659 -11.3981
25.4665 107.628 2.58801
1.33824 85.0417 -9.67608
19.4217 114.02 -11.6656
4.11369 92.7457 -13.0959
3.89253 92.1659 -12.8888
11.17 85.5226 3.068
29.298 127.894 -11.1491
25.4135 106.995 2.7674
26.5446 112.728 -1.08518
6.65996 98.0916 -14.8941
8.84774 102.29 -15.8429
19.6604 113.764 -11.6101
6.35963 97.1694 -14.6041
25.9175 114.656 -3.9313
15.3506 109.969 -14.1527
28.1254 122.877 -8.57646
29.4207 124.76 -8.58955
3.75764 90.3667 -12.3536
26.3552 110.344 0.188353
26.1522 108.976 1.1531
24.6829 104.27 3.44465
5.20468 93.7078 -13.598
19.3399 95.6464 3.95072
31.9528 129.977 -10.4074
24.9873 104.688 3.28076
22.5016 113.969 -8.77848
16.9032 91.4057 4.27568
17.2127 112.354 -14.6364
31.8569 129.436 -10.3915
17.2547 91.805 4.23299
22.6724 100.568 3.53876
-2.74481 76.9773 -9.56542
2.89422 86.6535 -10.7984
12.8702 85.9505 3.43501
19.2884 112.338 -12.1571
14.9352 88.1791 4.10167
26.8123 112.13 -1.82046
19.4401 94.8018 3.99633
28.2248 122.319 -9.38167
7.22999 96.9043 -14.7265
-1.30659 78.0066 -9.04863
-2.72131 76.6375 -9.77042
26.1295 106.879 1.84316
3.6958 88.2017 -11.7251
26.5189 112.819 -3.22469
4.8079 91.017 -12.8848
10.5345 82.575 2.69419
19.5651 94.601 3.97647
7.00424 95.8092 -14.3555
9.20511 100.319 -15.6334
0.548472 81.212 -9.89546
7.66757 97.2604 -14.9302
-2.7266 76.2778 -9.98965
3.5608 75.6062 -0.785254
22.3499 113.528 -10.0111
3.61705 87.0389 -11.3047
2.83662 84.5014 -10.0941
23.0241 113.311 -8.99292
15.0477 87.2911 3.88418
4.53239 76.5454 -0.640929
23.5281 112.936 -8.17339
18.2517 111.134 -13.7475
15.5465 108.172 -14.7541
11.6677 83.2089 2.89779
21.5134 112.457 -10.636
0.68476 80.6386 -9.87145
34.1261 128.082 -7.79818
16.7164 89.2679 4.06926
13.6982 85.4313 3.38975
33.7378 127.144 -7.65681
12.4001 83.7983 3.00033
13.4053 104.888 -15.0642
33.3636 129.098 -10.121
11.435 102.415 -15.604
19.215 92.8126 3.87419
21.7286 111.708 -10.1981
21.0796 111.376 -10.8539
24.7146 112.349 -6.79571
9.97187 100.011 -15.6244
22.9213 111.649 -8.61884
24.7375 112.161 -6.83896
25.9643 111.721 -4.75577
17.2624 109.408 -14.606
7.52564 94.3927 -14.1848
21.2259 110.629 -10.4333
5.8467 90.3907 -12.901
8.39934 79.2913 0.613177
-0.539951 77.0249 -9.56043
20.4372 109.606 -10.8612
5.31577 88.5624 -12.2942
19.7289 92.7038 3.60259
10.7572 81.1099 1.96258
15.7216 86.6367 3.64498
21.3281 109.588 -9.86213
2.04685 80.9798 -9.91703
18.1014 109.502 -14.2483
0.673644 78.3771 -9.48255
10.1642 98.8075 -15.3409
11.6665 101.248 -15.5335
11.4425 100.904 -15.5326
3.74584 83.9313 -10.4565
16.9062 108.219 -14.8429
3.00539 82.4362 -10.183
19.6538 92.283 3.54322
21.6667 109.045 -9.21709
7.22654 77.696 -0.153692
2.71289 81.7078 -10.0571
18.094 109.037 -14.2414
5.68912 88.4106 -12.3581
4.58932 74.1108 -0.714484
25.4455 101.268 2.82165
23.4531 109.651 -7.63862
15.8507 106.342 -15.0645
23.4401 109.441 -7.60524
16.9926 107.671 -14.8744
26.9879 106.975 -0.579122
8.99965 79.1081 0.430725
18.9612 90.5017 3.4755
14.595 84.2657 3.11658
5.15587 85.6053 -11.0686
19.7607 91.6107 3.3367
14.5776 84.1301 3.07428
15.4974 105.368 -15.2512
7.46316 91.3772 -13.4464
11.7893 99.9808 -15.5086
14.9246 84.3559 3.13918
24.8269 99.3221 2.91512
8.32768 93.2267 -14.1034
25.0494 109.479 -6.17969
27.2292 104.596 1.21571
27.4373 109.619 -3.1333
12.1888 100.336 -15.4943
24.4782 98.5177 2.99051
27.397 109.457 -3.19337
22.0066 107.942 -9.28375
24.3516 108.647 -6.73741
27.579 109.099 -2.80532
17.8128 107.313 -14.6284
27.5219 108.482 -2.47396
26.9074 108.978 -3.88075
2.0572 78.2742 -9.64719
20.9757 92.5094 3.12205
15.2199 84.0763 2.97355
23.4062 107.999 -7.94646
9.59248 94.6259 -14.578
16.6516 105.637 -15.102
27.2523 103.449 1.35045
6.32094 86.5877 -11.84
11.1168 79.6958 1.03842
16.5689 105.262 -15.1296
7.65454 76.3681 -0.852573
3.97 80.9783 -10.2214
19.8752 107.029 -12.4541
27.4731 106.586 -1.76442
5.98043 84.7685 -11.3482
7.42438 88.258 -12.5936
12.3895 80.3416 1.46059
18.8534 88.2128 3.02106
12.0402 97.5395 -14.9727
19.7386 89.527 2.89831
25.7528 107.811 -5.71347
21.4067 106.068 -10.2168
12.2126 97.5603 -14.9723
10.7677 95.0659 -14.6896
10.5762 94.4962 -14.5721
27.076 107.907 -4.37169
20.2218 105.705 -11.7457
24.5397 96.7949 2.24486
16.8942 84.7701 2.75977
9.65886 92.27 -14.1102
7.47924 86.8713 -12.1327
23.794 107.023 -8.42019
26.0304 98.5414 2.39618
8.26015 88.7218 -12.9411
10.7236 94.1291 -14.5559
15.4187 82.7082 2.35013
27.4946 101.896 1.0692
27.8279 105.093 -1.45566
18.091 104.795 -14.5354
16.8508 103.501 -15.1026
16.3501 83.5655 2.56112
17.7255 104.515 -14.8739
21.1304 90.6345 2.56997
18.4175 104.786 -14.2518
19.8511 104.869 -12.3759
2.66079 76.6337 -10.1337
11.0189 77.961 0.0677715
15.1902 100.054 -14.6103
14.6256 99.2668 -14.7399
17.693 104.031 -14.9373
24.0435 94.6783 2.35567
23.7645 93.8402 2.57789
12.3097 78.7886 0.642853
9.2885 75.9563 -1.01014
9.04754 88.7462 -13.1275
9.41785 89.8087 -13.6267
27.7002 101.332 0.758659
14.9956 98.9522 -14.625
18.4292 103.472 -14.2516
28.1475 104.129 -1.66077
28.2378 104.603 -1.99837
6.10026 81.0372 -10.7235
14.5675 80.3907 1.43524
18.3322 84.9361 2.33334
6.59309 81.8395 -11.024
10.1702 90.0595 -13.8422
27.3946 105.503 -4.56449
20.6038 87.879 2.24678
8.91791 86.2395 -12.34
19.809 102.89 -12.7808
21.1745 88.5209 2.21773
9.87453 88.4538 -13.2223
19.6068 86.0071 2.19092
6.65455 80.7749 -10.8317
27.0188 97.4139 1.72529
19.9811 86.4621 2.13642
23.9558 104.636 -9.30084
21.3156 88.2794 2.12422
25.5023 105.385 -7.9674
17.5165 82.6471 1.79628
18.8756 102.075 -14.2402
16.9844 99.3838 -14.4206
19.2722 84.9243 2.00653
17.6631 82.7311 1.7796
18.3986 83.5068 1.85034
9.33706 85.4317 -12.3759
27.0605 96.6438 1.48703
27.5912 103.698 -4.42097
20.3326 86.0507 1.89214
25.899 94.5054 1.65083
25.616 93.8061 1.78801
16.2068 97.6344 -14.6461
21.5483 87.6051 1.83684
21.954 88.1005 1.86073
24.7737 91.9546 2.14118
13.3583 92.8297 -14.4034
8.10703 81.4402 -11.3161
17.0244 98.1821 -14.5354
28.2568 98.633 0.305586
11.757 76.0631 -1.55872
13.4361 92.1622 -14.2587
8.40834 81.4748 -11.3895
25.5266 92.5003 1.85193
10.6052 74.7372 -2.31581
27.9995 96.8965 1.06466
13.6128 77.1181 -0.448052
15.7623 95.3717 -14.4351
23.6279 89.6188 1.58486
13.2796 91.204 -14.0656
9.23283 82.8196 -11.9021
5.64372 75.9688 -10.54
12.1549 88.954 -13.6655
28.0086 96.463 1.12101
9.41304 82.7103 -11.9151
17.7698 80.945 1.02166
23.4149 88.6492 1.50563
12.8973 76.1717 -1.46476
9.74405 82.9396 -12.0478
14.903 92.8955 -14.1695
16.7608 95.7193 -14.2728
9.58407 82.3314 -11.8576
23.484 88.5186 1.46608
27.6546 94.8288 1.11899
16.3618 94.4817 -14.1766
20.6082 83.9959 1.26619
7.55965 77.3841 -10.5133
18.9607 98.2992 -14.1895
25.8536 91.3022 1.67862
13.2046 88.9531 -13.5009
9.43556 81.0076 -11.4948
28.3536 101.472 -4.6135
25.6343 101.939 -8.79134
27.6949 102.511 -6.55629
21.516 84.8414 1.20651
13.8034 89.2989 -13.5029
8.47288 78.0731 -10.4918
13.1748 88.0624 -13.2633
25.1272 89.9272 1.38079
28.9845 98.24 -1.0736
20.9591 83.8788 1.10864
28.8393 100.671 -3.88065
28.5478 95.2687 0.691574
19.4263 97.3936 -13.996
27.7712 101.938 -6.81932
18.4178 79.4996 0.848892
13.6871 75.6343 -2.20228
29.249 97.3579 -0.937426
16.317 92.0268 -13.8359
27.3322 101.824 -7.80834
14.0639 87.8414 -13.1204
29.2777 97.3164 -1.10732
21.8418 83.8985 0.81803
14.7984 88.5914 -13.207
23.2947 99.6371 -11.7628
25.0093 100.361 -10.1576
19.5123 80.2743 0.81033
15.7816 76.7334 -1.12239
23.7393 99.6589 -11.4896
8.05386 75.4227 -10.7532
23.2079 85.3134 0.867637
18.0374 93.9432 -14.192
22.7976 84.6333 0.762838
20.6368 81.4563 0.710869
22.0852 83.5743 0.730427
22.5094 83.9868 0.741339
16.3452 76.8038 -1.27181
26.3122 89.1086 1.04042
19.2895 78.9463 0.697588
20.9308 81.3431 0.675883
20.5449 96.0331 -13.412
16.6511 90.238 -13.6055
21.6486 96.7593 -12.7952
27.9234 100.396 -7.64055
17.7809 77.2118 -0.267503
26.0575 99.6968 -9.64763
28.4286 91.9419 0.734578
20.9087 80.6887 0.668911
28.5826 92.0807 0.592029
26.4808 99.6506 -9.3776
29.687 97.5102 -3.05582
11.9539 80.2724 -11.4884
16.9843 90.0472 -13.6438
12.6887 81.7851 -12.0056
29.7467 97.1583 -2.85676
10.7151 77.2497 -10.7238
28.7731 99.5324 -6.5455
29.2363 99.2596 -5.67427
21.4091 80.7735 0.613385
25.6135 98.7266 -10.1842
27.7874 89.8531 0.956678
18.7693 77.5421 -0.0684701
15.2429 86.2685 -12.9429
24.7931 98.0385 -10.8262
17.4042 76.813 -1.42668
22.2581 81.6989 0.611248
20.8334 94.3478 -13.0435
27.824 99.547 -8.26018
24.9381 97.8289 -10.691
26.6469 87.5637 0.94462
16.093 87.0743 -13.1231
12.8248 80.2878 -11.4713
25.6085 97.8199 -10.1288
22.9815 82.2193 0.629813
29.0098 98.924 -6.51933
28.4509 89.9295 0.913178
14.3293 83.2436 -12.2817
12.5671 79.4003 -11.1849
15.7269 85.949 -12.9147
16.1513 86.7382 -13.0749
17.6897 76.7254 -1.75258
30.0342 96.6046 -3.19303
12.3261 78.6543 -10.9532
28.2979 98.9992 -7.87116
22.3811 94.8697 -12.1754
23.3268 95.5962 -11.5673
18.2866 77.0443 -1.44686
29.295 98.5588 -6.22467
29.6001 98.0981 -5.56722
13.0632 79.6376 -11.2506
29.7805 93.7649 -1.43105
14.2538 82.186 -12.0296
25.9459 97.111 -9.79947
13.8498 81.3347 -11.8434
25.43 96.693 -10.1771
30.1867 95.2154 -2.37988
20.8409 92.9134 -13.1215
20.2129 92.3231 -13.4832
27.4832 87.4592 0.951299
30.0977 94.2473 -1.87221
25.421 84.5966 0.589773
22.3969 80.18 0.490226
26.748 97.1862 -9.21771
13.3788 79.35 -11.1697
23.433 81.5455 0.562947
12.7344 77.9609 -10.8565
18.9532 90.8696 -14.2483
12.4149 77.4487 -10.8719
15.5902 83.7944 -12.4848
25.2062 95.7427 -10.3262
24.4981 82.6217 0.584155
20.7281 77.7788 -0.349953
24.4681 82.243 0.561669
30.2411 96.1767 -4.595
23.7517 80.7873 0.493704
28.9115 97.2784 -7.66762
26.2256 84.3452 0.542741
26.8642 95.9493 -9.41686
30.3112 95.273 -4.12804
28.3342 97.0011 -8.48799
24.776 94.1985 -10.8639
23.6062 79.9586 0.395623
13.9214 77.9047 -10.987
30.4507 93.7226 -2.92184
14.6684 78.906 -11.1211
24.6248 80.9847 0.47449
20.0445 88.6168 -12.9854
23.5716 79.3013 0.299835
18.5575 85.8451 -12.8153
23.0721 78.4074 0.192
30.4665 91.5598 -1.83322
25.7875 82.1006 0.466347
30.2814 95.5392 -5.88328
16.6304 82.2788 -12.3678
21.2659 89.7681 -12.9798
23.9937 92.4399 -11.7065
22.9171 77.9831 0.0735567
26.1053 82.2112 0.45082
13.7632 76.3281 -11.1732
15.7077 79.2389 -11.3242
17.9152 83.7942 -12.5259
16.9447 81.7986 -12.0916
25.9892 81.5993 0.419029
30.2922 89.8187 -1.26986
17.2979 82.2371 -12.1508
21.5084 77.7082 -2.21427
28.4462 95.0164 -8.79597
28.6706 85.0973 0.493494
24.6957 91.9697 -11.2854
24.7452 79.3453 0.246395
28.1829 84.2182 0.413626
17.9917 82.1198 -11.6529
22.7553 77.8237 -1.42635
26.3622 81.1699 0.351119
19.6798 84.086 -11.5751
26.3546 92.545 -10.6086
23.462 77.7861 -1.42641
19.4038 82.2024 -11.3585
25.9532 79.398 0.192409
30.1993 93.5597 -7.05171
26.8408 80.4165 0.22816
29.92 85.4955 -0.327184
23.9753 77.6277 -1.37318
28.4294 92.4556 -9.12891
21.8344 84.9557 -11.2531
27.6997 92.3125 -10.1001
25.109 89.912 -11.4707
26.8608 91.5192 -10.7612
27.216 91.8367 -10.6127
24.9998 77.7996 -0.727162
21.7878 84.3667 -11.1753
28.9457 82.4865 0.117681
30.7676 91.9231 -6.33848
30.5103 86.659 -2.27753
24.9519 88.6829 -11.8378
28.4583 80.7206 -0.0913372
23.3556 84.9106 -10.944
27.2314 90.4365 -10.8556
29.2228 81.6891 -0.135941
21.5138 82.5649 -11.7256
21.6566 82.6832 -11.7117
25.8216 88.1678 -11.2541
25.3268 77.1193 -1.92431
21.8082 82.4531 -11.7246
25.7218 87.1033 -10.6831
26.7524 88.8488 -11.2008
22.7816 83.1699 -11.5843
