ply
format ascii 1.0
comment Created by Open3D
element vertex 1635
property double x
property double y
property double z
end_header
0.0449499 152.103 -4.0712
-12.9762 99.3838 -3.91013
-22.714 88.1559 -10.8396
-21.9278 88.118 -10.0585
-20.2228 98.3814 -10.9293
-15.6241 117.158 -11.0584
-4.68552 143.782 -6.84037
-11.0083 103.027 -3.01966
-9.50074 104.962 -2.07169
-4.04007 140.279 -5.43344
-3.54266 142.362 -5.46764
-0.843165 150.9 -4.91647
-10.9477 125.907 -8.79924
-3.09975 146.85 -6.25254
-20.0312 100.787 -11.6174
-19.8598 97.4786 -10.6291
-20.103 95.8397 -10.5021
-19.6973 106.359 -12.7423
-19.8085 105.145 -12.5827
-18.0154 112.938 -12.7994
-7.61022 109.014 -1.51898
-14.0272 119.722 -10.5959
-12.4205 100.053 -4.13739
-20.3889 110.214 -14.5773
-5.57802 135.225 -6.1555
-14.1324 119.392 -10.7318
-19.0249 102.623 -11.4426
1.41805 135.451 0.646408
-19.1679 102.922 -11.7
-12.7676 122.086 -10.1112
7.89658 152.749 2.75987
-19.6358 104.393 -12.5958
4.22104 155.002 -1.51346
-3.79598 139.18 -5.53992
-6.19414 112.485 -1.34267
-8.8944 129.345 -8.24272
-13.0793 97.9761 -4.61467
6.14397 149.14 1.75216
7.65485 154.733 1.85808
-12.899 98.4564 -4.56284
-3.51054 139.502 -5.4393
-19.4353 95.6417 -10.4055
-19.0639 96.5489 -10.2765
-2.18045 143.693 -5.23387
-21.6022 87.8018 -10.6319
-20.0507 88.1751 -9.23394
-16.824 113.99 -12.459
-20.6082 88.3923 -9.86777
4.08022 143.501 0.923023
-19.431 104.354 -12.6938
-22.7822 86.3263 -11.6153
-1.55913 145.91 -5.39272
1.23236 132.563 0.653864
-1.56891 144.719 -5.17287
-1.44832 145.389 -5.22019
-10.2291 103.339 -3.59145
-21.9009 87.7643 -11.3035
-3.17419 121.596 -1.13454
1.30054 132.261 0.63395
0.965981 150.818 -4.34556
4.47686 144.071 0.777224
-19.1164 111.031 -14.4239
1.43879 151.468 -4.07445
1.64011 151.767 -3.95658
-4.22069 118.188 -1.46361
-21.9235 87.6665 -11.4858
-2.66518 139.928 -5.36039
-19.0472 110.996 -14.4707
6.56629 155.091 -0.018199
-18.5133 87.5702 -8.1651
-24.9151 85.8551 -14.0929
-2.42813 140.155 -5.32586
-18.8229 93.5519 -10.0446
-10.9656 124.508 -9.93422
4.56185 154.556 -1.99474
-7.45992 108.317 -2.45883
-19.5282 91.087 -10.1678
-21.2041 87.795 -11.0523
8.612 153.795 2.12759
0.266999 147.785 -4.66733
-2.97267 121.532 -1.40717
-0.2103 145.446 -4.61912
-18.6326 106.624 -13.2825
-0.188009 128.204 -0.35196
-16.9571 87.5271 -6.9256
-21.2851 87.671 -11.2836
-7.93273 130.011 -8.57493
-18.3064 103.362 -12.2715
-23.6735 87.7021 -13.7201
-7.41668 131.044 -8.35537
-12.7755 97.4234 -5.37102
1.16025 131.333 0.0164486
-17.327 87.3005 -7.41797
7.8972 151.536 1.63206
-19.6952 87.6693 -9.89331
-19.2112 87.5406 -9.46517
-12.6196 97.6725 -5.44643
3.65654 153.108 -3.10468
-23.8552 84.9613 -13.512
-12.6567 120.459 -11.2823
-20.1328 87.3867 -10.4978
-18.3623 105.753 -13.3117
-12.5018 97.7881 -5.54792
-8.8363 104.79 -3.67404
-5.02287 134.515 -7.27488
-9.27107 104.348 -4.01855
-18.6099 92.4499 -10.3648
-18.2912 104.111 -12.9495
-18.6646 108.703 -14.4756
-9.79904 125.877 -10.0039
8.17624 151.63 1.41269
-3.70911 136.267 -6.58664
-12.6602 120.224 -11.5433
-0.187088 127.579 -1.01481
-3.17533 137.046 -6.33208
-6.12849 111.313 -2.89039
-18.5963 109.069 -14.6996
-0.908805 141.468 -5.22468
7.56049 149.073 1.26121
-19.8475 87.2161 -10.596
1.09516 145.742 -4.35251
-23.2995 87.2868 -14.074
-4.39798 116.438 -2.59588
-0.430456 126.831 -1.24626
-6.38391 110.342 -3.06337
-0.456565 142.328 -5.13477
-21.4935 85.3751 -11.8841
-12.8446 119.697 -11.8291
-18.3646 108.728 -14.6059
-18.1253 92.9841 -10.4822
0.717198 144.222 -4.66038
-14.3858 92.8322 -6.91052
-12.3726 97.3641 -6.06196
7.63197 154.431 -0.391492
-11.1969 100.055 -5.59544
2.45421 133.892 -0.46016
6.87653 146.214 0.864177
6.16447 124.662 5.48442
-3.43817 136 -6.84998
-7.31779 106.607 -3.42976
6.23673 125.837 5.19115
6.01228 124.263 5.31387
-17.9887 92.7499 -10.6661
-15.4276 87.9828 -6.94787
-4.83804 114.584 -3.05388
-1.49036 123.149 -1.96536
4.35172 139.712 -0.291581
-1.15712 139.846 -5.80687
-11.8563 98.322 -6.16522
5.90008 128.184 4.00872
0.229031 142.724 -5.24361
-7.19538 129.819 -9.41109
-21.8477 83.4972 -12.4598
-17.6389 93.2411 -10.7094
-10.3694 123.98 -11.1492
3.60424 136.585 -0.493804
-9.43228 103.153 -5.15395
5.2353 141.678 -0.177549
6.60713 126.539 4.92275
-5.23357 133.332 -8.54206
6.50828 125.144 5.12643
7.20627 132.014 4.09658
-7.58724 105.46 -4.04828
-19.8222 87.1139 -11.6985
-17.0619 97.0032 -11.4186
-18.1045 87.9165 -10.1993
-6.29184 131.2 -9.26391
-7.76518 93.0006 -1.25579
-11.8878 97.7176 -6.53563
-17.2326 105.32 -13.7247
1.98537 131.83 -1.25495
6.37789 130.113 3.47146
6.75742 127.51 4.47448
5.83938 119.445 5.54612
5.97259 125.172 4.23056
7.00028 144.593 0.420283
5.10681 118.414 5.02263
-4.15733 97.5031 1.02373
-5.15968 112.961 -3.81711
-6.92049 106.823 -4.05157
-22.4641 84.4551 -13.936
-6.7163 107.601 -4.09745
7.17408 128.608 4.44951
9.63123 148.939 1.83265
-16.9925 107.222 -14.2518
-8.73888 104.026 -5.32669
-11.8655 120.483 -12.5163
-17.2568 108.729 -14.9614
4.22964 137.292 -0.777338
-0.202168 140.61 -6.0104
-1.98567 137.11 -6.94557
5.80671 152.61 -3.06467
-6.2167 109.21 -4.22272
-6.17748 95.7642 -0.858287
-2.59761 98.7086 1.92748
-3.9265 95.3331 1.42732
-8.94334 125.496 -11.0307
-18.8479 87.0728 -11.3241
-14.3865 115.11 -13.8575
7.52574 128.915 4.43946
6.82122 124.436 4.84697
5.97983 128.737 2.92393
-3.1387 98.0278 1.49841
-15.9289 88.9662 -8.94086
-1.9534 98.9387 2.43201
-7.81089 92.4055 -1.76769
-6.7258 129.739 -9.95953
3.99448 113.956 4.58164
6.32091 118.383 5.75069
5.7392 151.983 -3.16591
-0.979581 139.129 -6.64698
-19.837 85.2822 -11.9918
-13.3409 93.5554 -7.6268
-17.5301 91.7816 -11.355
3.96 113.35 4.57832
5.45372 151.251 -3.35288
-0.504887 123.953 -2.50017
-4.00886 114.783 -3.71462
-16.6786 106.177 -14.1594
-5.62575 93.8644 -0.15769
-16.6588 107.895 -14.61
-2.59953 99.3757 1.43795
-20.3941 82.7042 -12.1031
-17.1693 92.4849 -11.3324
0.0125752 125.098 -2.40021
-16.9815 110.113 -15.5522
-8.28741 126.128 -10.921
-8.60445 92.0126 -2.78261
-14.8629 113.362 -14.3135
-4.04195 94.8007 1.01459
4.16497 148.242 -4.13847
8.76099 135.524 3.56728
-7.16118 94.5321 -2.05268
7.24088 120.371 5.80515
-12.0171 95.7056 -7.19977
3.11683 107.353 4.89201
-9.04715 124.946 -11.5364
-17.1936 87.1563 -10.2488
4.9575 122.24 3.00176
-13.4644 91.6939 -7.71098
1.60803 142.917 -5.51039
-16.7386 110.105 -15.5622
6.66343 117.748 5.74363
5.91879 114.089 5.90403
7.9873 143.357 0.671998
-4.36914 113.099 -4.08635
-6.78734 128.937 -10.4254
1.34082 142.299 -5.69065
7.06173 132.34 2.43363
8.08809 127.649 4.60915
8.00759 143.193 0.670264
4.64085 136.373 -0.987468
6.12461 129.987 2.05532
8.4085 130.663 4.14742
-2.71581 117.614 -3.64615
10.2894 142.081 3.16387
1.57509 102.867 4.24888
4.29992 148.004 -4.24609
1.45673 103.41 3.99135
-2.83177 135.314 -8.20512
5.84046 151.149 -3.54124
2.24164 102.637 4.92032
0.308462 100.47 3.53612
2.1652 102.614 4.84418
-4.50084 112.449 -4.22243
4.55704 134.359 -0.685437
3.22831 132.375 -1.51121
-12.6479 91.2275 -7.04705
-7.41411 91.8385 -2.01551
2.95114 109.313 3.92127
-16.2295 94.9255 -11.5402
-7.96876 102.831 -5.32122
-12.3343 90.8615 -6.6855
-16.6404 109.565 -15.5958
7.84907 142.378 0.542452
3.30053 132.441 -1.50414
-12.9959 91.5438 -7.52833
7.29405 125.185 4.23735
9.07539 133.115 4.0307
-15.0608 100.877 -11.9094
4.83425 121.654 2.64793
4.65949 108.068 5.84271
-19.6403 82.3399 -11.8843
2.0009 103.704 4.26584
-4.84749 93.3326 0.0449585
-9.73058 92.4824 -4.59205
-12.3041 118.706 -13.6727
9.13257 144.223 1.24642
-8.95679 91.5968 -3.66654
-17.0784 91.6631 -11.7351
4.35071 133.836 -0.952843
-16.6598 92.7509 -11.6048
-4.39584 98.2633 -0.848262
3.5007 111.065 3.79425
0.28511 103.286 2.53137
4.05547 116.698 2.92998
-15.1233 103.007 -12.6985
8.31345 128.288 4.26162
-9.83012 92.534 -4.86477
3.68492 115.256 2.89336
-6.23443 92.0769 -1.22567
7.23086 140.386 0.142212
-12.8871 91.1923 -7.60368
3.27315 103.654 5.32439
6.65101 139.304 -0.187935
-2.91071 115.898 -3.86311
9.69305 137.414 3.27807
3.25179 131.596 -1.67095
5.67593 111.217 5.76417
-13.6635 89.756 -8.08757
11.3306 148.336 2.15794
8.48193 136.622 2.22479
-7.95462 91.2578 -2.82288
4.77718 134.199 -0.870875
-10.0107 98.8429 -6.76542
-15.9383 106.864 -14.6425
-16.2911 87.6938 -10.2705
2.66517 109.055 3.21095
8.03031 126.808 4.11997
8.3807 136.478 2.05057
-19.5825 82.3527 -12.2557
6.80641 132.099 1.56856
10.7223 152.708 0.335997
-2.83879 115.439 -3.90401
-16.3025 89.998 -10.9629
8.43413 141.045 0.893209
7.69498 125.795 3.90616
5.45019 108.45 5.97418
-1.91414 117.968 -3.68997
7.48101 123.669 4.20711
4.9337 122.495 1.97079
11.6543 149.809 1.84802
-9.40273 99.692 -6.60848
-18.1423 84.2526 -11.4512
10.4805 138.857 3.36989
-12.4085 117.702 -14.0807
-12.3916 90.3356 -7.28133
1.69696 126.942 -2.45582
0.455949 97.9147 3.50765
11.0304 141.725 3.11055
8.81164 140.303 1.25788
2.46205 106.355 3.36653
4.33733 119.305 1.99248
8.4672 137.217 1.63962
9.40677 140.083 1.84202
-0.0542546 122.563 -3.19686
-10.2072 97.5524 -7.06024
11.0783 152.563 0.389531
7.59671 117.097 5.72253
-20.8418 86.2138 -14.8134
9.39465 132.401 3.69969
2.8595 129.334 -2.04977
8.56236 127.65 4.01277
0.9924 141.063 -6.81943
-3.67655 99.3257 -1.10567
7.32974 138.479 0.0905312
-3.13061 114.07 -4.22687
-0.600198 96.7436 2.5702
-20.8497 86.0953 -14.8854
6.95747 137.62 -0.11678
-7.75641 93.9095 -3.89177
5.62534 108.161 5.83875
0.0871782 122.552 -3.23197
11.1917 141.552 3.06481
3.75953 145.462 -5.28728
4.86563 105.469 5.72259
-8.08 101.015 -6.02384
-14.98 96.8617 -11.852
9.41143 138.709 1.94666
-12.5729 89.7699 -7.71387
9.91488 139.017 2.36448
7.80541 125.392 3.64535
8.84915 129.621 3.58825
-20.6162 86.122 -14.8409
2.24419 106.258 2.81388
5.4644 124.753 1.4177
6.57499 150.801 -3.94433
6.95407 136.895 -0.137482
6.53964 150.681 -3.97158
1.98094 107.209 2.29039
7.34797 134.23 0.891331
11.3172 142.218 2.84339
11.5535 152.426 0.502331
-5.12716 130.436 -10.5821
-3.48875 112.592 -4.53897
-2.89448 93.9363 0.660524
-1.41508 117.688 -3.76571
11.7269 151.164 0.954345
-15.4841 88.1166 -10.3932
7.59647 115.773 5.62817
-1.20803 101.868 0.337332
-14.6478 104 -13.5378
4.19525 103.159 5.33449
-12.5609 91.4099 -8.36657
3.85621 118.532 1.17293
12.5949 145.818 3.06502
-9.17157 90.9381 -4.90544
4.16405 119.509 1.20847
6.74404 150.719 -4.03245
-16.624 88.175 -11.7033
7.86085 137.34 0.368342
-7.10417 126.519 -11.7873
-14.7187 89.4397 -10.1523
-15.5105 89.8899 -11.0767
-2.73387 113.93 -4.39852
7.47341 135.159 0.432406
-14.8651 105.015 -14.2453
-5.45548 107.211 -5.46853
3.61391 117.684 0.917147
-19.0396 82.4451 -12.8034
6.663 131.966 0.396119
-19.5839 82.8207 -13.4571
-7.67912 100.637 -6.07942
-15.2404 89.1747 -10.7412
6.01104 129.325 0.324696
6.54624 131.684 0.265048
-15.558 86.8905 -10.5446
2.36817 109.371 1.62857
2.10165 98.2552 4.11567
-8.84284 90.1628 -4.73573
6.4302 133.923 -0.471117
-0.850266 94.0858 2.17125
2.82874 111.817 1.39828
-5.76639 105.84 -5.64506
3.13266 128.006 -2.34384
6.0054 107.585 5.56457
0.802427 96.6202 3.12058
2.83767 112.221 1.25976
7.5234 151.8 -3.91984
-7.49407 125.462 -12.2823
-0.733984 94.2035 2.15389
12.8499 148.907 2.0526
-1.68931 115.857 -4.16958
-18.0601 81.8393 -11.9659
4.24066 129.896 -1.78175
-5.69934 105.738 -5.64709
1.74546 106.125 1.63746
6.04581 132.629 -0.68742
4.47267 122.828 0.172419
6.44742 134.543 -0.776007
9.47267 151.336 -1.95508
-7.65026 94.2267 -4.78798
9.79707 131.614 3.22596
-2.96193 133.339 -9.86231
6.03309 130.241 -0.198234
5.34988 132.108 -1.34162
2.43909 110.415 1.14708
7.70755 113.484 5.6017
-15.5645 91.7367 -12.099
6.24603 131.217 -0.2778
-14.43 109.373 -15.3714
10.6282 134.224 3.3072
3.52235 99.9842 4.73775
-17.7276 81.6171 -11.8036
-11.322 117.542 -14.3751
6.50709 109.077 5.38636
-0.43086 94.6696 2.07101
9.58413 130.639 3.07884
-0.983476 116.716 -3.99317
8.88622 121.06 4.6798
5.17497 125.526 -0.146313
8.67939 117.409 5.32056
-18.8432 82.6108 -13.3415
13.2314 143.625 3.31813
6.77136 149.326 -4.51922
3.02084 124.703 -2.13714
-13.6763 110.683 -15.2306
-0.667933 103.168 -0.471871
-13.4377 100.465 -12.4641
9.18862 129.139 2.8504
3.11505 124.256 -1.96877
-14.774 94.365 -12.2981
3.63201 125.776 -1.84193
3.09148 123.427 -1.81638
10.7615 133.432 3.3032
4.38986 123.299 -0.510617
-7.83611 98.6326 -6.51568
-9.28242 121.707 -13.6798
-14.5345 94.9427 -12.2559
4.29764 124.449 -0.914909
0.855414 139.624 -8.10402
-12.9133 113.132 -15.1855
-3.44465 110.13 -5.068
-13.6636 109.903 -15.1447
1.41531 105.709 0.84069
-8.50179 89.0925 -4.87065
-14.2303 108.531 -15.3816
-2.91206 100.334 -2.13525
1.05942 119.995 -3.08425
3.44757 120.658 -0.894132
3.4664 119.37 -0.564025
-14.5057 107.588 -15.4701
3.65304 122.645 -1.21534
11.7077 137.81 3.00868
0.29535 118.153 -3.46013
1.01185 105.398 0.396987
6.49898 107.336 5.31498
2.92411 117.195 -0.686839
-16.237 88.1856 -12.5007
8.46496 125.258 2.77618
13.9381 145.678 3.13229
-14.6788 94.153 -12.4603
-3.18148 109.987 -4.99947
3.27505 97.7891 4.42373
9.33306 127.612 3.02514
1.27702 108.378 -0.207327
-0.159032 116.542 -3.66642
10.1991 131.365 2.92512
-0.23682 116.326 -3.69698
-11.6681 114.523 -14.5899
-3.09688 110.005 -4.97207
-9.57932 120.192 -13.9324
6.15105 147.725 -5.17429
3.94703 98.8008 4.75363
1.32776 110.391 -0.725945
2.23037 114.138 -0.768275
-5.16507 90.768 -2.32466
1.04656 106.98 -0.19987
2.06373 119.681 -2.34264
1.19763 110.018 -0.81357
4.90816 145.887 -6.03847
-11.296 115.539 -14.5784
-3.82663 108.055 -5.33
1.13024 118.716 -3.06249
-6.14128 96.4823 -4.77244
-10.9241 89.9465 -7.918
2.6112 119.671 -1.87246
10.7263 150.132 -1.38554
-2.66945 92.6788 -0.416517
-0.238103 104.761 -1.0221
8.91704 116.043 5.24357
13.5573 143.069 3.13255
-7.47287 97.7794 -6.49373
9.26224 117.783 5.0985
-6.3125 96.5778 -5.0946
1.03842 95.5119 2.45558
2.14948 115.591 -1.43243
-13.8434 106.077 -14.9318
-0.23176 105.037 -1.18072
-1.33458 92.5642 0.785687
0.535651 110.876 -1.91445
0.647414 93.4206 2.52035
-1.11497 92.5591 0.969052
1.62509 114.083 -1.66219
-0.0226226 109.103 -2.06533
-14.7237 86.5618 -11.0623
1.43192 117.745 -2.81433
0.0674117 106.76 -1.44579
-13.7408 107.887 -15.435
2.21797 117.278 -1.947
0.372265 111.527 -2.36125
-15.8231 83.8797 -11.5646
-3.90863 91.4594 -1.64814
-5.93301 126.499 -12.3509
-0.625417 109.24 -2.80959
-0.654689 108.696 -2.70852
-5.87729 97.0466 -5.00372
-11.869 113.04 -14.948
-0.346728 110.637 -2.9368
-7.54463 96.4248 -6.5532
0.213657 115.081 -3.49011
-1.80444 111.197 -4.55059
-0.710265 109.699 -3.10505
0.330147 112.243 -2.70734
-6.23531 125.781 -12.5779
-5.11212 127.583 -11.9157
-1.38962 107.662 -3.32138
0.718358 115.689 -3.22825
-11.8097 89.0732 -9.05172
-4.92344 98.547 -4.57902
5.89065 146.888 -5.85247
7.63712 149.597 -4.80306
-0.468709 111.237 -3.34881
-0.753639 110.328 -3.41318
-16.2732 81.8202 -11.7672
-0.0146735 114.209 -3.68433
0.719573 114.722 -3.09374
-13.9521 88.2952 -11.0868
-10.5171 88.7224 -7.83221
-1.53776 108.265 -3.81807
9.38751 116.601 4.90336
-6.86514 124.23 -13.1108
-1.09957 110.574 -4.02113
13.4095 150.676 0.415835
-1.16646 133.949 -9.89597
-12.9419 109.012 -15.4609
-10.4598 88.5424 -7.94195
-14.2916 92.8271 -12.8639
-11.6856 112.033 -15.0549
-2.55873 103.993 -4.02151
-9.04246 87.7857 -6.44049
13.9524 142.145 2.86576
2.96247 141.772 -7.94796
7.48247 148.555 -5.15762
-2.63811 103.824 -4.09936
4.19353 96.7363 4.41451
-12.0571 103.188 -13.3561
-6.46163 124.423 -13.0875
2.90861 141.501 -8.08138
-11.0441 112.87 -14.8853
-2.80298 105.81 -4.97703
-6.56313 88.7274 -4.46939
-2.75044 105.936 -4.96144
-9.75186 88.0645 -7.49267
-10.677 113.981 -14.84
-0.415464 134.74 -9.81666
-15.7575 87.0733 -13.2046
14.6787 148.314 1.77077
-17.8713 84.4722 -14.6688
-13.7366 90.2206 -12.0177
-15.6573 81.9063 -11.8927
-12.5265 88.9589 -10.5425
-3.44934 101.913 -4.76275
-11.7025 86.805 -9.20829
-10.3662 88.1057 -8.21464
11.5268 132.995 2.30833
10.6043 149.7 -2.75566
11.6352 134.349 2.07298
-11.9659 101.505 -13.2655
-11.2501 87.1132 -8.99012
0.143133 91.353 1.25283
-1.08788 91.535 -0.0757207
-14.4525 84.9322 -11.7107
12.3222 135.47 2.26719
-16.8104 81.7778 -13.3077
-7.19879 87.9789 -5.32531
13.1981 147.368 0.165899
-11.9043 105.119 -14.2508
-11.1441 86.9927 -9.01445
7.70796 106.787 4.70654
-2.70002 129.06 -11.1429
9.39124 118.967 3.27897
6.00554 99.2864 4.74991
-12.4023 108.02 -15.6672
3.72457 94.8659 3.50022
10.1326 126.24 2.06615
2.11069 92.188 2.52268
-4.85051 89.383 -3.76357
-13.1697 87.6784 -11.6299
13.2381 137.514 2.11861
-2.28991 128.441 -11.0297
13.0558 146.44 -0.299147
7.82746 105.431 4.68193
13.3973 146.562 -0.00265933
12.1923 147.96 -1.57794
7.66079 147.915 -6.06739
10.0388 125.684 1.75626
9.49907 112.989 4.36895
-11.6765 109.158 -15.6839
-9.52932 115.156 -15.0485
2.6838 139.693 -9.05624
4.96125 143.777 -7.81306
-1.48359 129.483 -10.7127
-16.4028 83.5065 -14.1178
10.0926 117.153 3.79435
9.93815 115.504 4.04553
-0.747235 90.7496 -0.409725
7.97288 148.14 -6.02527
4.02901 93.5706 3.54356
15.0985 141.263 2.6845
-10.7988 85.6699 -9.20905
14.0552 148.356 -0.156536
-11.4796 109.091 -15.734
15.5957 143.799 2.49852
4.29707 142.447 -8.36844
10.68 126.783 1.84134
7.25906 100.753 4.89787
10.016 147.23 -3.91587
-10.9517 102.888 -13.7374
12.1793 146.057 -1.5171
-4.21148 125.111 -12.5929
-5.73045 122.48 -13.4768
10.8 145.078 -2.71608
-12.9293 86.305 -11.6712
12.3938 147.392 -1.72367
10.8466 144.95 -2.6526
3.59525 140.917 -8.86714
11.273 146.127 -2.5572
12.3164 146.707 -1.67343
10.0493 120.403 2.57295
-12.2949 85.5146 -10.9549
-0.0946175 90.367 -0.10112
-12.3295 95.8145 -13.5877
3.72798 92.2477 3.19626
-3.48015 125.535 -12.2163
10.0745 117.215 3.26109
9.97221 147.017 -4.27568
9.20906 109.427 4.27715
5.49874 143.999 -7.97705
-3.61196 125.029 -12.348
11.6263 129.91 1.53626
11.0921 127.904 1.45741
14.041 147.099 -0.428603
-11.1221 100.7 -13.879
0.528811 133.927 -10.5846
1.21625 89.7711 1.03905
-12.7109 80.8416 -10.5702
0.847133 134.665 -10.4868
-12.8704 80.6329 -10.7287
-12.6139 80.4808 -10.4475
9.44205 109.906 4.10019
-5.21692 121.75 -13.3803
-4.48918 123.424 -13.1306
12.5046 131.846 1.5801
10.8695 143.241 -2.87012
-0.603251 129.521 -10.8536
6.22495 144.506 -7.83757
-7.58158 116.173 -14.5008
-4.49037 123.223 -13.1851
13.3289 143.597 -0.647489
-6.93956 116.873 -14.1304
-12.1847 91.8474 -13.1237
5.55725 93.4129 4.02344
12.3613 142.91 -1.51837
-4.73719 88.274 -4.96623
5.75791 93.6617 4.04819
-10.338 109.697 -15.8948
12.843 142.859 -1.16927
-9.06034 112.955 -15.4828
-11.1947 98.6591 -14.0797
-14.1022 80.671 -12.5229
12.095 130.204 1.14559
-5.63961 87.4325 -5.84682
6.76485 144.759 -7.83078
12.0289 129.924 1.05876
5.05404 91.4292 3.6798
10.9147 140.508 -2.73942
8.77347 105.358 3.85291
-10.1401 83.8299 -9.57164
11.2481 127.986 0.664095
-3.53438 123.077 -12.7919
9.69223 117.29 1.75449
16.2802 140.364 2.56114
-9.33328 84.6588 -9.02
-11.8917 92.6649 -13.5478
9.68886 118.154 1.51831
3.41096 88.7454 2.58071
-6.70215 115.814 -14.1705
-9.75544 106.016 -14.792
8.38927 125.973 -1.75739
14.8094 147.86 -0.829797
-11.4557 96.4681 -14.1808
-13.5349 80.7352 -12.384
-7.62781 114.365 -14.8695
3.58214 138.893 -9.88556
9.71891 108.509 3.72403
-12.5247 84.03 -12.2725
15.4801 147.136 -0.187028
-9.80871 108.636 -15.7117
3.77205 139.024 -9.79644
6.5451 143.626 -8.19505
13.3095 142.599 -1.24283
9.61002 146.44 -5.87576
6.00533 92.6368 3.86113
-0.698209 127.978 -11.586
4.13799 88.8431 2.91203
-11.0304 88.9691 -12.1627
-5.16965 118.975 -13.7999
2.93274 88.0686 1.84103
-12.9494 81.8039 -12.3794
-11.6633 85.8129 -12.106
-11.4519 80.2374 -10.5292
7.40962 96.9913 4.01064
9.79344 145.904 -5.76672
13.4192 142.641 -1.38474
7.73991 144.945 -7.59552
16.8139 141.924 2.14824
7.71923 125.76 -2.87398
10.5831 144.9 -4.78583
16.3417 139.66 2.18735
10.2312 139.704 -3.91113
12.6074 140.956 -1.87273
-8.8017 84.1934 -9.02461
-10.9484 97.1949 -14.3949
-0.83848 126.892 -11.7374
-11.33 93.4705 -13.8764
3.64286 137.552 -10.0019
-11.1615 90.5115 -13.0211
8.68117 126.338 -2.23845
10.4662 141.456 -4.24331
5.23932 140.048 -9.09078
6.92438 128.566 -4.57433
0.936743 88.1141 -0.488007
10.7533 114.545 2.6826
-9.51009 83.0985 -9.62646
2.94863 87.0279 1.74436
-4.72704 119.6 -13.9554
9.31294 105.951 3.3427
2.60265 87.0233 1.36555
-5.10225 117.248 -13.783
0.908398 131.154 -11.2777
1.46824 133.065 -11.2216
11.1736 122.422 1.02838
14.8947 144.983 -0.880302
6.59837 127.501 -4.7943
9.91726 107.555 3.41363
9.55657 106.826 3.23199
9.48189 143.329 -5.90396
5.22888 89.3685 3.22352
10.9627 124.54 0.175946
8.86005 143.641 -6.65151
8.55666 123.279 -1.9241
-5.18705 116.239 -13.8051
-1.87521 123.209 -12.2523
6.95104 125.124 -3.98012
-6.80763 113.318 -14.7193
-2.3253 87.3641 -3.84153
-4.38607 120.181 -14.0328
10.8449 120.64 0.946458
-9.02479 104.035 -14.6347
-0.548683 126.636 -11.8476
3.51575 87.0283 1.93128
5.46042 138.803 -8.98671
-7.48043 112.423 -15.3069
-4.50445 119.001 -13.9939
2.5491 133.708 -10.6663
10.2513 142.529 -5.22213
1.128 87.1663 -0.539398
10.8504 120.364 0.85013
10.8488 112.012 2.90198
1.22462 131.369 -11.4513
-1.7838 86.967 -3.45379
3.59166 135.587 -10.1891
-7.49812 84.5073 -8.5375
10.3475 136.366 -3.71768
10.3288 140.914 -4.90905
10.4346 141.463 -4.94233
8.6345 123.363 -2.25812
6.9583 124.922 -4.31957
3.78579 135.586 -10.132
8.67231 123.565 -2.30958
8.84249 124.037 -2.30999
15.1339 135.714 1.01631
-9.61968 82.1004 -10.234
-6.91435 84.959 -8.26645
8.03653 130.961 -4.86692
10.3041 137.027 -4.12386
-8.69082 104.233 -14.8238
1.75632 86.1023 0.0276885
-6.43392 85.5511 -7.96623
7.79507 130.732 -5.08062
17.4887 141.828 1.77454
6.63031 125.787 -5.04358
-4.36156 117.902 -14.0049
11.0068 112.763 2.44331
-2.26077 86.4908 -4.20182
-10.2043 81.5146 -10.8615
10.1206 137.475 -4.60689
-11.0978 82.2664 -11.9908
8.84365 123.942 -2.55918
11.313 124.143 -0.164961
-4.27089 86.3287 -6.27138
17.5403 140.902 1.80505
14.1346 131.541 0.746912
12.804 128.99 0.0470734
16.4361 138.019 1.40557
13.026 140.507 -2.59996
-10.1209 90.2128 -13.0778
-9.87689 89.3837 -12.6544
14.1771 131.386 0.75014
8.78218 129.119 -4.06236
-10.9831 82.8296 -12.1916
-9.4342 99.7986 -14.8745
-11.6426 79.5114 -12.0431
6.88213 128.104 -5.75489
8.21981 122.71 -3.10486
-1.94348 85.989 -4.10441
6.82217 124.973 -5.09423
-9.72275 97.7594 -14.7497
11.7833 126.299 -0.54704
7.58368 130.005 -5.66358
-10.6456 78.8831 -11.118
0.145351 125.915 -12.1065
1.13561 129.632 -12.06
4.92948 86.8635 2.29813
9.74594 133.817 -4.58491
5.04373 135.545 -9.68204
5.96556 88.2751 2.93784
9.10708 100.314 3.055
1.43148 85.0882 -0.811606
8.95987 123.014 -2.76461
-8.09986 81.9378 -9.55089
10.5003 134.534 -4.16792
-0.44094 123.271 -12.2603
-6.6777 110.932 -15.3846
13.5436 128.844 0.209467
8.47354 126.662 -4.32703
9.19184 126.717 -3.66284
14.7229 132.214 0.456542
-7.84645 108.864 -16.1447
5.87243 136.534 -9.41244
-1.07701 122.164 -12.7429
17.9387 143.868 0.704595
10.5127 136.584 -4.86772
12.5141 128.26 -0.823596
5.1009 134.879 -9.82386
9.36899 141.038 -7.13745
16.7352 137.396 1.04025
-5.0682 85.216 -7.63481
-4.11067 85.1462 -6.72077
-9.31643 81.2719 -10.9483
9.57879 128.777 -4.00462
11.9287 137.194 -3.76799
9.6116 133.317 -5.13019
-7.82715 105.232 -15.4562
-4.46216 113.654 -14.2229
-4.81571 84.985 -7.46398
6.71486 127.39 -6.55689
1.74983 83.9879 -0.738093
9.60887 139.521 -6.7324
12.0094 123.945 -0.491371
17.0031 137.661 1.05537
9.68815 123.072 -2.65605
-9.30399 90.4617 -13.3976
-4.94839 112.111 -14.4507
10.163 133.434 -4.76832
16.5023 145.222 -1.41189
14.3283 128.843 0.482437
10.4256 136.811 -5.37959
9.06398 127.438 -4.40847
9.57044 139.773 -6.9812
14.4067 128.862 0.519396
10.3009 134.746 -5.03185
7.28087 139.236 -9.16491
-4.59966 84.589 -7.39587
3.95881 84.1065 1.15809
1.21292 83.9214 -1.52784
-8.7411 93.3252 -13.7757
-6.91683 108.982 -15.8548
-9.71083 84.0886 -12.4621
-8.64364 96.0048 -14.3602
1.91483 83.4078 -0.770111
10.3262 104.549 2.3167
-8.01381 101.644 -15.1854
14.054 141.837 -3.30156
6.12823 135.712 -9.6527
10.0026 133.728 -5.3233
6.79581 125.178 -6.38266
9.89299 123.225 -2.83144
0.708411 83.9916 -2.22966
16.6513 135.942 0.688797
6.83043 127.815 -7.06591
-2.88769 84.2312 -5.90074
2.18484 82.9946 -0.586418
2.07874 83.0482 -0.712296
9.84779 124.455 -3.29765
8.45827 94.5358 2.72505
10.7235 133.678 -4.76458
11.972 121.879 -0.607632
12.3485 123.162 -0.566726
-7.07792 107.803 -16.0183
2.6203 82.5711 -0.170196
-8.39979 88.8829 -12.6786
17.373 137.238 0.87976
14.1203 128.168 -0.100911
18.3867 141.101 0.91215
6.83696 126.363 -6.90745
7.8348 139.49 -9.17516
9.18028 97.9419 2.43437
8.55271 94.6138 2.63656
-7.30993 80.9096 -9.70558
-7.52647 82.1019 -10.2797
-7.29435 105.539 -15.8721
18.3746 143.058 0.25108
8.40165 91.8678 2.98396
-7.88003 100.319 -15.2729
-6.48985 81.375 -9.21036
9.1276 126.707 -5.01756
9.76752 112.668 -0.933616
10.2425 101.57 2.2695
10.1833 132.058 -5.38276
6.97382 125.664 -7.00321
-7.42163 94.5502 -13.5713
8.55392 131.989 -7.02478
8.09279 131.066 -7.26232
10.1617 121.314 -2.79945
0.5294 83.0544 -2.88569
-7.19628 103.103 -15.519
-1.19424 120.229 -13.8501
6.7319 86.5261 2.35061
9.43689 128.058 -5.28796
-4.01705 83.2236 -7.5114
-7.70585 78.2004 -9.93238
-7.93019 92.085 -13.6395
9.64203 128.254 -5.25964
-0.845596 82.994 -4.43312
11.0453 134.508 -5.42159
9.23009 132.193 -6.74801
-5.86599 80.9724 -9.06596
7.31073 136.053 -9.68094
-4.55854 82.8114 -8.26164
-8.23251 77.8207 -10.6951
-8.15987 86.3902 -12.7497
14.0963 127.224 -0.841428
0.848259 82.1451 -2.79908
18.3331 137.442 0.802917
2.63517 128.896 -12.665
-6.31082 78.2183 -8.97328
-7.26432 92.8361 -13.5567
9.05671 127.912 -6.09135
-2.91304 114.007 -14.5318
13.9313 140.07 -4.32481
12.5652 123.247 -1.52111
9.76927 99.0657 1.69747
7.48768 128.853 -7.9549
-1.2611 82.429 -5.12171
16.6045 132.28 0.204251
-6.98451 100.431 -15.3041
9.61972 98.6857 1.58374
7.69994 129.29 -7.91429
11.3625 124.074 -2.99271
11.2386 105.191 1.56267
2.05184 126.847 -12.9227
9.08813 127.987 -6.24376
-7.02406 98.6456 -14.9805
1.61745 125.272 -13.025
11.4845 108.183 0.947111
10.3223 132.718 -6.29095
2.74306 128.449 -12.7565
-4.71047 81.6351 -8.53702
6.94593 134.548 -10.1157
15.8159 129.619 -0.131727
8.11523 88.6134 2.3838
-7.40763 91.1249 -13.6607
10.0251 121.139 -3.83185
-6.22355 79.3662 -9.59854
11.4087 106.946 1.04046
7.15794 134.725 -10.0846
11.7267 135.93 -5.89905
14.0379 124.343 -0.737752
-6.96948 77.6156 -9.98283
11.8024 124.738 -3.06714
10.7042 128.205 -5.01633
10.5998 131.22 -5.87957
7.76249 128.545 -8.03128
8.26389 88.8982 2.27795
13.7758 124.349 -1.05118
10.8211 105.135 0.784729
13.6332 124.09 -1.13473
2.2478 126.494 -13.0544
12.9687 137.891 -5.25894
-6.38746 102.999 -15.7961
14.2165 140.597 -4.69889
8.39527 137.793 -9.78354
12.2819 121.838 -1.97799
-5.84693 105.56 -15.9142
16.8614 131.617 0.136623
-7.04324 84.2636 -11.8333
15.5572 126.459 0.0911592
8.46498 137.943 -9.78947
-6.90267 77.4973 -10.0497
7.91397 135.836 -9.83365
10.8846 120.783 -3.17057
11.1009 103.78 1.25634
12.4076 123.076 -2.27735
9.63692 95.0043 1.92339
18.8456 143.688 -1.02316
8.49834 128.869 -7.63054
12.701 122.747 -1.95973
-7.12908 86.8179 -12.7238
9.39245 137.377 -8.89487
11.1961 132.218 -5.84494
19.057 141.65 -0.396639
-7.02103 87.5033 -12.8301
-5.38197 84.487 -10.4609
8.93561 90.7599 2.13706
-6.46045 77.4001 -9.84508
4.55931 130.651 -12.1337
19.0343 140.205 -0.163089
7.72797 127.119 -8.12869
-4.12621 81.036 -8.47634
11.2097 110.542 -0.635759
10.0471 111.621 -2.07294
13.5455 138.715 -5.34653
9.34627 128.258 -6.94315
14.8299 124.091 -0.477677
16.7112 142.599 -3.20761
15.8944 141.637 -3.80661
10.3583 123.354 -4.76546
8.47152 113.024 -4.15737
10.2777 101.818 0.409975
-1.01161 80.8661 -5.58727
7.83752 124.088 -7.54559
10.4179 123.881 -4.96015
2.18143 122.478 -12.7872
9.52274 125.633 -6.29806
9.27273 129.654 -7.565
9.74331 136.826 -8.88417
10.5179 106.926 -0.713202
9.21935 91.1453 1.90226
-5.455 96.6702 -14.0878
-4.72238 80.4981 -9.35847
-2.79154 110.684 -14.9322
-5.36927 103.504 -15.7194
9.0991 112.133 -3.52769
-0.0851703 80.4761 -4.78184
10.2409 131.931 -7.3186
2.37142 122.712 -12.8343
12.2077 120.81 -2.62242
8.23943 126.462 -7.96286
19.3093 140.311 -0.44683
18.6656 143.402 -1.88041
-5.42265 98.1192 -14.5687
-4.50798 79.3498 -9.00889
-5.07088 104.014 -15.6985
10.5323 104.795 -0.432242
-1.9735 112.238 -14.6781
7.15427 126.212 -9.10501
10.6009 135.393 -7.96866
2.04948 121.709 -13.0588
10.2267 128.58 -6.67665
-5.41774 99.4972 -14.9743
-0.728652 116.638 -14.5942
6.49177 118.892 -8.00252
7.1574 114.355 -6.22744
0.908799 79.8718 -3.88372
10.2361 128.715 -6.76206
18.2168 132.664 0.145218
-6.22989 90.4015 -13.6117
8.53347 87.9026 1.59718
1.19426 79.6768 -3.64427
-1.9841 111.496 -14.6973
-1.648 112.38 -14.5853
-3.83079 106.829 -15.3771
-4.9582 98.1489 -14.3577
11.0521 130.528 -6.5263
-4.64531 95.7427 -13.4633
-3.01382 108.566 -15.0304
4.1246 128.492 -12.9197
11.9002 135.101 -6.86153
5.69529 131.165 -12.0407
-4.12492 80.4039 -9.19873
11.3231 131.428 -6.5426
11.4144 109.177 -0.935462
-4.98041 87.7798 -11.8954
8.20484 134.275 -10.3582
0.340047 79.7283 -4.63839
7.97119 113.732 -5.53823
-6.16912 87.7978 -13.1282
16.0196 124.763 -0.32496
10.276 96.3402 1.02001
4.83354 129.654 -12.6398
-5.7497 91.1422 -13.5943
11.9251 134.994 -6.95301
9.41304 125.632 -7.12186
-2.60299 108.763 -14.861
2.23312 121.206 -13.1629
13.0539 120.987 -2.40587
-3.38303 78.6661 -8.23302
-3.25 107.026 -15.1363
1.35515 79.4183 -3.72626
11.1626 132.856 -7.26244
-2.58576 108.492 -14.8574
9.49993 136.51 -9.82826
-3.82063 83.6698 -9.94089
12.5661 122.192 -3.25932
18.7772 133.416 0.114126
12.2009 120.041 -3.15162
10.7486 108.075 -1.62452
-3.54102 79.7666 -8.77278
9.20842 122.261 -6.70953
11.7682 120.575 -3.77157
5.56172 130.436 -12.3978
11.0181 123.181 -5.19945
-3.05559 80.0877 -8.47268
7.95676 124.899 -8.69194
-5.45428 76.5755 -10.0247
6.31073 122.583 -9.79587
9.43742 105.329 -2.44348
10.5758 134.398 -8.53626
-3.05303 106.145 -15.0434
0.477989 79.3123 -4.90147
9.29281 105.393 -2.66272
10.6393 132.558 -8.06982
1.8316 119.089 -13.4673
15.3843 139.416 -5.08382
-2.31628 107.242 -14.6791
10.204 97.6735 0.107023
6.72816 81.1463 0.7477
8.60122 112.657 -5.21913
-2.80913 78.967 -8.17694
10.0493 92.1878 1.28082
-4.29846 102.072 -15.3969
-1.59629 79.5922 -7.17342
9.32471 122.266 -6.94806
10.105 101.117 -0.972015
-2.69197 79.2538 -8.24715
-2.45623 78.5722 -7.85891
9.88275 106.328 -2.51561
-4.13539 101.791 -15.2944
-2.62785 79.2661 -8.22471
-3.84809 99.1936 -14.3971
12.3485 135.793 -7.42513
10.2777 111.034 -3.36349
-2.66505 105.698 -14.872
7.52168 122.556 -8.96215
-3.13092 83.5432 -9.85601
8.4164 123.465 -8.35228
1.90529 78.9142 -3.76182
-4.65666 89.4773 -12.9061
6.98642 125.597 -10.356
4.10078 79.4557 -1.78968
-3.61044 94.2979 -13.1287
6.68313 119.868 -9.2716
-3.54696 88.9995 -11.7729
-4.73117 89.6503 -13.1095
6.71502 119.791 -9.26385
13.1981 120.321 -2.97824
9.06497 104.655 -3.19917
-2.86684 104.815 -15.0876
-2.53112 79.3129 -8.44775
12.6851 119.792 -3.414
-2.31741 81.2902 -8.74669
-2.84113 79.0108 -8.72357
8.72049 127.624 -9.34919
11.945 117.845 -3.75204
10.4378 120.872 -6.02984
8.7292 112.381 -5.62576
11.0699 124.421 -6.30643
-1.65696 77.4725 -7.28667
-3.32777 102.65 -15.1879
8.65202 129.113 -9.88657
10.3202 124.107 -6.99113
10.999 116.624 -4.46573
10.5865 124.36 -6.80181
10.4007 122.922 -6.6574
10.8281 108.676 -2.70391
7.23654 81.9114 0.363669
19.3402 133.287 -0.389144
8.53488 119.649 -7.72484
-3.13656 94.5453 -13.0714
8.7082 133.183 -10.9192
3.45564 122.253 -13.4226
6.79686 123.483 -10.4213
10.1188 107.714 -3.22562
20.1793 139.848 -1.22351
11.4464 123.537 -5.85487
10.2292 101.11 -1.53588
-1.23049 106.417 -14.2138
4.58243 126.301 -13.4076
10.7677 109.011 -3.01095
-3.12388 76.4169 -8.70269
12.2285 120.425 -4.39984
8.08302 105.498 -4.82191
-3.02475 102.332 -15.0695
12.1451 118.102 -3.94213
7.27403 80.6258 0.516485
6.37243 80.373 -0.314828
19.4925 133.452 -0.474375
8.7122 127.148 -9.60939
1.57093 78.4222 -4.64843
7.72247 83.2017 0.256108
12.0049 119.486 -4.51906
10.6257 94.1054 0.399043
9.68374 107.703 -3.91472
4.16944 124.862 -13.6451
5.50061 127.774 -13.0541
5.4279 127.62 -13.091
14.9748 137.958 -6.19386
-0.939521 106.782 -14.2463
16.5671 123.653 -1.07772
7.81034 126.472 -10.4739
7.40001 80.8681 0.410072
19.2013 131.59 -0.482716
3.41998 78.6864 -3.00823
10.0991 117.025 -5.90384
10.4072 99.6775 -1.34447
-1.4014 77.051 -7.44543
-2.55343 90.1374 -11.8425
10.5696 92.8858 0.454302
-0.747359 81.9306 -8.05203
-2.97012 90.5564 -12.3986
3.55386 120.212 -13.3216
10.0349 129.671 -9.28719
10.6521 93.4886 0.292027
10.6405 93.3589 0.309884
7.53625 105.729 -5.86498
14.6706 137.415 -6.65765
10.2864 118.003 -6.25202
7.07637 129.974 -12.4108
7.30832 130.35 -12.2773
-1.8579 84.4322 -9.98681
10.1998 118.157 -6.40142
-0.525623 77.9765 -7.11698
1.9528 114.895 -13.8506
12.0297 118.962 -4.87065
19.3242 130.9 -0.608831
11.3172 132.308 -8.91428
10.1457 90.021 0.394814
-2.10147 95.1592 -13.0474
11.1722 120.462 -6.17204
20.2541 139.911 -2.05494
-0.26426 77.6048 -6.946
18.0967 139.926 -4.21272
3.98333 120.453 -13.444
-0.867695 104.323 -14.2529
-1.99262 91.799 -12.2872
20.0739 135.216 -1.18843
4.32972 123.507 -13.8936
6.52162 80.1732 -0.977639
-0.304641 80.716 -7.90127
2.51214 77.8008 -4.41172
14.6988 136.842 -7.02063
17.5379 123.995 -1.03032
-2.0412 94.3265 -13.0862
18.4192 128.279 -1.24194
3.04174 117.727 -13.8817
0.0352366 84.1684 -8.54732
9.65288 84.4692 0.868693
-1.03274 90.9127 -11.3371
5.1294 124.781 -13.6392
-1.50129 100.937 -14.3014
8.79862 124.661 -10.0104
7.02236 104.769 -6.84078
18.3516 127.819 -1.34862
7.79438 128.863 -12.0973
-0.988512 89.4201 -11.0274
7.78783 113.021 -8.18105
8.99021 108.256 -5.80843
18.8676 128.776 -1.13869
4.40309 122.832 -14.0174
7.47307 103.288 -6.14633
-0.945604 87.5009 -10.5834
11.8377 130.864 -8.6908
8.43766 107.786 -6.34106
11.6708 130.374 -8.75011
7.45097 125.341 -11.7083
11.3459 128.661 -8.68247
2.4466 114.025 -13.9082
-0.79437 89.5597 -11.0634
7.15279 79.6349 -0.737925
1.1947 77.6812 -6.20449
2.07575 113.603 -14.2492
0.721133 78.2118 -6.81955
10.6886 97.0968 -1.65092
12.0344 119.102 -5.778
0.785154 81.061 -7.52554
-0.0823093 103.772 -14.0438
7.38349 124.625 -11.8546
10.6076 98.2695 -2.12381
7.09304 79.7106 -1.13011
0.434608 98.1117 -12.3086
1.59205 112.36 -14.7143
0.277931 99.5214 -12.8335
6.77131 114.413 -10.0925
0.174394 76.128 -7.1383
18.6382 125.157 -1.02132
0.023766 75.97 -7.28859
11.9312 119.365 -6.25015
10.0837 100.764 -3.47187
3.55652 117.353 -14.0687
8.91797 108.632 -6.59088
6.36825 115.882 -10.9406
0.33881 99.9705 -12.9739
8.10683 122.237 -10.8011
6.94404 101.597 -6.84416
17.1857 123.45 -2.12929
7.32768 120.201 -11.1197
6.77404 104.097 -7.68671
0.110804 100.925 -13.5076
7.05525 119.392 -11.2273
5.0027 120.877 -13.672
4.38355 78.265 -3.74307
7.79858 112.629 -8.88552
10.886 92.737 -0.911422
-0.167251 89.2075 -10.9951
0.0829001 91.6016 -11.3702
8.89385 123.915 -10.6704
10.6916 95.9929 -1.97607
9.2251 109.182 -6.71098
7.09949 119.61 -11.4255
9.75782 99.326 -3.76191
9.61257 81.9855 0.39366
7.20037 123.251 -12.2441
11.5037 120.444 -7.28419
7.32502 120.302 -11.3923
13.8886 133.526 -8.19804
4.20329 117.979 -13.9574
1.07358 98.178 -12.1685
0.00565196 88.7104 -10.8843
9.30171 124.509 -10.5899
6.64524 104.285 -8.20988
6.31631 103.462 -8.36073
6.45766 103.869 -8.34475
7.33316 125.16 -12.7694
9.03846 123.419 -10.6733
0.436447 92.567 -11.5503
1.88254 84.8596 -8.21945
19.6675 136.028 -3.31641
6.91957 114.607 -10.6432
0.304143 102.361 -14.1684
10.3272 97.929 -3.18146
9.1303 80.4395 -0.0615876
8.92557 122.535 -10.7071
7.22558 108.372 -8.92169
3.57214 83.2485 -6.31796
10.9402 89.5564 -0.58395
19.4322 130.509 -2.32409
1.51199 107.293 -14.3619
6.50299 104.294 -8.6897
1.18639 105.763 -14.3289
12.7658 118.172 -5.92969
5.56753 121.116 -13.7991
17.1618 137.299 -6.3487
8.5516 109.178 -7.91462
2.18778 85.5972 -8.38699
20.5698 135.645 -2.5882
3.46835 113.737 -14.1115
13.2999 118.313 -5.51553
6.52395 118.399 -12.2622
3.63523 82.1563 -6.16107
2.73142 79.7961 -6.47215
0.724857 90.8061 -11.2149
18.957 128.815 -2.6042
9.67085 120.05 -9.65103
2.91738 109.064 -13.6285
10.2246 126.476 -10.7122
8.14937 110.705 -8.89979
18.9329 127.545 -2.3924
14.6942 133.006 -7.99091
2.49684 77.6494 -6.35713
18.5311 137.321 -5.29574
19.3922 135.317 -4.01733
9.54865 97.1715 -4.31661
10.4908 92.4681 -2.25611
20.3826 135.127 -3.03167
4.97874 115.508 -13.4458
1.54726 102.338 -13.5945
8.45252 122.878 -11.8521
7.64787 111.597 -9.85703
4.63044 114.902 -13.6729
1.84294 105.007 -14.0125
9.83932 89.1045 -2.14235
18.4924 128.223 -3.26688
3.69663 109.277 -13.2609
8.18867 92.9019 -4.74659
16.5199 135.885 -7.14979
10.5554 95.1837 -3.00138
17.3596 136.564 -6.52534
4.6578 84.2377 -6.14363
8.93252 121.021 -11.0531
7.78427 92.4863 -5.12845
18.4273 128.096 -3.41031
19.7228 131.027 -2.87257
18.7 128.813 -3.33759
2.36207 97.92 -11.8771
6.13226 117.538 -13.0149
19.0706 135.865 -4.73393
14.1773 130.908 -8.35809
10.9386 121.443 -9.2349
1.72495 75.2483 -6.92864
1.80537 91.7496 -10.952
18.8653 129.209 -3.33465
3.32709 107.375 -13.3426
8.71365 76.6592 -0.391839
5.05271 84.2016 -5.89474
3.82686 108.2 -13.0639
1.87523 90.9858 -10.7763
5.70409 92.9646 -7.50396
2.77057 99.2881 -11.9867
6.55676 107.497 -10.2854
17.8112 136.355 -6.28532
6.78562 91.3045 -6.04597
8.77323 97.1605 -5.5302
7.28595 93.7974 -6.17818
5.58749 102.348 -9.98871
4.87182 113.926 -13.5794
10.7518 87.0209 -1.08984
6.65737 108.272 -10.425
9.97159 92.1896 -3.16508
9.8094 90.9914 -3.05171
6.31387 91.1899 -6.59958
2.92514 91.8605 -10.1408
5.18793 100.507 -10.0452
7.30263 98.3996 -7.44205
2.26065 103.748 -13.7956
7.64187 90.7933 -5.25019
8.84855 96.75 -5.58409
4.48072 90.4997 -8.40932
3.70936 89.9015 -9.04123
7.01746 98.5376 -7.90716
6.54713 110.031 -11.24
16.7869 135.061 -7.30021
19.3397 129.939 -3.5134
3.15157 94.6559 -10.8301
19.999 134.702 -4.0635
5.28327 101.568 -10.4539
18.868 124.117 -2.58756
5.75957 88.0798 -6.65753
5.59726 88.8665 -7.02995
16.4825 119.744 -3.89801
3.78262 93.1485 -9.90058
5.1036 90.4335 -7.93071
2.76316 103.628 -13.5389
5.87296 112.145 -12.6277
4.24602 88.9923 -8.53477
6.10441 115.632 -13.3078
11.6847 119.23 -8.66829
5.95738 116.411 -13.6525
16.2712 133.873 -7.76358
7.06262 88.8248 -5.7351
3.31115 95.3022 -11.0619
11.391 119.836 -9.16185
6.00854 118.414 -14.1634
5.96736 116.881 -13.872
10.2851 85.5916 -1.8723
8.1738 89.782 -5.01907
14.3932 127.95 -8.32472
5.88184 117.518 -14.1989
10.1869 79.4968 -0.534726
7.25395 82.58 -4.21183
3.41843 96.0953 -11.3694
6.058 98.897 -9.46402
3.59655 103.876 -13.1423
10.4181 81.4969 -0.853673
5.33019 102.878 -11.2025
5.27558 110.762 -13.2142
5.14566 99.4683 -10.55
5.17891 77.433 -5.06058
9.54444 124.513 -12.427
8.85106 89.9509 -4.54663
15.8182 118.421 -4.70874
6.70349 96.5664 -8.39157
7.3403 82.1397 -4.18709
18.422 124.417 -3.68962
4.41887 105.173 -12.8317
6.16666 95.3355 -8.66605
19.411 134.101 -5.15617
6.24672 110.346 -12.3177
5.75507 108.748 -12.4224
9.76285 86.9086 -3.03796
15.6022 118.567 -5.10288
4.91646 95.1116 -9.89959
12.8157 127.049 -9.99067
8.90707 121.276 -12.4405
7.05537 113.549 -12.3649
6.18845 109.157 -12.1612
9.22785 87.5047 -3.78969
6.24617 78.6183 -4.56207
5.59111 106.926 -12.254
5.95634 96.8011 -9.38534
4.79885 103.553 -12.2257
6.47424 116.617 -13.8096
5.73901 98.5949 -10.0771
8.87923 76.4638 -1.48114
7.09275 113.885 -12.5347
19.0511 122.338 -2.77712
7.96512 83.8984 -4.27714
4.05086 100.14 -12.1886
10.3708 125.101 -12.1178
4.28867 98.1459 -11.4634
9.50628 86.2185 -3.36926
16.9218 120.154 -4.44419
4.00607 101.752 -12.6933
11.737 119.285 -9.38528
11.9099 119.66 -9.32107
11.5134 119.659 -9.71459
6.83434 79.4771 -4.44038
7.07774 114.506 -12.8991
8.48808 83.9527 -3.95575
10.0287 81.1153 -1.79531
7.13724 79.9345 -4.3816
17.8944 132.637 -6.8187
9.06984 85.535 -3.90303
12.4207 126.623 -10.7754
5.0449 98.4832 -11.1572
9.20191 121.856 -12.8666
5.66453 75.9775 -5.01847
7.50166 77.5346 -3.73803
15.1568 127.165 -8.50972
9.14892 82.5832 -3.40914
7.873 79.065 -3.82776
7.52968 78.4832 -4.05298
6.60712 75.6108 -4.28157
9.68365 123.546 -13.1309
18.1393 124.761 -5.06831
7.96752 73.9302 -2.58025
8.85333 81.2619 -3.5659
7.81734 74.5287 -2.95466
9.87277 81.5931 -2.68644
10.1522 77.7116 -1.50712
16.2803 118.481 -5.5441
19.9961 130.141 -4.78924
15.9802 129.938 -8.73058
9.90541 123.073 -13.0717
9.1091 80.0978 -3.35397
20.6386 130.786 -4.77832
17.8937 122.926 -5.55892
14.1417 125.251 -9.98253
17.7314 123.623 -6.15316
9.44563 75.9703 -2.61932
19.6592 131.273 -6.84979
12.7273 124.829 -12.3416
14.8864 124.947 -10.3035
15.214 118.838 -8.49188
20.5738 129.655 -5.86774
20.5975 129.544 -5.98993
18.4297 118.883 -5.65368
13.739 124.47 -11.7408
18.4726 118.898 -5.6824
18.4863 119.225 -5.75763
14.5578 124.328 -11.3945
18.3029 121.734 -7.07532
20.3235 131.025 -7.69684
17.6209 120.981 -8.22111
16.9875 127.891 -10.5726
18.5197 122.408 -7.72211
17.9012 120.311 -7.8566
15.6814 124.439 -11.1971
14.9065 124.118 -11.909
14.2115 123.465 -12.4999
15.4867 124.089 -11.5877
19.5488 129.623 -8.97233
15.5109 125.9 -12.1386
17.1212 127.799 -11.0494
15.6929 125.447 -11.9138
20.4044 127.911 -8.13407
18.3413 123.319 -9.10643
15.3663 125.538 -12.7462
18.7572 128.93 -10.2507
15.9959 124.209 -11.827
20.574 128.413 -8.35333
17.9039 128.14 -11.2391
15.4169 122.03 -12.2304
15.3694 125.353 -13.1051
19.2943 128.127 -10.3213
16.2618 125.918 -12.9609
19.0956 124.703 -9.98773
18.3109 124.147 -10.9145
16.4584 126.164 -13.3058
17.0021 126.637 -13.3751
18.2133 126.306 -12.3748
17.3989 127.243 -13.6014
18.3312 127.377 -12.9108
17.7684 127.307 -13.4915
