ply
format ascii 1.0
comment Created by Open3D
element vertex 1915
property double x
property double y
property double z
end_header
9.44449 112.613 -10.5851
17.1374 122.175 7.91254
16.8383 130.869 -8.53035
18.1444 134.244 -8.40771
17.7394 131.575 -5.47155
1.82602 92.6295 -10.365
15.3149 126.937 -8.39914
7.46062 107.595 -10.4837
6.19338 105.214 -12.127
17.0743 128.069 -2.14672
7.52566 97.2975 7.74916
13.8822 124.816 -10.9843
21.2643 136.427 2.57512
14.5152 118.636 2.71647
21.0164 140.983 -6.24605
-3.70452 76.6743 -7.2748
-1.64346 76.8823 1.76158
-0.737064 79.2363 1.90564
17.9027 125.753 6.21087
19.7837 132.673 2.82931
10.2405 115.204 -10.2436
13.962 125.216 -10.6361
19.5527 138.469 -8.0707
9.87525 114.508 -10.5312
17.0729 132.796 -9.39586
-0.730987 79.4849 2.07194
17.2538 133.395 -9.52159
16.1345 121.551 5.94459
13.8366 125.389 -11.1531
17.3695 130.111 -3.13847
17.9516 134.569 -8.19556
17.2074 129.974 -3.53005
0.0410447 88.4757 -9.6911
16.0549 130.2 -9.09304
16.515 131.161 -8.65204
17.1312 131.356 -6.17033
15.547 126.612 -5.1176
13.1581 123.193 -10.0561
-3.94583 76.8395 -7.4473
17.9791 127.535 4.52407
12.3493 120.191 -8.32731
5.8837 93.7849 8.04436
15.711 128.993 -8.19109
16.3481 129.121 -5.35097
10.137 115.572 -10.0956
16.2033 121.907 6.58017
-0.126126 88.4495 -9.7149
17.1788 129.475 -2.00736
0.507432 90.4053 -10.1157
1.31723 83.9189 4.85114
23.4176 145.018 -0.271071
17.8951 134.823 -7.71634
16.8377 132.581 -8.50362
16.4509 131.569 -8.45938
5.63343 93.6129 8.13475
22.9582 142.13 2.94913
7.3615 98.4246 7.92481
-2.76226 76.3388 0.183697
9.79528 106.572 4.94959
22.9544 142.713 2.2963
18.4792 129.503 4.96914
-4.20807 77.3811 -7.83351
22.9369 143.009 2.06516
12.4182 122.479 -10.2479
21.4617 142.716 -4.10945
17.2321 132.646 -5.56522
3.59205 100.225 -11.3803
18.5309 130.372 4.40633
16.2573 128.469 -2.65316
12.0273 120.828 -8.65933
0.453056 82.921 4.44748
17.3648 133.878 -6.81521
-1.02731 87.2582 -9.72092
6.00034 106.97 -11.7239
15.5057 129.6 -7.64175
2.87825 87.8294 7.30828
19.3288 133.772 2.62866
-1.04271 80.2606 2.66932
-4.9495 75.3378 -6.59176
16.7635 124.121 7.7709
11.1129 118.666 -8.51118
1.04513 84.4703 4.95599
19.1211 139.135 -7.35613
2.75269 87.7491 7.23807
-4.02192 79.3065 -8.88504
2.84988 98.984 -11.6354
-0.830205 88.2996 -9.81014
3.07428 88.5836 7.59137
8.06994 112.021 -10.182
15.4948 130.866 -9.0301
14.9281 130.155 -10.1998
17.1404 126.195 6.79149
12.7434 124.857 -10.9136
17.1014 126.068 6.98922
4.00223 90.9264 8.31522
16.6654 124.547 7.82236
16.0916 132.596 -8.7644
8.55966 113.597 -10.0911
7.32885 110.196 -9.78398
11.7595 120.916 -8.07195
10.4451 110.762 3.76247
16.2841 133.444 -8.92882
16.219 133.306 -8.91744
15.6065 131.594 -8.68497
-3.25202 76.8775 0.387182
3.01843 100.34 -11.6
20.6666 143.127 -5.00913
16.0533 133.113 -8.60989
16.476 132.477 -5.5576
20.9807 143.465 -4.06418
17.6282 136.269 -6.79298
7.57232 101.704 7.3905
15.421 130.015 -5.92711
22.2998 145.558 -1.53324
17.393 136.432 -8.0397
-5.73587 74.7749 -6.42853
9.59647 108.545 4.85223
9.2552 107.355 5.39617
6.01583 108.472 -11.1479
18.8662 139.816 -6.75268
15.1539 129.933 -6.43365
15.2618 129.244 -4.71751
-2.79267 84.8262 -9.81852
3.16701 101.635 -11.6595
-2.20629 86.4775 -9.83688
15.6969 132.363 -7.85381
15.7466 125.146 4.91909
16.2447 134.564 -9.151
11.9225 116.354 2.78162
21.3489 144.608 -3.2348
5.9773 108.725 -10.9932
5.56177 96.6084 8.24891
15.8659 131.885 -5.99
1.15898 86.5721 5.7195
16.1256 132.377 -5.53014
3.68002 103.282 -11.6904
15.6781 132.539 -7.68839
9.28513 116.889 -9.65022
0.112494 93.541 -10.9199
-3.69025 82.8262 -9.63698
2.05761 99.2808 -11.9582
9.80707 117.911 -8.95396
-1.0835 90.0737 -10.0881
16.5943 135.918 -8.99362
18.7809 135.098 2.546
18.7726 140.346 -6.3696
5.10032 107.732 -11.858
-5.60007 77.4734 -8.08574
16.6182 134.961 -6.58913
15.8999 132.737 -5.96979
16.3975 135.174 -7.92448
20.2252 143.753 -5.30499
15.9606 132.992 -6.05153
4.33845 94.1524 8.52798
11.6975 116.887 2.71876
19.8775 137.84 3.66081
9.40113 109.597 4.99673
-1.18181 82.5414 3.73686
16.6699 135.947 -7.50734
11.9097 125.369 -10.8143
22.1263 145.245 1.26042
0.92106 86.8115 6.04671
11.2503 115.785 2.91493
11.5215 124.29 -10.5573
21.5281 142.531 3.56346
1.36263 87.637 6.93497
17.1936 137.148 -6.82778
8.51707 106.925 6.11681
15.7592 133.6 -7.02646
0.238654 85.8419 5.15111
-0.0424125 85.1055 5.19458
16.7394 136.113 -6.79706
19.2543 136.893 3.33709
5.91903 98.9179 8.54996
-1.19203 91.2177 -10.4913
11.5346 124.75 -10.5854
-3.32842 85.5111 -10.0763
12.3901 127.475 -11.1654
-6.35956 76.0304 -7.28033
16.5672 136.209 -7.1568
-6.2394 76.587 -7.59372
4.59521 107.621 -12.0716
15.5085 127.192 3.80126
-5.96614 77.8586 -8.3675
14.9048 133.401 -9.59719
21.5587 146.425 -1.54711
6.25082 110.693 -9.29993
-2.61014 87.9533 -10.1529
-2.59695 88.1802 -10.223
12.9179 129.443 -11.1187
-4.95068 76.056 0.185357
-3.07536 79.9583 2.01374
13.9193 124.639 2.02857
11.4198 117.735 2.68208
9.11021 110.236 5.25634
9.09034 110.175 5.2884
0.586574 97.5485 -11.5494
7.09732 113.174 -8.96387
21.5782 144.262 3.12792
0.284393 86.7347 5.92216
4.85172 97.3391 8.47935
11.6224 126.102 -10.5409
19.786 139.299 3.78611
20.1056 140.171 3.74517
16.973 131.461 4.67811
14.4204 133.298 -9.85027
-2.93935 80.6226 2.48178
15.2372 135.465 -9.81739
11.1696 125.095 -10.2832
7.98288 116.322 -9.29151
6.1343 111.474 -9.15768
16.0648 128.13 7.30958
7.67094 115.569 -9.12867
-5.64453 80.8443 -9.50314
8.31662 108.399 6.31709
10.3298 115.477 3.27669
16.0147 128.359 7.15513
14.7008 134.772 -9.94461
-1.13594 93.9446 -11.2602
9.71347 113.719 3.9837
4.67148 109.401 -11.5041
7.79903 107.071 6.8515
2.6177 104.486 -12.2538
19.7851 140.382 3.96518
15.5114 128.811 4.59677
10.0456 115.178 3.41934
-4.75054 84.2379 -10.0376
20.7369 143.161 3.92817
10.4472 124.109 -9.78307
10.0936 121.849 -7.33479
4.32902 109.221 -11.6845
10.2324 123.461 -9.38323
11.6018 120.432 2.39871
6.14391 102.426 8.84088
17.4861 134.742 4.45884
4.57559 98.4578 8.67149
9.47418 114.056 4.03465
-5.05732 84.0171 -10.0196
-0.871911 86.0514 5.56097
0.912366 101.148 -12.4579
4.70949 110.255 -10.9511
15.2579 129.421 3.94294
-0.361949 87.1796 6.0993
12.0139 129.411 -10.7617
17.8141 141.496 -5.16003
-1.94477 92.8818 -10.8415
2.21516 92.6306 8.56319
18.0055 136.93 3.72985
14.8444 136.518 -9.94891
19.957 146.143 -3.28908
10.8164 118.69 2.69866
-0.266459 97.8346 -11.6222
-1.86322 93.3074 -10.986
-2.22866 92.1281 -10.5669
16.7423 139.616 -6.40207
11.1189 127.028 -10.1461
10.1494 116.842 3.19316
16.8603 139.923 -6.21686
4.08988 97.8316 8.76518
10.2544 124.62 -9.62516
1.00902 90.3943 7.68327
9.61598 115.408 3.58626
2.14149 105.093 -12.5072
6.56585 114.539 -8.66442
14.9136 128.045 5.96308
8.36967 119.188 -8.45899
16.6939 133.523 4.61965
-7.72048 76.5229 -7.72226
0.497648 89.3484 7.49125
9.74605 115.962 3.49149
6.26272 103.789 8.77208
-3.27449 90.0167 -10.6965
-6.89105 79.6685 -9.09577
9.82139 116.401 3.42826
20.0296 146.792 -2.77168
-6.35409 75.8307 0.267858
20.9326 146.457 2.08093
10.1054 117.465 3.08366
-3.69655 81.4065 2.8911
8.02617 110.168 6.52313
9.04052 114.151 4.34923
13.7609 128.004 1.85078
16.0197 131.495 6.11333
18.186 138.315 4.20566
17.113 135.189 4.76787
10.5259 119.111 2.6923
10.3017 125.68 -9.58203
1.40744 92.1625 8.1842
-1.37856 86.271 5.76781
-8.66109 75.0398 -7.68609
-6.04967 83.1615 -9.8787
3.08163 96.3961 8.92527
1.70752 93.0021 8.5698
-7.54443 78.7334 -8.7914
5.95228 114.073 -8.48241
-5.52787 85.1172 -10.4929
6.18761 114.888 -8.607
12.6132 132.968 -10.6763
13.7016 135.853 -10.5046
12.8871 126.699 1.69104
16.7417 140.852 -5.24149
12.3122 132.412 -10.658
9.80815 124.983 -9.09884
-6.10255 77.4591 0.900733
15.9092 140.081 -7.12245
15.8198 132.747 5.24853
9.93169 125.721 -9.08018
20.4242 148.043 0.013243
9.01945 115.827 3.97723
9.97626 125.892 -9.0986
4.39782 111.725 -9.93503
3.83023 111.005 -11.2316
11.9135 131.848 -10.5349
7.53133 119.008 -8.05667
6.44518 106.778 8.23602
16.3716 141.22 -6.18649
-8.23426 77.9159 -8.42576
16.6641 136.007 4.26836
5.31858 113.65 -8.61982
9.06868 122.727 -7.2615
6.07772 115.886 -8.7401
19.6792 144.143 4.22461
15.6617 140.235 -7.19118
17.5408 138.719 4.37748
5.49571 114.566 -8.33151
15.4294 132.663 5.57402
-7.43115 81.5768 -9.86766
11.2005 123.715 2.00422
19.6124 144.663 4.00308
15.3986 132.937 5.31392
13.6085 137.334 -10.3153
-0.65427 101.251 -12.576
-0.877827 89.2807 7.32033
1.02425 106.019 -12.5346
-3.51043 93.2367 -10.9419
3.9388 101.095 9.39674
15.3546 140.766 -7.3097
3.03626 98.9459 9.37111
8.78276 123.834 -7.49641
2.27025 97.1066 9.36678
8.51174 122.648 -6.24941
4.94077 104.444 9.22098
7.78751 113.844 5.93657
-1.20049 89.4119 7.39202
12.3475 135.018 -9.99303
0.744088 93.76 8.85971
-3.80607 93.2769 -11.0303
-4.6932 90.9951 -11.0013
7.06944 111.279 7.52139
14.4982 139.713 -7.92836
-0.338112 91.6752 7.8445
12.8537 136.946 -10.5519
14.4797 132.836 4.06113
14.4871 133.133 3.63341
-0.0816157 104.499 -12.7932
-3.48127 85.4142 4.91814
13.0596 137.647 -10.314
8.99159 119.004 3.55931
7.72634 121.437 -6.16098
6.96299 111.545 7.61848
1.51767 108.433 -11.6936
0.332937 93.5865 8.75955
9.83065 128.091 -7.81822
-7.6579 77.8476 -0.296938
-8.10357 76.591 -0.0769338
17.3617 145.75 -3.95085
11.6068 133.685 -9.17104
15.8483 143.152 -6.19374
17.8212 146.996 -3.77597
-7.01945 85.8226 -10.6916
3.58854 113.19 -9.83501
-1.43055 101.663 -12.6907
14.6071 133.402 5.4725
-1.05923 91.0277 7.66831
14.283 134.287 2.78816
-4.29761 84.5649 4.42005
-8.19895 82.8449 -10.1682
5.42594 107.467 9.2686
9.79072 122.875 2.54706
5.97347 109.347 8.71908
13.3367 132.813 1.65531
-8.20759 77.0006 0.459209
10.8472 132.469 -8.9398
15.669 137.486 4.63345
-3.38861 96.5786 -11.2239
-2.41881 88.6809 6.93061
15.1238 142.805 -7.01031
15.0631 135.471 5.61606
18.6633 146.064 3.64295
-5.71647 90.4467 -10.8607
18.6459 148.819 -1.12542
14.2464 133.522 5.658
-2.62397 99.3919 -11.9379
-6.3349 88.9819 -10.6607
-9.06528 81.4924 -9.92167
-10.4597 77.0501 -8.44138
4.85002 106.941 9.50644
-4.33923 94.9138 -11.403
11.176 134.215 -8.78005
17.6667 143.768 4.25228
9.98755 130.619 -7.91786
14.146 141.644 -7.94697
-8.16155 77.8823 1.05179
-10.8087 76.4758 -8.43005
-3.28346 97.9487 -11.33
4.27836 105.74 9.62444
-0.723935 93.3121 8.60139
2.0269 111.917 -11.0971
18.5344 149.187 -0.289354
0.658371 108.937 -11.865
8.8783 127.597 -6.78166
8.87179 127.73 -6.71913
17.6303 148.017 -1.9872
12.5078 133.005 1.09044
13.8013 134.865 3.9476
5.84463 120.057 -6.51937
3.89833 115.901 -8.03884
-0.684395 106.413 -12.4097
18.3906 148.153 2.09784
-0.83982 93.8285 8.74065
3.0761 103.732 9.57839
3.88368 105.793 9.72048
-7.59773 87.4709 -10.8
-10.577 78.7849 -9.08632
-3.66472 98.3551 -11.5352
9.97247 132.276 -8.19673
8.20923 126.506 -6.19343
13.2681 135.609 1.21506
14.196 135.56 5.73363
5.60871 120.095 -6.53202
-5.05992 94.9239 -11.3615
13.8598 135.189 5.12882
2.5892 102.919 9.79204
7.75853 119.548 4.63938
-5.04523 95.1545 -11.3318
5.29443 110.523 9.1422
-6.35351 91.403 -10.7431
1.03123 99.0562 9.66373
12.6048 134.475 1.008
6.90239 116.276 6.6421
10.853 135.488 -8.68744
-9.16738 77.4768 0.893726
13.678 135.749 3.99382
-12.2933 74.7421 -8.26107
-8.61223 78.7292 1.66976
4.17364 117.805 -7.788
7.52942 119.447 4.89512
14.9558 138.701 5.35265
8.05065 126.993 -5.78109
15.2042 145.361 -4.9932
5.75563 112.756 8.6431
13.7511 136.673 3.59507
17.7696 149.775 -0.710178
-7.84357 88.3404 -10.8086
-7.54087 81.3939 2.65182
5.45434 111.939 8.90527
9.63252 126.732 2.42846
16.7159 148.059 -2.25423
-10.517 76.4594 -2.09588
-7.93727 80.6541 2.48908
11.2944 138.428 -9.83406
10.6893 136.22 -8.66685
-8.60364 79.3979 2.08373
-3.41058 90.2908 7.16459
-3.29946 90.5425 7.3047
13.3746 143.085 -7.8304
12.6476 141.645 -8.62637
6.22455 115.518 7.63528
-10.397 76.7015 -0.631375
13.8738 138.587 2.65626
14.6014 145.319 -5.63593
6.38447 123.651 -5.4333
5.82486 114.415 8.26666
13.9375 139.284 2.1412
13.3767 138.256 1.44389
-13.1366 74.2641 -8.09813
7.57156 127.079 -5.36464
5.07521 112.228 9.22121
13.7452 139.349 1.81871
9.65846 133.934 -7.40402
17.5373 149.506 1.59546
-9.43574 85.8228 -10.6348
-6.29634 94.417 -10.9832
-6.79516 93.0072 -10.7219
14.2255 139.962 3.63245
-9.40499 79.0237 1.87279
15.6061 143.469 4.07461
2.29015 105.28 9.77116
-6.31065 94.7791 -11.0109
11.4479 140.503 -9.42255
14.9858 146.802 -4.1958
10.64 138.255 -9.07479
-6.16371 86.6048 4.25954
4.00464 110.287 9.90878
5.3818 114.585 8.73003
-0.0288394 112.07 -11.3724
-11.3561 81.4693 -9.87936
2.03598 116.494 -9.57948
13.96 145.943 -6.22661
1.89396 116.354 -9.83701
-11.4347 81.3821 -9.87086
9.51708 129.426 2.29192
6.91237 126.878 -4.90873
15.4099 144.19 3.94128
2.84571 107.654 10.2216
-0.247474 112.019 -11.4521
1.19167 115.444 -10.7856
-11.6872 76.3794 -1.62031
15.2087 143.958 3.87184
-3.08505 105.739 -13.0679
3.67735 120.354 -7.49041
-1.02524 110.612 -11.9981
-12.3742 79.3996 -9.47519
6.8028 121.233 5.40629
3.70115 110.434 10.071
8.3224 126.187 3.80494
8.55185 126.884 3.72025
-1.64433 96.8803 9.33675
3.06185 108.795 10.2002
-6.82611 86.6582 3.71987
4.31897 112.485 9.72651
1.64264 105.387 9.89204
0.0994319 113.627 -11.4343
16.1069 146.971 3.81843
-4.14393 103.366 -12.7748
16.4375 150.496 -0.64303
3.87536 111.438 9.95816
16.1955 147.509 3.65403
-8.91674 82.0242 2.95691
16.7126 149.976 1.84373
10.6623 134.189 2.12645
2.20228 107.299 10.3646
-3.56672 93.6615 7.86811
6.75166 128.149 -4.91727
-5.47142 100.008 -11.7694
14.5542 148.06 -3.68524
5.3128 124.757 -5.29963
-0.601723 100.885 9.25131
2.1769 118.681 -8.97535
11.2634 136.911 0.899741
9.53247 131.784 1.94198
2.36376 119.175 -8.81566
9.63039 137.666 -7.73957
-1.45243 98.7108 9.37304
-4.95533 102.094 -12.4129
-5.56814 100.475 -11.844
13.6585 142.482 3.18727
-6.07376 89.7828 4.73207
4.43726 114.613 9.58485
-3.86829 93.8615 7.78035
-6.56926 97.8285 -11.2212
12.3764 140.598 1.00201
-9.76429 81.6189 2.66309
-2.13049 97.9834 9.30036
15.0303 149.483 -1.65558
8.89813 136.391 -6.8535
-1.47444 112.052 -11.8525
2.67306 120.891 -8.10591
2.76604 121.044 -7.92609
10.6653 142.251 -8.67263
6.62613 123.499 5.68242
-6.01178 100.345 -11.6716
10.4325 136.198 1.19565
-13.6213 75.4542 -2.87909
-2.65726 109.64 -12.0799
13.4147 143.357 2.68303
-0.259378 103.29 9.91554
-13.5939 79.341 -9.20705
-8.35743 85.9273 3.35745
2.92358 111.546 10.3336
-8.69129 85.1572 3.36332
13.4994 143.674 2.98313
6.31356 123.132 5.90251
6.45756 129.777 -4.97291
4.92547 117.899 8.68119
-9.74557 82.7779 2.89003
-9.39735 83.6288 3.09707
2.37779 110.428 10.3957
13.9742 144.965 3.46146
-7.23504 89.0296 3.93724
-7.04094 98.3601 -11.3694
-9.05224 84.6289 3.32756
1.00489 118.806 -10.062
7.50225 127.097 5.18373
-5.88427 101.898 -12.0774
-7.96125 95.8356 -10.8948
6.53853 124.314 5.95481
2.27742 121.336 -8.27887
4.57589 125.654 -5.16788
-3.24176 109.168 -12.1397
9.84348 135.479 1.84324
-5.34177 92.7821 6.75674
12.0467 141.736 1.05868
2.53304 111.448 10.3727
-11.6573 86.3456 -10.6827
-12.3233 84.4113 -10.0889
4.89977 119.083 8.35953
6.13383 129.992 -4.89072
7.1379 126.694 5.4386
13.5762 144.995 3.26299
0.235304 117.915 -10.4237
14.1682 146.768 3.2377
-3.85213 96.3493 8.71236
-5.21129 105.292 -12.9463
-3.51091 97.1796 9.1208
5.05294 120.471 7.85334
9.21182 134.396 2.76822
-3.31104 97.815 9.1975
-10.0027 92.0812 -11.1373
-11.8765 87.1101 -11.0217
8.54389 132.206 3.87457
5.7286 123.303 6.51138
8.37346 131.089 5.09653
6.38007 125.356 6.17375
-11.5075 80.8712 1.85584
-0.404999 105.16 10.3506
-15.7201 76.1931 -8.9894
13.2947 145.943 2.39576
14.4937 149.002 2.64161
13.4204 149.895 -3.68211
5.14293 121.805 7.35027
-7.97634 98.2431 -11.5449
-12.926 84.4857 -10.2196
2.638 113.612 10.3003
13.0628 149.49 -4.20664
-2.16147 113.516 -11.0691
14.293 150.815 -0.740945
-3.70524 109.9 -11.7565
-8.2477 97.8206 -11.4295
8.32447 132.343 4.23249
-12.544 86.3008 -10.8395
12.7194 145.612 1.4049
8.12312 131.245 5.44848
9.33459 136.477 1.92051
-0.850068 116.971 -10.6259
2.78423 124.274 -6.72043
-13.4 83.7605 -10.0159
-3.02646 100.008 9.07957
8.26633 139.192 -7.40291
-9.31081 87.204 2.90679
-10.8756 83.262 2.64394
11.8744 148.057 -6.09409
-14.8461 75.7033 -2.2089
-2.6951 101.199 8.95219
5.97976 125.435 6.50205
-1.69515 115.278 -10.7844
-10.4952 92.4183 -11.2062
-5.43692 106.47 -12.4551
12.1159 148.506 -5.34825
-5.23378 95.4297 7.75052
3.72821 126.531 -5.30818
10.4892 140.149 1.9724
-3.22952 111.743 -11.0685
8.31584 134.027 3.19405
-4.6202 97.0474 8.72537
3.8029 118.635 9.77598
5.43503 124.598 6.90558
-9.06617 88.6357 3.30209
3.30432 117.293 10.0526
8.68633 135.873 2.75422
1.52615 123.189 -7.76982
-13.9298 84.1614 -10.2657
6.97829 129.878 5.70142
-9.14304 97.3696 -11.3459
1.05954 111.647 10.4478
-9.49992 96.4229 -11.0959
-2.49626 103.219 9.20143
12.0979 146.334 1.08793
8.58266 136.38 2.43256
-3.19335 101.793 8.80688
-9.33153 88.8658 3.2947
-0.77158 118.911 -9.76248
-7.4012 102.777 -11.9069
0.264457 121.534 -9.17218
-6.79137 105.212 -12.6761
12.0054 146.679 1.08528
-2.98545 113.924 -10.3357
-4.78969 109.786 -11.2613
1.91895 124.899 -6.87495
8.84818 143.49 -7.53105
4.84731 124.415 7.39548
-12.8322 88.4477 -10.685
-2.19323 104.719 9.75512
-17.072 76.5721 -9.12445
8.13152 134.813 4.67417
-8.17742 101.375 -11.5185
-0.159912 109.601 10.7571
-12.8116 81.7252 1.49178
-12.6445 89.4018 -11.0323
8.53657 136.297 4.3048
-15.758 80.0206 -8.75218
1.32663 113.864 10.4061
2.05173 115.83 10.4054
2.88286 127.122 -5.39606
12.6493 150.715 -1.79013
4.9204 125.192 7.35009
5.50362 127.062 6.83204
8.47891 136.569 3.94846
-16.2888 75.3917 -2.50647
0.453639 111.897 10.4879
5.51546 127.29 6.86666
-12.1555 83.5552 2.24162
-11.8039 84.4848 2.23075
-5.00339 110.021 -11.0903
7.68785 133.967 5.21613
13.5099 152.414 -0.235109
3.12528 119.499 9.94845
1.36072 124.727 -7.03099
-18.0001 74.4361 -7.97048
7.93766 142.153 -7.04358
6.94887 139.466 -6.37345
-9.3949 90.8539 3.72106
0.181275 112.11 10.5052
7.24688 140.686 -6.663
7.11955 140.321 -6.57413
-15.7641 77.017 -0.898542
-10.702 96.3073 -11.3094
0.901267 124.411 -7.18762
8.25903 137.445 3.73637
3.92863 123.203 8.72136
-4.64586 100.708 8.7152
6.5035 138.225 -5.45661
12.5285 151.625 -1.11051
-18.1921 75.1277 -8.34061
12.1837 151.06 -1.64046
6.35488 131.212 6.29589
13.0254 151.465 1.67368
5.52815 135.531 -4.83356
5.62205 128.991 6.97724
-5.34236 99.1624 8.88581
-13.5155 88.9177 -10.4524
-8.66111 92.9226 4.83057
8.88085 140.468 2.53539
3.72031 123.257 9.01226
-11.3072 87.6734 2.37108
-17.1672 75.6027 -3.31966
7.17952 134.009 6.36069
5.26639 128.371 7.4285
-2.73087 105.865 10.0406
7.96594 136.822 5.07907
9.75577 143.578 1.56274
-17.4788 78.2138 -8.87869
-2.23031 118.52 -9.33047
-8.64272 103.04 -11.6854
10.5883 149.77 -5.10173
-17.2285 75.3766 -2.74146
6.06332 131.216 6.51103
9.79557 144.18 1.49542
7.72918 143.471 -6.64551
11.5855 149.151 1.08684
-0.327497 112.464 10.5402
-11.406 88.0875 2.36756
-16.4915 76.738 -1.10366
5.59357 136.978 -4.89805
1.58352 117.693 10.4763
-4.04427 103.686 9.30925
-10.5094 90.3039 3.14024
9.51462 143.886 1.62449
9.05599 142.651 1.92355
3.07714 122.495 9.69507
3.51649 131.78 -4.40778
-16.3007 77.5537 -0.576496
-8.40134 105.168 -12.4915
-8.97076 93.5296 5.14114
-15.2161 79.6434 0.839303
-2.78521 118.137 -9.13013
-16.0449 78.1802 -0.168884
-1.79521 120.844 -8.59599
-0.575604 113.097 10.5443
6.01872 139.358 -4.97069
8.46677 141.563 2.39285
-7.54986 96.5538 7.52058
-10.4116 100.296 -11.7963
-11.9794 96.026 -11.4701
1.9656 120.287 10.2507
-5.40269 112.946 -10.4947
6.19688 140.3 -5.04314
5.50804 131.568 7.07351
5.99847 133.242 6.42629
9.33385 144.781 1.65288
3.97448 134.263 -4.39377
-3.43763 106.355 10.2743
-8.24127 95.7436 6.81948
-9.03873 104.554 -12.1047
5.2196 130.901 7.16644
8.81308 143.421 1.9333
10.6499 151.103 -2.97638
4.30405 135.334 -4.45424
-13.6094 92.1629 -11.1741
-9.19076 94.2535 5.59058
-17.1319 81.7179 -8.81748
-1.12954 123.422 -8.11193
7.41382 144.773 -6.07067
7.3938 138.517 4.70545
5.32842 131.694 7.26074
-16.1386 85.4961 -10.0436
-17.7932 76.5025 -1.97085
-14.5112 89.9252 -10.2897
-2.7753 119.755 -8.56529
11.2635 150.952 1.4981
2.41344 122.93 9.80969
-19.3779 76.268 -8.50608
8.88341 149.127 -6.0385
-3.74308 106.567 10.3658
8.84414 149.084 -6.03859
1.29654 119.784 10.4782
-14.1196 84.2845 1.85803
0.0878133 126.472 -6.55373
2.69846 124.041 9.67836
-1.17948 124.164 -8.00948
5.23654 132.297 7.19359
3.3867 126.279 9.21897
-3.69625 118.08 -8.7909
-17.036 78.3858 -0.556751
-11.202 91.6542 3.03312
4.67923 137.857 -4.65556
-0.486847 115.547 10.7279
-16.7197 79.1822 -0.0741504
-15.1358 88.835 -9.50614
9.30875 150.689 -5.38524
-1.57592 123.806 -8.24224
-11.0083 101.163 -11.753
-8.46628 96.7516 7.53043
-18.3892 80.0856 -8.73249
-12.0964 90.1177 2.5548
-9.96804 103.937 -11.6551
-10.1535 103.399 -11.5533
-6.13314 113.244 -10.3149
-16.1425 80.5418 0.846094
-6.00038 113.585 -10.2272
10.1153 151.742 -2.77266
-0.59903 115.832 10.7797
-9.93556 104.524 -11.9904
0.950939 120.283 10.473
-0.276565 127.07 -6.72586
-17.8053 82.1856 -8.66662
0.477826 128.609 -5.87357
-0.0763406 117.659 10.6622
8.26528 144.373 2.39918
2.05839 131.849 -4.1096
-13.7045 86.9895 1.94261
7.8129 142.543 3.63433
6.58426 144.473 -5.28649
7.20454 146.402 -5.68548
6.39482 144.067 -5.17252
5.30112 140.947 -4.66963
7.74588 142.541 3.77909
-4.70916 106.069 10.3151
5.41919 141.389 -4.67828
-8.80125 108.145 -11.7736
6.72415 140.149 3.46942
-11.0386 102.232 -11.6686
-12.0955 91.0744 2.91378
7.58638 147.906 -5.94496
7.28007 141.071 4.53389
-17.7326 78.5124 -0.835885
-18.083 77.9825 -1.48881
-15.3179 90.1803 -9.92084
-11.4062 101.607 -11.8407
-10.4721 94.4294 4.89284
-1.80211 113.943 10.6449
-11.8221 100.748 -12.0173
8.64302 150.59 -5.23986
-13.3714 96.6159 -11.7729
-9.95088 95.3767 6.04508
4.25365 132.226 6.93238
5.20246 136.089 4.56509
1.89563 124.685 9.33753
-20.3758 76.2587 -8.05127
-7.3955 100.703 8.70345
10.5936 153.234 -0.473105
-0.10675 118.951 10.4397
1.1755 131.295 -5.01777
-8.3553 98.5352 8.41667
-14.2001 87.0124 1.89502
-2.63966 112.306 10.9042
-19.3707 79.319 -8.05266
-12.1314 100.711 -12.0639
4.23456 133.916 5.3574
-1.79226 125.784 -7.79131
10.754 153.82 0.747005
-12.3666 100.553 -12.0319
-16.4987 82.3416 0.879693
-15.4068 84.9411 1.70121
9.03941 149.281 1.50969
-13.2994 98.3561 -11.9105
-7.87679 111.962 -10.8031
10.3335 153.124 0.903735
3.4946 131.241 7.71659
3.75962 132.849 6.15841
-8.20476 111.502 -11.1816
3.28155 137.572 -4.06778
-12.6749 100.248 -11.9864
-10.3699 106.562 -12.3881
10.4964 154.005 0.406082
0.916796 131.936 -4.82864
4.39362 140.821 -4.34051
8.12172 146.822 2.24375
8.30934 147.485 1.97141
-18.7472 82.8095 -9.09275
-13.2986 90.193 2.94349
-0.148558 130.05 -6.11799
5.57446 139.445 3.69883
-9.27877 109.343 -11.7149
-13.585 89.7515 2.72854
10.2965 153.754 0.921612
9.3663 152.845 -1.71962
-11.0988 95.1717 5.1086
-15.835 91.579 -10.2325
0.238471 131.302 -5.63142
7.41308 149.8 -4.96206
-17.855 81.0338 -0.68599
4.63761 142.235 -4.32862
-9.49796 98.0907 8.00933
-15.7749 92.283 -10.3847
6.24178 147.067 -5.01953
-4.07545 110.755 11.2533
-12.4892 102.083 -11.9345
-7.31251 114.549 -9.87682
-14.707 95.961 -11.1743
5.84111 146.401 -4.81086
-12.0307 103.473 -11.6102
-0.700176 120.504 10.5193
-9.67407 98.4457 8.08973
-16.18 91.8989 -10.1277
-15.2749 94.8509 -11.0131
2.59783 131.144 7.58199
9.04638 151.578 1.54735
9.57367 153.946 -0.0778892
-13.8083 90.6323 3.24122
-16.6394 84.4345 1.29836
-10.9708 96.44 6.35963
-6.04844 107.015 10.6973
4.8474 144.295 -4.32092
7.37818 146.682 3.10165
2.5288 137.926 -3.69086
0.523089 133.063 -4.38502
-6.70844 116.926 -9.29152
-16.3114 85.4807 1.56365
5.89772 143.244 2.5454
-20.419 77.3146 -2.8366
-22.2776 75.5628 -8.0032
-8.49541 101.902 9.12506
-11.4954 106.415 -12.2837
6.81057 150.079 -4.5438
-6.66814 106.147 10.3912
-20.3324 77.98 -2.93175
-16.2085 93.1445 -10.3304
-10.2223 109.677 -11.6569
-0.333634 123.366 9.6979
-22.6241 74.8515 -7.69864
-5.2306 109.517 11.4234
2.82465 139.536 -3.84266
-0.28505 123.763 9.4357
-18.792 81.3781 -1.3563
-4.72699 122.036 -7.73574
-8.80629 113.345 -11.2381
-4.84873 121.804 -7.86313
1.77939 130.161 7.97061
-15.8122 87.5895 1.88576
7.03863 151.231 -4.15686
-9.87763 111.215 -11.5822
-20.6041 81.1882 -8.17333
-1.0792 131.229 -6.01099
-23.0016 74.6781 -7.73364
-15.07 89.7225 2.32823
-20.9927 77.2678 -2.88111
8.54632 153.822 -0.798533
-18.6971 83.1447 -2.05212
-14.4317 99.7575 -11.3754
-17.8502 84.2373 -0.0110878
8.76887 153.099 1.8451
-3.00508 116.899 11.0495
7.26854 149.025 2.44931
-10.2568 111.095 -11.5459
-16.5368 87.2654 1.2761
8.78106 154.384 0.255032
-2.06195 120.064 10.4371
2.00909 134.059 4.76343
-17.5237 90.792 -8.8742
-18.4843 83.9546 -1.30185
-16.2328 88.2666 1.53952
-10.2161 111.619 -11.4937
-16.1022 88.6623 1.59441
-22.0543 76.3473 -3.9444
-4.34172 114.297 10.936
-0.119444 134.173 -4.19355
-16.1799 88.7226 1.51273
-5.73074 110.498 11.4828
-21.1974 80.9773 -7.77088
-13.7508 94.022 3.66539
-16.903 93.7384 -10.1184
-11.1524 98.8147 7.53145
-18.9351 87.2123 -7.76267
-22.8216 76.0259 -5.99853
-8.14729 116.682 -9.62354
-12.0977 97.1418 6.32771
4.09959 141.36 3.4784
-19.3159 83.3507 -2.54278
-8.14122 116.788 -9.59054
-12.7054 106.323 -12.1747
-8.35606 116.398 -9.83577
-17.6106 86.7534 -0.0746687
-13.3645 104.632 -11.748
-3.64195 127.113 -6.44292
5.71917 150.29 -3.92763
-11.7349 98.2 6.97372
-3.22937 118.383 10.7472
-8.54737 116.489 -9.92493
2.0167 140.529 -3.49276
-7.06403 119.656 -8.60767
-14.2537 93.7531 3.64165
-22.1143 77.1127 -3.29755
-21.4155 81.4859 -7.62377
-13.3086 95.8466 4.65615
1.57268 139.577 -3.36358
-15.4254 99.2104 -10.7629
-13.2016 96.0457 4.88639
-1.48097 124.147 9.54928
1.28157 138.817 -3.30048
2.20799 141.403 -3.49272
-22.5946 78.4255 -7.21981
-3.98523 116.81 11.1835
-8.96275 104.601 9.68774
-3.29643 128.496 -5.94691
-21.6449 81.2844 -7.53914
-22.852 76.5153 -4.69273
1.76515 136.464 3.471
-7.84768 118.546 -9.08316
-21.3752 81.8006 -6.74544
0.652421 132.38 6.1958
-4.81551 115.245 11.0168
-20.7322 84.4125 -7.95302
0.748586 132.931 5.89761
-2.05911 132.307 -5.75626
0.51465 137.612 -3.15542
-14.367 94.5517 3.77359
5.16218 150.148 -3.69214
-22.1195 80.1753 -6.57206
-7.10728 109.326 11.3978
2.78021 144.003 -3.63123
-13.9672 95.5569 4.12245
-4.85738 126.063 -7.28786
0.303526 131.798 6.4791
-17.0774 89.7124 0.478788
-12.7767 97.6987 6.25745
-6.30072 122.956 -8.01013
-22.9062 78.317 -6.09415
-19.6232 85.0886 -2.76652
-16.7674 96.7886 -10.0195
-19.8213 87.1975 -7.19271
2.33773 139.788 2.71222
-11.8449 99.7369 7.59497
-0.0818592 136.91 -3.27165
-21.9296 80.8193 -5.47494
-14.5923 103.679 -11.5816
-20.3107 83.9324 -3.22532
-21.4771 80.8109 -3.06893
-0.695594 129.149 7.80892
-6.9902 110.486 11.5349
-0.587639 129.629 7.56659
-4.60232 127.64 -7.26249
7.64379 154.544 1.86836
-2.60106 122.784 10.4278
-0.989888 135.524 -4.14512
-8.14258 108.064 10.976
1.19306 140.849 -3.26932
-1.71002 126.583 8.31175
-22.3783 80.1153 -5.13248
4.44583 149.645 -3.48755
-22.9775 78.4673 -4.91501
-11.0396 101.987 8.8623
-8.14222 108.366 11.0805
-22.3923 80.2331 -4.98851
-11.1594 113.367 -11.2622
-21.8635 81.6935 -4.78939
-1.1668 135.669 -4.10458
3.23883 143.198 3.09356
-2.45864 133.205 -5.24864
-21.4594 83.0427 -4.72995
-4.74506 117.95 11.0374
-22.5866 79.7375 -3.93514
1.92691 143.725 -3.2604
-1.58459 135.128 -4.34233
-20.0501 88.4367 -7.46918
-4.92004 117.575 11.1136
-2.84391 132.632 -5.55836
-5.81004 115.209 11.2971
-22.3314 80.9157 -4.44809
-16.4487 100.047 -10.6212
2.48502 142.119 2.81143
0.891027 138.352 2.34552
-15.8562 102.216 -11.144
3.44219 148.512 -3.44237
-13.0285 99.3305 6.86632
-11.7623 113.182 -11.3897
-3.65471 131.409 -6.01848
-9.95379 117.467 -10.4777
-9.60664 118.142 -10.0409
0.627537 141.089 -3.20159
-7.71933 122.601 -9.00062
-21.7074 83.7744 -5.30113
-18.922 89.214 -2.00366
-0.450252 134.05 4.98261
-0.0536767 136.771 2.68414
-15.6773 95.2152 3.62777
-2.69253 126.256 8.95878
-19.9591 87.7693 -2.88555
0.0820792 140.626 -3.21909
-2.35636 134.95 -4.44952
-0.866563 138.208 -3.29838
-18.2439 91.0646 -0.632438
0.505913 141.758 -3.11354
-0.939944 133.015 5.49414
-17.9233 91.8336 -0.41434
-10.5985 105.327 9.61835
-8.8045 109.425 10.8581
-11.6898 114.907 -11.5961
-22.0249 83.181 -3.59143
-11.7114 114.879 -11.5997
-20.836 86.6603 -4.14922
-1.57221 131.416 6.13781
-14.236 107.948 -10.8398
-17.4004 99.1323 -9.88853
-19.2756 93.7414 -8.91611
0.587127 139.863 1.60263
-14.7966 97.4455 5.30769
-8.76432 121.809 -9.43911
-12.5096 113.286 -11.5924
0.538406 140.048 1.53616
-15.5857 104.796 -10.7364
-14.8556 106.6 -10.5247
-8.14765 123.615 -9.41844
1.03357 144.162 -3.02531
-19.581 89.8618 -2.62099
-21.7879 86.5519 -6.53087
-22.205 85.5848 -6.44744
-6.39975 127.914 -7.82016
-13.2086 101.189 7.58294
-5.64294 129.941 -7.79252
-7.59815 125.531 -9.02714
-16.6946 95.046 2.63888
4.06229 152.883 -3.09975
-15.7646 96.6899 4.25282
-15.1108 106.922 -10.4513
-5.31082 120.68 10.345
5.02904 154.939 -1.59223
-18.8569 91.9723 -1.11556
0.160338 140.582 1.23474
-1.92247 132.699 5.5807
-6.51328 128.356 -7.76406
-9.90751 120.701 -9.91143
-20.567 89.1211 -3.61382
-16.8766 95.3775 2.57449
-20.8028 90.9616 -7.62732
-2.39142 137.218 -3.94685
-20.7007 89.0017 -3.7128
-21.0597 88.2555 -3.96322
2.78604 150.411 -3.14289
-18.0317 99.2649 -9.21447
-10.2239 120.289 -10.0974
-22.2853 86.1891 -5.83646
-9.21378 122.944 -9.95006
0.065839 143.31 -2.98058
-9.70239 121.859 -10.044
-14.5281 99.8604 6.14733
-15.9786 97.436 3.90005
-22.2316 86.7974 -6.11402
-22.3348 86.672 -6.36598
-19.921 90.838 -2.5187
-15.547 106.878 -10.3422
-15.7608 106.353 -10.2351
-16.4653 104.49 -10.2129
-0.124998 143.246 -2.98549
-6.01578 130.519 -7.73745
-21.3912 89.8641 -7.19554
-15.0633 99.7792 4.9761
-17.0753 103.013 -9.69608
-4.71004 124.018 10.326
-8.66067 113.07 11.3259
-7.67228 127.184 -8.53886
-5.35749 122.295 10.5456
-7.07612 117.475 11.1077
-6.55723 118.909 10.9899
-14.6965 100.543 5.83759
-21.9912 88.6191 -6.67846
-21.9004 89.0587 -6.92155
-20.8836 90.6344 -4.98897
-9.73867 111.159 10.3404
-15.9763 98.8976 3.21293
-17.7044 101.516 -9.09715
-19.471 93.8905 -3.89764
-19.4698 93.9027 -3.85966
-20.5255 91.4991 -4.43503
-18.0214 95.1115 0.791286
-13.2216 103.795 7.60588
-19.0045 93.8284 -1.34633
-1.22264 141.598 -3.13354
-3.75699 136.017 -4.97404
-12.168 117.572 -11.247
-16.9698 97.3287 2.15428
-20.838 90.7144 -3.95315
-13.396 114.488 -11.2098
-20.5681 92.3943 -5.51339
-17.0061 104.289 -9.90177
-16.9695 97.7484 1.62377
-14.5929 111.308 -11.0234
-18.5103 99.76 -8.76207
-16.736 98.2209 2.01796
-12.3704 105.524 9.38816
1.33833 148.72 -2.91554
-11.3207 120.196 -10.9223
-18.1218 101.22 -8.92707
-13.1152 115.703 -11.2124
-18.4059 96.1987 -1.3066
-1.60857 141.521 -3.28566
-19.2989 95.2417 -3.32239
-18.7791 99.5823 -8.45861
-8.12793 116.442 10.841
-18.9058 95.2361 -1.39949
-15.8683 100.676 3.22055
-19.1713 98.4945 -8.03387
-19.2786 95.2959 -2.93377
-0.926216 141.482 0.64057
-5.36725 133.767 -6.1684
-0.333861 145.064 -2.80173
-3.42748 138.116 -4.81151
-10.0972 112.026 10.2669
-20.4433 95.2179 -7.65655
-16.5982 99.9238 1.71958
-18.502 100.998 -8.73511
-13.4024 115.638 -10.8478
-19.136 99.0231 -8.01063
-14.769 102.702 5.68824
-10.5911 110.932 10.4786
0.778362 148.475 -2.81554
-4.95321 135.456 -5.83375
-15.2443 102.533 4.54096
-6.08274 133.072 -6.68128
-12.0157 108.071 9.95906
-19.4608 96.3517 -3.34595
-9.0999 126.618 -8.36875
-6.54602 122.403 10.725
-5.90345 134.333 -6.70509
0.539788 149.007 -2.76213
-8.3443 128.665 -7.86658
-13.3072 116.758 -9.77463
-17.9685 103.626 -8.17288
-20.5896 96.0442 -6.83842
-6.56743 122.803 10.7514
-6.12123 134.163 -6.93232
-13.907 115.488 -9.99696
-15.6027 102.984 4.31187
-6.33636 123.775 10.4697
-0.311379 147.259 -2.73313
0.262167 148.764 -2.71247
-7.4486 120.726 10.8157
-5.87481 135.062 -6.83317
-12.9154 107.272 9.36802
-14.6846 113.988 -10.1626
-19.4714 100.045 -7.71091
-8.28188 129.85 -8.28851
-17.0678 107.421 -9.20317
-14.5842 114.403 -9.82978
-13.6823 116.507 -9.36554
2.15006 153.95 -2.07185
-6.36568 134.648 -7.33808
-19.0199 101.694 -7.6269
-18.696 98.6376 -0.673913
-13.2323 110.435 3.77587
-10.9282 124.165 -9.52177
-1.8479 141.906 1.13219
-9.21308 127.928 -8.02481
-17.011 107.914 -8.83123
-13.0784 119.126 -10.3467
-12.9503 111.634 3.25499
-13.036 111.536 3.11796
-0.253071 148.484 -2.64279
-13.4866 109.855 4.08871
-6.38465 135.197 -7.48358
-3.06188 137.936 3.32291
-18.36 99.7026 0.0238892
-5.7665 136.52 -6.36226
-14.0793 108.695 4.12997
-17.4431 107.002 -8.01026
-20.8486 96.1189 -4.58911
-13.4102 110.404 4.54067
-5.37123 130.423 6.45327
-3.14097 138.111 3.34531
-5.30368 137.906 -5.96729
-12.8931 109.001 9.7633
-17.4295 107.19 -7.72429
-5.14511 138.446 -5.77915
-15.1164 107.872 2.10005
-12.7256 112.855 4.40914
-16.2014 111.674 -9.2787
-13.6678 118.505 -9.58256
-9.60137 128.382 -8.15481
-5.59167 130.343 6.74385
-9.12463 129.831 -8.4609
-12.5953 112.999 4.96237
-4.98239 133.424 4.42165
-15.7111 112.772 -8.62057
0.986794 153.173 -2.62003
-7.21174 124.24 10.2465
-20.9099 97.3861 -5.54825
-7.13213 124.622 10.0596
-6.8669 126.187 8.68242
-4.91478 133.815 4.3837
-9.19563 119.028 10.5835
-15.3785 113.705 -8.33743
-9.3126 118.711 10.6491
-9.2831 129.878 -8.56771
-15.0964 107.425 4.08843
-2.12482 145.632 -2.97154
-13.7036 112.864 1.17711
-12.8041 112.788 5.41199
-15.1272 107.181 4.66487
-3.34913 138.919 3.27238
-19.5389 99.3117 -1.72767
-18.5514 104.817 -6.74724
-7.98711 122.55 10.6583
-2.8059 141.162 2.08623
-13.8815 112.968 0.745762
-13.4474 110.415 7.16109
-14.4736 107.79 7.16746
-13.8524 109.75 6.59859
-20.4642 98.1757 -3.42773
-6.65126 136.762 -7.30855
-16.1683 107.36 0.437151
-15.6283 108.496 1.05887
-14.2172 117.969 -8.88117
-7.0909 136.192 -8.00976
-9.9584 117.798 10.8705
-17.5272 108.632 -7.70376
-19.4851 102.964 -6.72065
-6.63258 128.722 7.22409
-14.1792 109.1 6.98045
-2.26483 146.113 -2.91216
-9.67526 130.195 -8.92812
-3.27997 143.968 -3.65506
-14.1558 113.084 0.406592
0.709395 153.692 -2.26894
-14.5702 111.415 1.55163
-15.5127 109.082 1.39627
-17.1631 103.685 3.26433
-6.62439 129.156 7.19135
-4.33124 137.127 3.81031
-11.4362 114.547 10.6383
-13.8157 113.062 2.37727
-18.1372 102.225 1.57352
-20.0661 100.24 -3.63317
-14.0116 113.386 1.17559
-16.2806 112.443 -7.52609
-10.5973 128.007 -8.63544
-1.66178 147.954 -2.50638
-10.8855 115.957 11.0145
-16.8762 104.532 3.53803
-16.2751 105.478 4.81536
-20.0961 99.8744 -2.81693
-16.0817 105.676 5.42314
-18.9923 102.588 -2.26909
-19.7415 100.694 -2.29983
-19.9982 100.684 -3.45193
-18.4666 103.809 -1.84524
-7.72458 135.679 -8.1985
-17.5857 103.864 2.103
-6.1298 139.021 -6.55947
-18.581 104.225 -2.9047
-18.9209 102.335 -1.15416
-20.0694 100.414 -2.99812
-3.75311 143.846 -3.99611
-18.218 107.579 -6.94748
-9.76361 131.17 -9.19243
-3.59245 140.33 3.06512
-7.23063 128.516 7.21858
-3.64873 140.294 3.11894
-20.0328 102.722 -6.33934
-16.8773 106.146 2.10301
-16.7495 106.131 2.73918
-17.831 104.072 1.42263
-3.25571 142.023 2.01659
-14.6511 113.434 -0.303596
-15.5104 110.127 1.55895
-19.2009 101.707 -0.649023
-19.777 101.129 -2.21054
-6.72092 130.876 5.86511
-5.45594 140.965 -5.87033
-18.7386 103.09 -0.578706
-4.19077 143.531 -4.39806
-17.9887 109.026 -7.29124
-19.0345 104.01 -3.27594
-11.8401 125.707 -8.11792
-17.8266 105.623 -0.391635
-17.8703 105.806 -0.77816
-18.0207 104.9 0.124298
-6.91412 130.939 5.74169
-9.65383 132.438 -9.22485
-7.35162 137.642 -7.66563
-12.8942 113.415 9.43623
-14.8055 115.297 -1.96065
-7.49859 129.477 6.7988
-6.33077 140.457 -6.81627
-19.76 103.395 -3.66358
-13.0375 114.831 7.24004
-8.31512 136.21 -8.34208
-9.37944 133.809 -8.98921
-13.5662 117.069 1.12853
-15.8301 116.669 -8.278
-12.702 115.367 8.35088
-2.27682 149.077 -2.56706
-16.9096 109.177 0.0217702
-11.6715 128.063 -8.8341
-7.78282 129.355 6.82209
-13.737 115.591 3.79404
-2.26179 149.384 -2.48368
-14.3389 114.309 3.3916
-2.71854 148.423 -2.82817
-14.8782 115.841 -1.69968
-13.8972 114.661 5.04398
-17.3827 112.251 -6.401
-13.8249 114.487 5.98268
-14.9156 116.013 -1.51997
-1.23929 152.331 -2.20095
-14.9866 116.976 -3.37899
-6.80238 133.801 4.84695
-17.6206 108.798 -1.04814
-6.20453 135.7 4.29686
-8.72046 136.484 -8.44352
-11.99 117.299 10.2181
-4.83107 140.021 3.53617
-16.9736 114.537 -7.4457
-19.2459 107.596 -5.74388
-12.2495 116.779 10.2357
-12.3269 127.107 -7.90231
-15.8719 115.193 -3.37708
-8.46565 137.363 -8.0542
-8.37304 129.412 6.2874
-12.2974 127.545 -8.26604
-17.8722 109.015 -1.19508
-19.0428 107.168 -3.29115
-19.1642 107.944 -5.08585
-3.67622 147.749 -3.26337
-11.066 120.332 10.7109
-14.0384 123.999 -9.01134
-18.0127 111.878 -6.06686
-6.22222 142.854 -6.03419
-13.9656 115.664 6.07829
-7.24264 134.278 4.80146
-18.7566 108.349 -2.57928
-14.5878 119.289 -2.51596
-9.26397 136.572 -8.14833
-4.48248 143.097 2.37966
-16.8464 116.715 -8.08566
-19.0521 108.085 -3.14301
-13.5956 117.486 5.43455
-14.5223 120.256 -3.49172
-13.661 117.658 5.04362
-14.1201 115.624 6.55964
-7.59402 133.68 5.00089
-13.9694 121.203 -2.38897
-10.0424 125.681 7.97715
-10.45 124.936 7.42349
-16.1147 116.263 -3.32771
-8.3477 138.94 -7.22089
-7.24393 135.095 4.52003
-18.567 109.316 -2.24833
-7.74378 133.621 4.96761
-10.2956 125.057 8.30763
-15.8584 116.335 -1.80111
-14.1887 120.928 -2.14904
-19.2987 109.062 -4.76427
-14.4821 120.326 -2.3305
-13.6221 117.974 5.70515
-18.1348 112.408 -5.08692
-8.40991 131.735 5.74948
-1.9717 153.103 -1.97561
-11.5587 121.264 9.63963
-10.9122 124.112 7.73087
-10.7544 124.206 8.30785
-17.8872 111.024 -1.23698
-12.9337 128.056 -8.13976
-9.34652 129.135 6.37082
-17.6861 111.669 -1.13758
-15.3644 118.986 -3.23714
-15.2609 119.423 -3.46504
-12.8615 118.428 9.22096
-14.7472 121.039 -3.63256
-16.5936 118.757 -8.08455
-11.519 123.128 7.47483
-17.5262 115.864 -7.2802
-5.99285 139.895 3.62489
-2.90005 151.467 -2.28526
-15.1317 118.977 -1.51688
-7.67407 141.578 -6.65264
-16.5645 116.311 -3.31911
-18.5536 110.503 -2.24032
-19.3339 109.327 -3.73883
-8.42988 133.067 4.96223
-14.8811 120.834 -3.17504
-13.7524 119.768 4.03962
-4.35061 148.746 -3.3613
-18.0227 112.012 -1.7697
-14.9993 120.029 -1.71683
-15.307 119.665 -2.29316
-5.52713 146.809 -4.75783
-13.2202 128.213 -7.25774
-6.10706 145.779 -5.31343
-15.2717 118.877 -0.338756
-17.7837 114.846 -4.71759
-15.2106 119.736 -1.25987
-7.17108 138.105 3.52459
-7.7669 142.482 -6.50264
-14.9762 124.581 -8.09401
-13.2616 128.588 -7.09335
-4.09191 150.198 -2.78538
-5.49043 147.558 -4.56713
-15.0681 120.552 -1.28562
-14.57 125.271 -7.15595
-17.2416 118.787 -8.04524
-15.3915 119.856 -1.39002
-15.28 119.121 0.446001
-13.9251 119.824 5.42845
-15.1811 119.605 0.162397
-16.8581 119.784 -7.77014
-12.5745 131.39 -8.313
-4.37033 149.986 -3.03931
-18.511 114.352 -5.53341
-15.2532 119.16 1.12463
-14.9667 122.833 -3.87645
-14.3715 126.211 -6.95848
-15.2513 119.903 0.0531653
-13.9112 127.984 -7.86499
-15.2596 119.119 1.39172
-12.2398 132.364 -7.77909
-18.4851 113.015 -2.63347
-12.4719 123.585 6.51521
-16.7401 117.457 -2.27216
-11.2829 126.73 6.53565
-15.2421 122.293 -3.74471
-11.6887 133.598 -7.08362
-10.1341 129.965 6.32189
-16.2751 119.19 -2.91383
-15.6716 120.772 -2.82679
-13.568 119.437 9.11492
-5.13528 149.05 -3.83408
-14.6487 125.949 -6.83
-15.4961 121.297 -2.61267
-16.1283 122.569 -7.62442
-7.0059 140.225 3.74178
-9.14191 140.709 -6.77638
-16.1657 119.914 -2.66814
-16.1416 121.54 -5.21477
-15.2517 119.363 2.65264
-16.3954 121.953 -7.05265
-12.5881 132.254 -7.52255
-7.6356 144.566 -6.21223
-15.5381 123.446 -5.57117
-15.4026 119.948 1.21761
-16.6606 118.203 -1.47586
-15.5481 123.824 -6.14658
-15.9932 122.595 -5.99067
-16.2794 119.456 -1.76892
-14.9063 120.429 2.83789
-15.2999 121.512 -0.800126
-14.8642 120.625 2.95224
-15.9701 119.017 0.761861
-19.0391 113.958 -4.33732
-11.3573 135.947 -7.4859
-16.1814 120.806 -3.08838
-16.7802 120.576 -5.41925
-18.3259 117.365 -6.58457
-17.1405 118.16 -2.55664
-13.3777 121.686 8.68325
-4.87569 150.755 -2.95292
-13.3166 122.675 7.66133
-16.1136 122.075 -3.831
-16.6546 121.973 -5.80396
-10.2632 132.055 5.85357
-16.9151 119.936 -3.37503
-14.8815 121.118 3.88088
-15.5801 123.872 -3.99141
-5.94358 149.408 -4.18146
-13.5267 122.922 7.31119
-14.9698 121.1 3.91001
-15.8109 123.159 -3.49577
-16.1929 122.927 -4.69194
-8.84964 137.08 4.54537
-11.0114 130.393 6.35455
-6.82948 148.003 -4.94578
-13.0833 132.41 -6.31806
-17.3696 118.065 -0.93652
-15.0669 121.276 4.04596
-14.4349 120.501 8.27787
-14.7412 120.609 6.7581
-17.2988 118.951 -2.00278
-4.9682 151.875 -2.65473
-16.6134 122.015 -3.83715
-4.3939 153.181 -2.18607
-15.9191 124.178 -4.04406
-17.3442 120.143 -3.4195
-14.7206 120.886 7.26514
-17.1288 120.188 -1.9937
-10.2676 133.562 6.10692
-9.04971 137.97 4.15965
-16.4399 124.161 -5.40652
-14.5834 122.315 6.52107
-7.79617 147.031 -5.37472
-9.14203 143.719 -5.73916
-7.6423 142.5 3.21718
-15.4 121.252 5.06324
-14.5506 122.924 6.4678
-14.8894 122.181 6.53913
-15.3375 127.722 -5.11272
-15.1597 127.152 -3.23851
-15.1054 121.629 6.68177
-14.3948 123.993 5.82581
-16.0398 125.081 -3.33402
-9.86517 136.702 4.93051
-9.6587 137.456 4.62157
-15.596 121.684 5.22258
-15.3952 121.931 5.74145
-8.55124 141.4 3.50804
-17.9169 118.471 0.747502
-15.6256 122.128 4.99724
-17.9393 120.342 -1.99946
-14.9183 129.377 -3.89663
-15.9549 121.324 5.46257
-14.8924 129.587 -3.63117
-15.2516 123.543 5.61037
-6.87961 147.638 1.96898
-10.7299 135.486 5.5965
-18.3281 119.953 -1.59651
-15.9674 122.022 5.69624
-18.8075 117.986 -0.162718
-15.7697 122.345 6.24216
-15.7526 123.061 5.59333
-13.6631 135.326 -5.69583
-15.3409 124.425 5.82958
-8.19682 149.161 -4.47433
-10.3005 138.565 4.47384
-13.1476 136.747 -5.22397
-17.1985 125.812 -4.31212
-11.9173 133.407 6.73946
-15.2677 124.979 6.10097
-11.2644 135.074 6.92483
-9.52155 146.81 -5.4642
-15.9652 128.739 -3.28257
-18.5674 121.964 -3.36416
-16.9341 121.065 5.93638
-19.186 117.79 1.43783
-14.2934 134.611 -5.27805
-16.1746 129.323 -4.61956
-11.2291 136.307 5.86306
-12.6369 132.015 6.99245
-18.6114 122.459 -3.50132
-18.8946 121.443 -2.84803
-15.9525 129.053 -2.52565
-12.7279 139.316 -5.57403
-15.8398 129.578 -2.57286
-7.82052 148.066 2.16441
-19.5547 118.955 -0.740648
-16.5448 122.906 6.50229
-19.51 117.713 2.38633
-13.5006 130.976 6.88392
-17.1857 121.717 6.23396
-9.02469 149.168 -4.15435
-18.3343 120.059 4.23753
-15.2816 132.496 -3.33798
-18.3547 120.115 4.27451
-12.495 140.824 -4.93584
-15.3393 133.226 -4.39455
-9.57355 148.463 -4.43506
-16.4528 123.915 6.96522
-18.4654 120.11 4.53682
-20.2931 118.184 -0.27194
-16.6328 130.116 -4.15498
-16.5767 130.234 -4.02305
-15.9769 130.849 -2.33985
-16.1016 125.027 7.28666
-12.3098 142.502 -5.04872
-15.4543 133.701 -3.81851
-14.2834 137.508 -4.96643
-11.573 138.703 5.45143
-18.7119 120.261 5.02726
-11.9304 143.881 -4.82813
-15.5286 133.604 -3.22658
-12.0513 137.213 6.74626
-16.9786 130.39 -3.79869
-15.5606 133.716 -3.06113
-10.7764 147.042 -4.3738
-17.8515 128.658 -4.68469
-14.6909 135.868 -2.76447
-7.51634 153.477 -0.50301
-13.6103 140.024 -4.81004
-13.0445 141.508 -4.70144
-20.3222 120.935 -2.03338
-14.8435 135.807 -2.65142
-12.8306 135.666 7.07279
-11.4079 146.008 -4.39408
-8.87749 148.798 2.33915
-15.0229 135.771 -3.03432
-15.1833 135.116 -2.51551
-15.3403 129.455 6.78652
-14.1044 139.471 -4.95172
-16.4404 126.499 6.93072
-11.3669 141.351 4.96492
-10.8441 147.897 -3.85143
-18.2702 122.424 6.72242
-15.3052 136.04 -3.378
-11.1677 142.325 4.83961
-20.1926 123.173 -3.04182
-21.3676 117.634 1.56214
-13.5677 141.652 -4.45023
-14.5912 132.165 7.46705
-15.7754 129.294 7.05612
-13.0241 136.82 7.08349
-21.4871 119.946 -0.820926
-9.01857 152.179 0.18699
-14.7187 139.716 -4.01461
-22.2454 117.562 0.28205
-20.857 118.739 4.6302
-21.5544 120.058 -0.832161
-22.4106 117.606 -0.170233
-20.9963 118.687 4.40561
-21.9751 117.856 1.45446
-12.098 141.315 5.95859
-12.2077 146.29 -3.14942
-13.6267 142.897 -3.61763
-9.71668 151.689 -0.957719
-20.4717 119.785 5.57177
-12.7774 145.097 -2.37426
-10.5661 147.499 3.54527
-22.408 117.962 1.1795
-16.9492 128.842 7.29425
-16.2764 135.893 -1.82022
-17.9779 126.077 7.59475
-13.7509 137.452 7.21521
-12.5735 141.148 6.28561
-17.1301 133.957 -1.97852
-12.036 142.584 6.27872
-10.9629 146.748 3.98693
-20.0607 127.792 -4.10427
-11.7983 144.548 4.88966
-15.0797 134.761 7.50156
-15.0735 134.984 7.51807
-19.6498 129.527 -3.79867
-23.3206 117.241 0.845676
-23.0994 118.034 0.518472
-11.6521 149.26 -1.4068
-11.9314 145.077 4.92782
-12.3374 147.6 -1.14664
-20.0884 122.544 7.04326
-21.9612 122.788 -1.87838
-14.7825 142.105 -2.38616
-19.2599 130.817 -2.92594
-11.0688 150.534 0.648423
-12.4535 147.667 -0.614912
-14.4555 137.845 7.45393
-14.7598 143.03 -2.62029
-11.9875 149.147 -0.551851
-15.1428 136.222 7.67308
-11.7103 147.395 4.00842
-13.3367 145.843 -0.601913
-12.6276 143.855 6.32465
-20.3564 129.065 -3.145
-20.6713 128.571 -3.15246
-22.2438 123.959 -2.00527
-16.9663 137.619 -1.52455
-13.1572 142.998 6.76905
-23.7273 119.175 0.236942
-18.3469 134.576 -1.83164
-11.9421 148.624 2.98735
-14.6069 144.054 -0.819008
-14.2856 144.712 -0.472115
-17.2668 137.436 -1.35339
-17.9736 130.991 6.71337
-19.1071 127.689 7.33746
-17.3868 137.521 -1.23307
-16.9896 138.617 -1.18023
-12.3709 149.41 1.84143
-19.2245 134.102 -2.61769
-20.5517 130.226 -1.81932
-24.1934 119.507 0.37788
-12.8194 147.305 4.42234
-19.5209 128.555 6.94244
-23.9929 120.791 0.102576
-14.7193 145.446 0.282835
-14.4329 142.327 7.04047
-22.7894 120.863 6.55211
-18.2273 137.074 -0.746219
-21.3965 124.2 7.24524
-16.8391 135.989 7.86832
-20.5141 131.877 -1.65793
-15.0965 140.972 7.40169
-23.4671 123.952 -1.1386
-16.7741 141.322 -0.558115
-21.1724 125.331 7.29603
-24.3138 118.709 4.5856
-20.6881 126.988 6.99961
-14.8301 146.18 0.831589
-13.8247 147.802 2.72
-15.7718 144.32 0.0931142
-20.3852 133.725 -2.1675
-14.2926 145.68 4.85845
-16.6301 142.802 -0.744438
-15.2847 145.567 0.753218
-18.2087 138.621 -0.245746
-25.3777 118.688 2.09745
-23.6577 125.117 -0.844811
-25.6452 118.46 2.18499
-25.0275 120.649 1.20205
-15.7623 141.716 7.00737
-22.624 128.102 -0.516262
-25.8585 117.574 3.02552
-14.9893 146.675 2.13737
-21.2738 127.697 6.59233
-15.9689 145.032 0.738048
-25.7297 118.864 1.74416
-18.164 135.356 7.76661
-22.5166 124.455 7.13374
-22.8693 127.818 0.106433
-22.0481 130.172 -0.163263
-16.433 144.507 0.564053
-21.3566 128.284 6.39297
-21.1835 128.859 6.28267
-24.8765 122.278 0.924088
-15.5702 144.07 5.86277
-17.7422 141.769 0.0929111
-15.7597 145.736 2.30331
-23.6214 122.527 6.86999
-23.0503 123.986 7.08878
-21.4561 128.906 6.17768
-18.6385 139.912 0.490234
-25.8608 119.032 3.8536
-17.297 143.563 0.651937
-25.9893 119.745 2.57156
-22.7947 129.178 0.942488
-21.8266 128.753 6.0981
-16.0409 145.564 3.36391
-18.0487 138.303 7.15579
-18.4213 141.194 0.678692
-25.1553 123.254 1.20142
-22.6593 130.108 1.07652
-19.5296 138.742 0.556262
-18.2536 138.56 7.05167
-24.604 125.845 0.268727
-20.9766 131.721 6.60494
-16.8313 145.052 2.38311
-16.6125 144.605 4.60123
-21.7999 130.263 5.87938
-23.7876 127.83 1.36681
-16.8179 143.88 5.2804
-18.7974 137.764 7.20309
-27.1213 118.376 3.78709
-19.019 138.264 7.02643
-24.31 124.442 6.95398
-26.685 119.255 5.14242
-23.7956 128.699 2.08897
-27.0537 118.955 4.61678
-18.7471 142.703 1.67301
-19.7453 136.973 7.19538
-21.3966 136.177 1.05878
-18.0238 143.351 4.28074
-18.2808 142.115 5.37804
-23.2721 130.471 3.19756
-18.8581 140.293 6.49101
-22.8545 131.614 3.39122
-24.065 129.039 2.47357
-18.6638 141.478 5.60391
-22.6586 131.007 5.59428
-22.4175 134.231 1.22984
-20.4871 136.074 7.0302
-22.6062 133.573 1.71444
-20.9876 138.25 1.03651
-27.6566 118.677 4.65017
-26.8101 121.021 4.993
-22.8103 132.216 3.92475
-19.4692 141.725 3.27349
-21.3304 134.885 6.88282
-21.5645 136.61 2.9281
-22.0807 135.612 2.32211
-21.1567 137.699 2.94829
-22.8153 132.716 4.11002
-26.5632 123.752 2.60252
-19.5273 141.446 4.02571
-25.7366 126.467 1.77117
-19.7887 140.407 4.70651
-27.9089 119.044 4.83786
-20.1604 140.701 2.92315
-22.611 133.955 3.48732
-20.0912 140.826 3.07402
-21.8135 136.341 3.16677
-20.1979 140.53 3.36212
-22.5294 134.594 3.06208
-20.5105 138.172 6.18605
-20.9483 136.941 6.3716
-28.0776 119.743 3.84952
-24.8448 126.63 6.74453
-20.4993 139.307 4.80053
-26.4838 123.425 6.54717
-24.5601 128.927 6.10468
-22.3538 136.042 3.99231
-21.6868 137.413 4.92509
-24.9506 129.846 3.35976
-22.3797 135.434 5.84449
-28.5895 119.695 4.97314
-23.9556 131.959 4.90082
-28.1109 121.864 3.55297
-24.1777 131.665 4.7453
-23.1092 134.169 5.76862
-23.0065 134.55 5.6953
-26.1443 127.591 3.52283
-25.6239 129.18 4.3331
-24.3021 132.304 5.53829
