ply
format ascii 1.0
comment Created by Open3D
element vertex 1505
property double x
property double y
property double z
end_header
-1.57431 91.2362 -1.24745
-13.6289 78.5614 0.899894
23.8669 121.927 -4.84062
-13.5229 109.324 7.67227
22.0937 144.001 0.779899
2.5045 94.7418 -2.07701
5.75929 96.4907 -2.99147
8.98088 102.905 -2.89173
9.82882 125.712 1.80368
-13.6309 108.544 7.62433
18.9952 131.03 -0.742205
-12.7832 118.797 9.56143
-11.4372 121.766 9.66754
20.4665 123.891 -2.89056
-13.6006 107.819 7.50292
9.03086 129.22 3.01246
-1.00071 91.44 -1.19319
8.86005 127.961 2.83908
2.86303 131.252 6.02568
-3.68423 126.996 7.76649
-10.3098 80.0917 0.130173
15.1423 130.191 0.783615
-11.9236 88.6658 2.70384
9.55647 115.12 -0.241018
-14.061 96.6275 5.33917
-7.07384 85.4816 0.023137
8.29348 112.898 -0.189625
8.81075 127.217 2.76272
-14.0997 100.959 6.34569
8.66426 124.414 2.23244
16.567 120.906 -1.77319
-2.9087 90.381 -0.53872
1.34003 93.3739 -1.61234
-14.0613 101.134 6.40483
-6.06485 124.892 8.40096
8.76439 106.057 -1.81327
-8.96843 124.508 9.52602
-13.1329 77.9846 0.96424
9.85904 124.653 1.86349
-12.8029 74.4996 0.0823084
13.7155 113.533 -2.14879
-13.9633 99.462 6.07297
8.88691 123.905 2.1335
-10.6089 121.764 9.64065
13.1809 135.741 3.01325
-12.6794 83.9087 2.20388
8.53595 110.495 -0.596814
21.2632 122.244 -3.19849
16.602 122.661 -1.19204
-2.6781 89.8995 -0.524812
16.0298 147.223 4.47703
10.9551 124.77 1.59857
4.80018 133.158 5.99361
1.84973 92.672 -1.72624
20.6543 145.27 2.22407
17.7063 130.016 0.0780909
22.6627 142.894 0.899001
-1.74716 89.7184 -0.833036
-2.40252 89.588 -0.563921
-12.9422 117.073 9.83768
9.12761 105.978 -1.61772
-11.5976 119.469 9.84019
13.9603 111.62 -2.34151
-13.2538 109.304 8.28231
17.4899 130.908 0.479145
8.81459 135.691 5.08632
9.37321 122.76 2.00892
15.4727 128.243 0.735568
1.05675 126.377 6.23602
-11.1716 87.9465 2.75806
-9.5233 122.18 9.65483
18.8458 129.288 -0.37654
17.06 123.192 -0.991172
25.3842 130.699 -2.73848
-12.6573 112.339 8.77084
9.13436 106.512 -1.42545
10.2107 122.615 1.69768
-4.52098 88.4601 0.199068
10.9059 112.614 -0.777019
-0.742428 90.4953 -0.887677
15.4481 129.428 1.0877
-12.3255 113.872 9.01461
-4.51894 88.4525 0.218904
7.88852 133.678 5.13147
-1.88354 89.2872 -0.652532
13.3066 136.437 3.53992
13.6177 140.743 4.36601
16.5821 117.661 -1.92973
6.83675 133.829 5.63559
12.5652 130.687 2.60126
-9.95412 121.653 9.82386
13.259 110.804 -2.06286
-13.1898 103.567 7.162
8.12956 122.856 2.70066
-4.59183 88.2874 0.284502
17.2218 128.986 0.388486
-12.658 110.687 8.57135
-3.92628 88.9623 0.218204
23.2728 137.896 -0.0945961
7.69783 125.306 3.49908
2.14084 91.6752 -1.64735
15.3504 146.099 4.96229
-10.6368 73.9589 -0.311219
15.0964 111.735 -2.49154
15.334 111.953 -2.52942
-12.2801 79.5928 1.63832
-8.24986 80.6014 0.239424
17.0994 146.167 4.34333
-6.59654 124.403 9.23519
16.592 120.42 -1.11854
9.37814 108.537 -0.75698
16.1125 126.607 0.483526
12.2832 128.198 2.40079
20.5514 124.628 -1.76434
15.7288 112.62 -2.43153
-12.9892 106.847 8.04038
7.62162 96.9948 -2.55833
23.9895 123.877 -3.30854
23.8813 124.791 -3.03392
7.52789 122.967 3.25241
4.00103 92.358 -2.05673
1.81181 128.391 6.79202
-11.3738 84.9116 2.59553
-3.71912 124.928 8.30139
1.55501 90.9601 -1.35015
7.87081 122.168 2.96276
21.5275 123.953 -2.22717
7.89387 132.594 5.30839
8.88412 120.008 2.13572
10.5638 101.102 -2.67376
16.5911 126.314 0.432901
9.20753 120.048 2.08245
16.1212 120.692 -0.594101
17.088 128.735 0.788019
-11.607 84.056 2.66634
3.07007 130.201 6.86079
17.1676 128.852 0.801018
7.20449 123.187 3.66595
11.5326 124.4 2.1683
8.05663 127.252 4.22146
18.1729 131.245 0.982627
7.16736 123.441 3.76417
15.2774 110.801 -2.33773
13.2257 136.987 4.28026
12.0511 109.457 -1.27846
10.1003 108.138 -0.762126
21.9113 123.132 -2.27793
-9.89503 74.2154 -0.061755
-9.82571 79.5969 1.09891
-11.75 94.0872 5.09201
7.26964 121.28 3.32712
-11.9214 81.0844 2.31509
14.1109 109.365 -2.05472
18.7917 125.616 -0.380156
17.0805 128.696 1.00785
16.9509 116.353 -1.65334
-11.3317 91.9084 4.54539
7.08915 122.359 3.73819
-6.71822 81.3477 0.337224
7.01897 133.188 6.17071
7.81138 129.468 5.02671
2.48881 90.3426 -1.43008
18.0409 130.601 1.09387
2.99154 129.825 7.08354
23.1526 125.364 -2.14563
12.2312 108.877 -1.30529
18.9407 125.76 -0.304567
-7.27191 80.9262 0.541566
24.0132 136.348 -0.0203302
12.4042 127.427 2.76016
16.9627 116.294 -1.55355
-11.7499 117.165 10.4073
10.7357 102.005 -2.11483
25.1547 133.016 -1.1575
19.2261 125.084 -0.46783
-10.4025 89.4498 3.81858
10.5048 98.1957 -2.79463
-6.62892 83.0654 0.899202
-6.88081 123.367 9.92247
-6.46844 82.5512 0.747507
10.6203 120.072 2.0508
17.2465 121.956 -0.242651
-12.5434 107.096 8.66644
-12.379 104.365 8.004
-12.1338 114.033 10.0491
9.28773 118.141 2.21193
-6.85723 122.397 9.76342
4.31313 130.597 7.00847
23.1022 125.401 -1.80474
-11.0361 76.8772 1.45021
18.0728 113.634 -2.33436
14.7013 143.7 5.67917
-6.31196 82.8375 0.853531
17.8924 128.128 0.961107
-6.46351 83.8384 1.15395
10.7799 107.316 -0.699164
-12.3545 96.5098 6.4022
-12.0559 111.769 9.65186
-9.91387 77.6132 1.25226
-12.7746 99.9798 7.36906
0.120901 88.2908 -0.476198
-10.1285 119.634 10.6455
0.607405 88.5679 -0.59546
11.4774 122.576 2.46701
-5.96576 82.366 0.730728
-8.76724 122.165 10.6651
14.1511 108.638 -1.68902
23.2833 139.716 1.45418
11.3153 122.033 2.46969
-6.79468 120.646 9.57852
-4.90237 121.128 8.92851
-2.69467 124.372 8.75843
17.2829 121.391 -0.0625712
11.8374 123.25 2.57496
-10.2091 77.8119 1.59694
-5.681 123.525 9.83269
7.65898 116.561 2.84276
-10.3964 84.2202 3.1013
-5.98647 84.129 1.28313
7.83528 116.461 2.77153
-4.6389 121.234 8.92806
8.74072 116.225 2.35832
-6.1294 119.346 9.13046
11.0435 104.321 -1.19939
18.5277 123.884 0.0623189
-5.32212 119.919 8.94172
22.4674 124.007 -1.52004
11.0973 104.946 -1.06276
13.224 106.645 -1.5492
-0.0512624 87.9376 -0.241454
5.89787 129.26 6.44449
-11.7104 95.9133 6.28926
-8.45867 79.7949 1.40793
-9.72641 74.8695 0.84412
2.05314 124.551 6.99161
11.4715 98.476 -2.61278
-0.845139 123.215 7.88476
19.4784 129.696 1.00435
24.133 126.958 -1.49248
0.44624 122.324 7.21241
-4.1613 120.835 8.77658
-10.8847 81.0335 2.74498
-8.1353 121.56 10.5729
-10.0044 77.5047 1.63134
-7.368 120.709 10.0976
21.2123 143.308 3.4099
6.54723 125.617 5.52643
-5.87606 118.656 9.07324
1.93488 123.294 6.90268
-7.13799 116.813 9.19368
-10.0503 118.125 10.6924
17.9421 114.516 -1.54956
15.3502 109.082 -1.68139
6.18583 128.476 6.38827
13.186 105.835 -1.46477
12.2586 106.265 -0.962782
22.9934 122.333 -1.77453
-7.35675 115.8 9.20518
-3.19923 122.065 8.90836
-12.0177 106.139 9.00624
-7.87175 80.0403 1.55475
-5.9838 81.3512 1.08161
6.46143 124.834 5.60052
19.5956 126.09 0.55158
20.2948 143.395 4.09369
-11.9893 97.8862 7.25718
1.9494 121.884 6.86699
11.9956 105.53 -0.847406
10.7218 117.722 2.37771
-12.0097 102.073 8.24389
-5.21837 118.154 9.02381
14.0787 104.982 -1.76599
17.809 121.848 0.435605
-10.6327 94.9723 6.15268
7.30719 93.2672 -1.54836
-4.68175 82.0442 0.887471
21.4873 124.073 -0.53227
2.21764 122.875 7.09542
8.97092 114.201 2.42914
16.3039 127.433 2.36841
-10.8612 115.565 10.8826
3.64858 127.419 7.56958
0.931644 87.8872 -0.0308526
4.37753 127.836 7.39114
14.7848 141.93 6.24538
5.43528 128.157 7.06458
15.5808 142.336 6.0568
18.4917 142.187 4.83653
2.26369 122.316 7.10563
12.4608 123.876 3.28053
17.5017 117.794 -0.12172
12.8301 100.807 -1.95945
26.1163 129.167 -1.13061
-9.3168 91.0315 4.96567
22.7385 123.812 -0.896039
-6.25184 78.4016 0.940376
16.7691 125.8 1.98686
-9.00031 85.765 3.72341
12.7504 99.1253 -2.22298
1.6563 88.2312 -0.0765494
-6.08894 114.933 8.98456
22.742 124.678 -0.639612
7.93367 112.54 2.761
19.4634 142.457 4.64845
18.6627 125.043 1.1564
22.4849 141.365 3.1968
-11.64 110.327 10.317
20.0918 142.525 4.46541
17.4777 109.768 -1.6787
8.2214 112.51 2.72782
18.7414 130.499 2.43569
-9.58491 117.334 11.1151
-9.5389 80.5047 2.97658
-7.83541 113.251 9.50978
-8.85939 114.663 10.2514
20.105 142.256 4.49582
22.8897 138.387 2.51285
-8.52389 77.895 2.01874
-3.41571 85.0535 1.51297
14.8913 105.737 -1.39606
-11.1642 112.366 10.7332
13.0242 129.095 4.54055
6.75142 116.707 4.37394
-9.84527 92.8932 5.9126
-6.31804 78.7552 1.36153
22.9142 139.914 2.91253
24.414 134.306 1.07278
17.5883 118.122 0.2954
16.8611 119.545 0.920679
-7.86913 112.982 9.58762
-5.53248 115.651 9.23682
-2.92381 119.669 9.09699
14.727 141.258 6.6451
3.55136 125.099 7.66068
24.1423 134.693 1.3658
4.91515 89.4507 -0.747686
-8.34227 86.357 4.0004
-9.35007 116.825 11.16
0.609486 120.255 7.8469
2.92083 123.459 7.61412
-8.4313 77.0379 2.01793
12.6754 124.045 3.7934
7.60829 111.081 3.01111
3.68303 124.436 7.56653
5.32284 125.767 7.19276
7.44952 111.459 3.18706
21.0706 141.152 4.17048
21.5958 141.048 3.93766
9.64006 112.712 2.59101
6.38127 119.818 5.49559
-11.0585 97.1942 7.6384
12.4707 98.1345 -1.77199
-8.11021 88.8618 4.60677
-5.49063 81.1512 1.8445
13.996 101.032 -1.71889
16.8372 126.531 2.76167
-4.0301 84.2243 1.97196
-10.6017 96.3542 7.35646
11.9317 118.368 3.0124
22.8328 134.855 2.1927
-8.28333 75.6036 1.84955
17.1457 140.744 5.83449
-3.93966 114.564 8.69658
6.44262 117.574 5.1166
4.67527 123.646 7.19091
13.5705 138.398 6.8143
21.7522 140.298 3.89026
-7.65343 111.983 9.684
19.8436 124.43 1.18789
-11.2013 108.177 10.3037
-8.1848 76.5009 2.10293
-3.8089 84.0069 1.97224
20.175 124.351 1.07822
18.6782 128.36 2.5841
14.8121 102.673 -1.49168
-8.83604 110.863 9.98857
-1.27785 119.29 8.77321
5.92186 123.797 6.82615
-4.33421 115.934 9.2885
-9.42473 112.532 10.6331
21.2745 139.604 4.06195
22.8994 135.346 2.47158
6.44928 117.127 5.18205
-8.78852 81.969 3.69714
6.39111 114.034 4.56805
21.1671 123.806 0.686608
-7.83919 86.423 4.31327
23.0851 138.108 3.0732
5.86392 122.928 6.76817
-3.05164 118.171 9.37239
13.0162 125.616 4.45264
-10.9476 108.421 10.4641
16.7654 108.029 -0.955289
17.4739 117.85 0.926769
-10.3648 111.023 10.8143
-2.2146 119.186 9.29978
-9.15895 93.6362 6.51443
-5.45267 112.152 9.08795
-8.07092 78.963 2.84525
-9.88664 112.297 10.9684
-3.20156 112.874 8.37374
17.834 129.349 3.41317
-6.27653 80.4235 2.47778
12.1711 118.523 3.34667
-3.3728 114.343 8.78956
-10.7581 110.664 11.009
-6.46791 75.3956 1.48999
12.2921 119.151 3.47768
-1.65446 118.545 9.05075
3.98705 88.4584 0.112943
14.0169 139.432 7.27323
-6.89909 111.421 9.67401
8.64184 109.251 2.84763
17.3289 128.395 3.52869
-7.3352 77.1714 2.34863
9.29824 93.5372 -0.838099
-3.22276 114.984 9.04404
11.6845 96.7139 -1.06816
13.7266 99.0102 -1.3897
-10.6278 107.856 10.528
15.6027 139.351 6.75502
-3.0602 114.7 9.00733
-2.97969 114.187 8.8732
4.09631 88.2619 0.269231
23.0471 138.831 3.6885
20.3065 125.411 1.86507
13.1 136.661 7.3106
19.0809 127.865 2.92544
16.1813 138.999 6.57616
18.8034 128.44 3.17854
7.98401 91.156 -0.611259
-10.5042 109.247 10.9467
-6.31072 111.124 9.64851
-6.0806 79.9002 2.69991
15.3998 138.028 6.75008
23.3039 130.562 1.89222
-2.59814 84.0553 2.22751
23.158 138.511 3.72766
0.393173 117.429 8.40541
20.615 125.128 1.84743
6.09215 111.653 4.85379
-7.91527 85.1059 4.73454
18.1161 129.611 3.90996
18.8509 110.482 -0.59294
10.1132 93.9515 -0.651625
-7.0288 110.258 9.96216
-4.61284 107.935 8.46511
12.6951 120.18 4.11992
18.7183 109.273 -0.742913
-6.01748 109.798 9.50763
12.2017 132.785 7.17322
6.5796 109.892 4.42996
8.77389 107.136 2.94069
8.09712 106.258 3.03385
-7.40156 90.7792 5.95669
-10.0176 108.255 10.884
-1.7165 110.722 8.06227
-0.758483 116.858 9.02475
21.485 137.892 4.5966
-8.021 83.8178 4.77772
19.0354 120.493 1.81774
-8.79816 95.2225 7.63089
2.41341 86.5259 1.13078
-6.30358 75.3309 2.23508
-10.2494 98.4441 8.95564
7.85402 106.408 3.31197
17.6445 128.02 4.08003
13.0449 97.3726 -0.778846
-1.83277 82.7233 2.09865
18.0474 137.959 6.16403
16.5589 137.506 6.68231
-6.35446 109.212 9.81265
17.4019 127.641 4.16942
-2.0732 115.869 9.53762
6.22494 110.04 4.87093
-7.92822 83.6866 4.84755
11.7731 113.393 3.35132
4.78023 119.868 7.64103
25.0875 126.194 0.744682
-1.14123 116.474 9.33229
12.647 128.821 6.42422
-4.11014 78.8401 2.26865
11.9386 114.077 3.51017
13.0147 128.097 6.20013
-2.26076 107.725 7.96487
4.32343 87.3545 0.778929
16.8516 137.153 6.6577
-1.64847 115.3 9.40134
12.6316 118.352 4.23954
17.6339 137.963 6.53608
-7.35763 79.5189 3.86446
9.05821 105.321 2.87369
11.5515 111.769 3.2782
-5.6431 107.154 9.29418
-2.07101 79.5264 1.76488
24.1977 125.968 1.29232
6.52709 88.2042 0.196873
13.1217 127.287 6.1253
-5.83863 107.189 9.44541
16.964 136.722 6.64031
21.838 122.165 1.44905
-4.22066 79.9159 2.79605
-3.54835 105.982 8.27462
8.17337 89.1645 -0.227429
-6.00542 107.105 9.58321
2.62622 86.2435 1.45918
-0.855249 113.035 8.79706
0.126108 85.4508 2.32154
17.643 117.709 2.28067
-4.41603 105.643 8.64836
12.9965 127.911 6.46114
-0.765572 109.779 8.09486
23.3613 136.134 4.08926
-5.72007 76.0069 2.71495
-6.03379 106.757 9.63248
-1.59102 106.388 7.73885
25.5937 127.049 1.18663
6.58152 87.9672 0.390354
-9.89852 102.607 10.3679
0.252875 85.3217 2.40498
18.3351 117.913 2.21395
19.397 110.924 0.238281
21.9856 136.826 4.90226
-8.4456 107.498 10.8789
12.0376 130.995 7.69678
17.6677 136.359 6.58537
17.4824 127.185 4.64181
-7.53993 82.3069 4.97362
-9.75167 103.287 10.5096
3.12505 117.601 8.42391
23.4532 128.13 2.44324
18.6829 124.389 3.59871
-8.76034 96.163 8.62025
22.1178 122.502 1.80575
-4.5518 104.71 8.81327
9.89675 90.6793 -0.170574
13.1472 122.666 5.5772
18.4506 128.265 4.65811
18.6178 128.324 4.60504
-8.01333 106.713 10.7526
23.346 126.451 2.29325
-9.62825 101.885 10.3805
18.7146 105.918 -0.313247
13.1448 124.466 6.05805
-6.13945 105.924 9.85548
1.58604 115.838 8.89366
10.5564 92.9932 0.190192
0.339006 109.891 8.0981
-0.652166 107.721 8.03694
-0.882958 105.573 7.65981
-4.19352 79.0436 3.21159
9.60522 104.336 3.15518
21.6916 122.778 2.30146
0.161999 114.632 9.31142
14.1023 134.945 8.1019
-9.06867 105.551 11.0942
12.0279 129.516 7.75525
17.6769 125.939 4.65704
0.80471 110.329 8.11709
2.11977 116.055 8.84373
18.6941 117.707 2.43299
-0.372847 107.576 8.00701
22.6031 121.891 1.79099
19.53 111.773 0.823558
3.02289 85.8885 1.87028
-0.310697 105.513 7.57138
17.1876 101.421 -0.483577
-5.58823 87.1118 5.6795
13.1889 96.4613 0.0794551
5.03179 86.8326 1.29287
0.45094 112.814 8.91286
18.8034 126.815 4.50342
12.0737 95.0831 0.254116
1.52012 85.3576 2.46924
0.52343 112.921 8.95953
12.1891 111.072 3.81742
-1.07453 104.503 7.80414
0.00943867 105.23 7.53609
-6.19422 91.9974 7.16581
0.382582 108.394 8.13531
24.2891 131.667 3.51026
8.75837 88.0813 0.269857
7.98975 102.219 3.71879
18.0666 125.663 4.78201
11.0841 106.462 3.40688
-6.5266 80.3317 4.84539
12.4807 112.961 4.30437
24.4598 130.782 3.36507
23.3711 128.469 3.30359
17.1943 134.817 7.2309
-6.4307 82.6108 5.38016
4.25576 115.551 8.28044
22.8835 121.41 1.97839
12.3529 131.743 8.56518
24.206 131.295 3.62194
5.91116 86.7997 1.31531
11.1249 106.157 3.46686
-6.28901 83.5505 5.64764
-2.17351 102.611 8.17852
12.0144 128.849 8.1933
12.6654 114.112 4.68665
-6.16009 80.9842 5.10372
23.9104 127.128 2.99274
18.2191 114.49 2.53208
15.9699 134.553 7.88688
-7.10694 94.6446 8.54119
1.2942 108.099 8.08938
18.8806 125.932 4.83389
7.78536 103.279 4.39058
18.0132 126.185 5.28105
11.9569 93.4858 0.554881
15.2749 133.938 8.12576
-8.6352 102.193 10.9089
25.3088 126.818 2.4671
12.7454 114.735 4.94496
-6.09336 84.173 5.90631
22.8571 121.375 2.28818
20.147 120.264 3.15651
9.79328 88.3271 0.347078
12.6052 94.7059 0.618368
6.05161 107.74 6.21904
15.3352 133.506 8.11036
-6.30958 103.955 10.4433
18.6098 125.358 4.97839
2.24493 113.806 9.12226
19.7671 108.791 0.853545
7.47915 102.893 4.58586
19.6918 134.553 6.60772
20.2049 134.8 6.47331
19.3102 124.185 4.50888
17.8147 115.154 3.13031
20.3421 121.46 3.49805
-4.81714 86.9405 6.17955
12.6372 127.475 7.9868
-5.69333 80.7237 5.18303
12.8007 114.917 5.16786
15.401 132.997 8.09749
1.77634 107.547 8.05752
-5.68524 81.5966 5.38349
-1.38735 80.5713 3.40852
3.36456 85.0689 2.46418
-6.23067 103.55 10.4697
13.9097 96.541 0.697012
2.52101 110.405 8.43326
-8.42848 98.1825 10.215
22.8374 122.224 2.74628
13.1167 94.8752 0.693875
14.3869 97.062 0.709608
6.19991 101.921 5.14949
19.7189 106.12 0.555982
-4.45761 75.728 3.74165
20.2516 125.755 4.69299
6.07447 101.828 5.21494
4.53301 111.795 8.06018
-5.24658 78.9579 4.81605
-7.03606 102.597 10.7811
21.4807 133.868 6.02001
12.0846 107.956 4.15274
16.9873 100.042 0.409837
19.8277 111.614 1.80669
4.43576 110.836 7.94996
20.7028 126.366 4.73823
18.1961 130.701 6.7421
24.3926 130.087 4.07415
23.0824 131.418 4.90481
-8.35999 99.347 10.6898
12.7609 93.1727 0.694583
12.1377 108.342 4.29782
1.60203 103.169 7.48462
12.0794 107.547 4.16892
17.5573 100.461 0.374568
10.8694 103.362 3.75829
20.9398 126.947 4.84608
18.7612 114.103 2.92213
-2.31781 76.0105 3.13801
12.0961 107.651 4.2309
24.6063 126.892 3.36818
1.69261 83.6229 3.1914
2.28693 83.946 3.03927
5.56504 98.2454 4.87185
12.8103 114.375 5.47189
3.86549 104.282 6.90734
-6.69239 95.1992 9.22547
23.5003 128.467 4.22014
12.6608 112.689 5.1776
19.7316 133.503 6.90278
-1.08736 76.4204 2.83258
13.0691 122.681 7.25583
23.265 122.166 2.98665
1.56609 102.688 7.56768
18.4799 125.567 5.70225
16.0075 131.234 7.99109
6.80683 103.957 5.77664
-7.9651 98.7397 10.6709
-4.97408 84.9999 6.42284
3.25564 107.873 8.1065
3.48609 108.609 8.1763
4.03418 104.839 7.14342
3.67106 110.514 8.57058
20.3964 122.886 4.47631
5.50433 101.838 5.93184
-4.1639 78.7607 4.80027
2.13302 102.544 7.47393
-4.70105 80.0391 5.31969
9.09897 100.545 4.22103
23.3841 121.561 3.04284
-4.52593 89.8811 7.46978
-5.61056 100.955 10.3849
-0.780399 78.9963 3.59144
23.662 127.359 4.26807
4.66685 84.5131 2.60824
24.2372 130.721 4.80594
6.73397 85.6055 2.00865
8.52273 99.7013 4.38877
-7.16029 100.699 11.0247
-4.48921 81.2436 5.64457
4.81844 97.8144 5.49814
4.80315 107.272 7.59268
19.7796 131.425 6.79992
-6.57634 96.0976 9.78314
3.79791 103.394 7.17235
15.9785 98.2094 1.05749
19.7854 124.698 5.36365
14.2903 94.7236 0.997816
-5.41634 92.013 8.46081
17.6432 99.861 0.784602
2.7502 102.57 7.48042
17.0623 130.763 7.86811
23.7535 126.727 4.24339
18.2749 100.398 0.678117
18.8398 125.204 5.9307
12.8971 91.0322 0.836674
-6.64998 96.4249 10.0223
-6.67699 100.659 11.0237
-0.486851 77.7012 3.43409
19.5145 116.937 3.9246
16.3059 130.473 8.22749
20.2134 111.815 2.57635
12.2712 107.441 4.86916
20.8338 130.057 6.36194
9.06448 97.174 3.92493
22.5246 121.271 3.74113
12.26 107.085 4.82438
8.31108 96.1946 4.04793
18.3744 129.122 7.20033
-3.99923 81.4509 5.83522
12.1146 104.197 4.26863
-4.21316 89.42 7.73009
21.5813 126.682 5.41912
-1.77307 99.335 8.95056
-4.94563 99.1062 10.2018
24.2948 126.914 4.39655
1.99022 101.69 7.9568
4.05649 97.0783 6.11577
20.2186 117.983 4.14629
-3.76515 87.0841 7.15101
-3.02178 77.7102 4.79121
-4.73328 91.1109 8.45763
21.0638 131.027 6.73881
-4.15574 98.3256 9.83815
-4.23557 84.7888 6.88432
13.7496 91.8732 1.09492
23.6645 123.886 4.12106
20.1037 123.759 5.56656
-4.31348 82.2517 6.3976
-5.77223 99.6656 10.8465
9.10178 96.3388 4.03923
24.0039 128.363 5.02874
20.895 123.307 5.21187
15.6959 96.051 1.33103
4.11775 100.887 7.16221
10.5451 86.6735 1.39787
14.5458 93.3355 1.27829
23.1861 127.315 5.25416
1.49902 78.1692 3.2824
16.1392 96.6962 1.38388
13.0986 117.882 7.33651
7.51806 94.6784 4.50072
-6.23041 99.3989 11.1857
10.0723 97.9258 4.21822
4.31415 95.3172 6.02172
20.9084 125.331 5.85969
1.88791 80.5815 3.77475
-4.06242 82.4126 6.66009
4.92061 102.645 7.4604
21.2046 119.879 4.62262
13.7754 129.875 9.87511
-3.53043 81.5092 6.27993
-4.07596 83.0136 6.83701
20.2475 108.9 2.64042
9.08642 95.2998 4.21427
22.6176 121.817 4.53712
21.6141 126.388 5.97687
-0.416858 99.3699 9.05271
24.75 126.644 4.782
20.6618 124.529 6.0004
2.03754 80.2261 3.85794
24.4735 126.391 4.87013
-3.40184 97.7243 9.97483
15.0971 129.037 9.3313
23.6457 130.506 6.17965
19.2984 100.671 1.39439
12.6351 109.897 6.15527
19.4931 101.056 1.41847
-3.37372 86.8358 7.65193
9.76573 96.1254 4.32999
-4.93256 92.2182 9.49498
19.9901 127.462 7.08784
2.01557 79.8893 3.95707
10.0761 97.2137 4.49999
20.3868 104.445 1.89105
8.52239 94.293 4.50471
3.31594 98.2754 7.52552
21.1619 126.939 6.57551
12.0928 127.488 10.412
15.9173 127.452 8.84681
9.5787 94.9733 4.27912
-3.4113 97.2201 10.103
16.7842 127.439 8.53084
-0.58617 77.8842 4.70117
-2.72848 80.7073 6.21623
24.2699 127.249 5.46451
0.106216 78.6792 4.6445
17.7782 128.134 8.35574
20.3643 109.192 3.13475
-2.14404 97.6488 9.79722
17.2611 97.0828 1.74804
3.1347 101.089 8.44658
13.0141 112.8 6.99453
-2.17969 78.743 5.72819
6.95277 83.2477 3.02
13.0458 114.885 7.50975
-3.28203 83.5434 7.27545
5.50439 82.1936 3.38842
21.9753 128.839 6.9749
24.6052 127.547 5.62124
-2.43538 80.3458 6.2713
-5.73813 96.3148 11.1479
21.0933 118.773 5.13574
5.10467 91.0482 5.56295
2.3654 77.9909 3.82261
24.1472 130.1 6.41662
20.8913 118.169 5.12118
25.1329 129.064 5.80208
24.353 127.593 5.79866
12.1297 101.732 5.10276
22.7547 130.707 7.16624
17.3867 126.595 8.46748
3.3024 77.8222 3.56584
25.7544 126.01 5.01749
-4.93148 93.9698 10.5337
-3.45154 89.9037 9.0338
19.2999 114.954 5.2633
25.0323 128.951 6.02695
-2.88879 83.3897 7.3982
9.14408 93.0201 4.60402
24.674 129.336 6.27799
-3.29119 95.7382 10.3208
3.05547 79.354 4.12323
15.758 93.0249 1.95838
0.494007 98.597 9.46403
24.4036 127.109 5.98451
3.23974 91.5676 6.83654
25.5883 125.511 5.19179
-1.86282 96.9136 10.1094
3.17024 92.002 6.97405
11.8916 100.008 5.1818
6.03103 91.1362 5.63453
-3.95017 95.1744 10.6319
25.5617 125.713 5.3075
14.4655 126.561 10.0404
6.32146 91.7451 5.69059
24.6491 127.182 6.02833
10.2552 96.2263 5.12326
23.9976 127.814 6.47394
-0.754272 97.395 9.8891
19.7426 114.643 5.36336
12.3162 103.436 5.93079
3.80828 93.3227 7.19601
21.3869 124.245 6.8391
12.785 126.587 10.8745
6.50828 91.6548 5.74717
-4.38239 92.3976 10.3819
0.384668 97.8482 9.64778
20.6407 107.383 3.49196
21.5708 112.028 4.14958
9.83147 83.5166 2.69909
-2.31961 95.3307 10.2847
0.0723296 97.3938 9.76709
12.8115 109.892 7.32658
-1.61628 79.4388 6.50963
11.2873 85.9435 2.68848
12.4256 125.832 11.0284
3.5611 93.4924 7.51904
8.0617 91.5494 5.26861
-2.65051 94.8113 10.3694
12.9797 116.664 8.80269
3.15897 93.0573 7.61762
-4.28155 94.5961 11.0021
0.431523 97.3683 9.70537
3.27555 79.1474 4.53877
6.63852 91.7487 5.94587
20.6704 108.779 3.98166
11.1854 85.6535 2.78883
3.88793 78.3533 4.19194
13.048 111.818 7.8324
20.6281 106.114 3.48595
7.65588 91.9161 5.68581
-1.99075 83.7958 7.88072
20.7298 108.717 4.14204
19.3516 97.8479 2.31595
16.0585 91.9577 2.36817
3.40859 89.799 7.09906
20.6324 101.554 2.66412
-3.11105 94.1416 10.749
12.6913 104.877 6.66618
13.072 125.977 11.1686
12.8704 117.862 9.49179
-2.42741 94.2421 10.5395
5.17768 77.9495 3.84642
0.846445 96.2021 9.65253
4.348 79.4663 4.53088
3.46586 89.5353 7.11442
4.93447 88.8764 6.37181
22.4188 126.293 7.49127
12.4946 104.037 6.63912
-4.30243 93.2984 11.1808
12.8756 109.702 7.78188
12.1226 101.755 6.34339
-1.33242 80.1644 7.08669
12.8017 116.971 9.43139
24.1852 124.097 6.37692
11.535 85.7691 3.10794
0.414336 92.3587 9.11046
4.00805 79.5386 4.84508
4.58194 79.677 4.66118
1.39862 78.8665 5.79845
7.18027 91.1932 6.15583
20.6437 117.844 6.54724
20.0871 99.0371 2.63298
6.93175 91.9016 6.46905
12.9227 115.338 9.19589
14.2485 125.384 10.88
7.14101 89.4477 5.85809
18.6888 125.491 9.09656
2.22428 95.46 9.21621
24.6255 125.008 6.58854
20.8072 103.551 3.42923
13.8175 88.0319 2.88348
0.806852 91.9004 9.06146
-3.83993 93.4128 11.3345
14.2198 88.3002 2.84897
0.561152 91.8469 9.22897
19.6919 115.762 6.68678
7.50554 80.4364 3.87617
16.8707 92.4565 2.70619
0.552266 92.9733 9.49571
11.6666 85.6657 3.33879
12.4329 103.579 7.01878
8.93607 87.6997 4.97365
7.11564 91.9811 6.67184
8.31162 87.2675 5.14309
2.00092 94.811 9.39148
7.99419 87.4466 5.33454
12.8049 105.29 7.32878
7.33648 90.8853 6.40708
1.69805 79.1277 6.12026
6.88711 90.0559 6.41071
12.5898 116.244 9.85924
7.74804 91.1697 6.37323
21.457 112.384 5.45193
0.0678752 92.7073 9.88731
13.5902 125.119 11.5096
20.7554 101.071 3.28964
6.58632 89.7794 6.59825
-1.33822 82.5086 8.35299
11.4686 84.9281 3.66502
19.4557 118.983 7.93946
19.5491 114.699 6.95717
9.65894 97.8069 7.29746
-0.307259 92.4563 10.215
9.84698 95.6234 6.78928
7.26387 89.3296 6.47087
20.0918 123.105 8.68048
21.3976 108.859 5.01189
1.82141 89.6736 8.79426
12.5821 115.233 10.0454
-0.910878 91.7941 10.3928
-2.76574 92.4264 11.3462
0.160733 80.4121 7.506
4.53594 80.0374 5.66775
8.41389 89.2464 6.11942
14.8708 88.131 3.23409
13.5639 86.6337 3.44311
21.9116 110.347 5.28909
-2.69089 92.5618 11.4388
-1.72385 86.6816 9.76919
11.5166 84.6748 3.91178
16.8648 90.5659 3.0494
10.3554 85.7192 4.65298
-1.46167 93.0907 11.1194
10.8065 100.595 7.76496
5.35976 78.1897 5.04979
6.7888 86.9829 6.41282
7.14803 87.8077 6.47716
4.83263 78.4425 5.36429
8.25714 80.1433 4.35719
-1.81359 89.4655 10.554
9.24051 85.2497 5.11245
6.6711 90.2075 7.27844
7.32423 90.546 7.11286
8.13399 84.0398 5.3494
22.0672 110.608 5.51957
9.8923 81.8786 4.19596
12.6138 113.632 10.0906
18.9706 120.101 8.93915
10.8237 100.763 8.01167
12.9535 105.497 8.19133
11.6204 84.4844 4.10197
15.064 124.457 11.5309
6.28237 78.437 4.97822
-1.52327 87.1399 10.0988
8.76825 84.0151 5.20068
-1.78914 92.6636 11.4418
17.6771 124.603 10.532
8.1593 87.1398 6.19405
16.7181 89.1048 3.13447
12.0046 88.6528 4.96513
17.9018 124.191 10.451
12.5588 103.655 8.13745
7.87617 88.3917 6.69756
12.5181 103.546 8.15243
10.5019 100.615 8.34199
12.5159 113.317 10.3319
-1.78512 89.8973 11.0842
9.82351 100.031 8.59209
18.8774 121.1 9.5843
8.35077 89.5645 6.9534
11.24 83.5078 4.44504
6.81847 78.3424 5.13375
8.07216 95.3544 8.39354
9.33185 81.768 4.88338
19.9372 118.26 8.61136
10.9947 82.9983 4.51606
19.9758 95.727 3.65869
-0.278097 90.3376 10.7789
13.4251 85.2809 4.06945
5.23016 80.3753 6.34691
0.14323 83.0908 9.03349
8.77643 81.7845 5.21719
10.3103 87.8106 5.93658
1.59711 81.0636 8.02976
7.65178 80.5189 5.44546
10.5071 86.0354 5.51755
8.72849 80.9285 5.11963
19.5782 114.613 8.12333
0.153878 87.3508 10.0656
13.1781 106.618 9.02286
-0.759273 87.3454 10.4734
-0.500372 87.0443 10.3182
6.50231 77.8779 5.44269
10.4715 82.0263 4.74572
0.809041 89.0777 10.2688
21.1217 98.3628 4.07809
14.9234 123.896 12.2541
1.46757 86.6431 9.54914
4.13186 88.5874 8.89807
17.9807 122.549 10.739
8.74232 85.9325 6.43758
4.60398 88.8056 8.80941
-0.59194 86.4238 10.4326
6.34765 77.611 5.65482
9.17403 77.3889 4.49288
12.9841 121.301 12.628
1.14832 88.4248 10.216
12.2102 87.6529 5.54937
3.44934 88.3355 9.30862
18.4938 91.8801 3.94336
8.45437 88.7737 7.4267
8.25925 80.6645 5.72536
8.64415 80.8354 5.61369
6.49221 85.9229 7.63201
17.524 121.954 11.0856
10.5121 87.5265 6.36877
2.60209 81.6936 8.33252
9.65453 100.865 9.68699
12.2553 103.956 9.30593
8.22369 79.1739 5.5021
5.49598 88.389 8.65464
6.99547 91.2349 8.67049
9.85681 101.079 9.67378
7.94951 80.5498 5.94814
10.3549 101.54 9.62752
20.0838 114.343 8.4749
6.45614 85.4468 7.67866
10.8581 90.4686 6.99407
11.8127 83.1992 5.02113
12.3011 112.628 11.3322
5.41969 81.1689 7.20508
3.66418 86.5202 9.1057
20.5183 114.081 8.32319
4.61301 87.0144 8.86223
17.7278 120.843 10.9684
12.3552 112.403 11.31
21.3517 113.539 7.90006
10.9644 82.1414 5.23252
21.4748 103.76 5.72609
2.15134 88.1263 10.1903
6.56773 79.3656 6.46137
12.9519 109.353 10.4796
12.9302 109.527 10.5434
13.1739 108.369 10.1955
10.5062 86.0956 6.39549
6.37368 84.801 7.81234
6.73732 92.3471 9.36103
22.4337 108.405 6.49183
12.4947 104.613 9.74603
21.5685 112.864 7.86209
9.23158 100.887 10.2674
22.2023 107.249 6.38176
12.3676 112.065 11.4829
10.5294 90.5283 7.48529
17.9475 88.5087 4.01715
5.96038 81.7538 7.46223
13.9525 121.364 12.9579
13.4599 87.0982 5.60714
19.4027 92.4111 4.39209
7.62191 98.0036 10.4465
4.42139 82.1115 8.25416
20.4136 94.5933 4.46924
11.0826 87.6779 6.76713
9.44058 86.731 7.30909
12.8216 89.5863 6.56464
2.71738 83.2596 9.30973
16.2427 122.849 12.5386
12.6764 110.484 11.2754
11.0798 102.722 10.2386
21.6968 103.183 6.07434
7.42425 91.0974 9.27722
11.5998 87.6996 6.85145
22.4886 109.145 7.14776
10.3237 85.5726 6.9363
20.116 114.921 9.43938
6.37919 84.9658 8.48015
21.2476 95.8586 4.84123
6.82839 83.0279 7.90749
15.185 121.882 13.104
6.61907 86.1144 8.71685
21.3959 113.534 8.73619
9.05837 82.8409 7.01055
12.6506 88.3704 6.76897
13.677 87.0607 6.12626
4.09704 85.1866 9.63186
14.5658 120.706 13.2785
6.52167 85.6398 8.85155
10.34 87.7037 7.76035
6.16743 86.0648 9.13891
13.5682 86.7058 6.29613
7.14131 92.9869 10.3225
14.4574 120.264 13.3507
5.37116 85.1597 9.32791
13.2892 117.919 13.3319
6.32997 85.7448 9.0826
6.1176 83.9378 8.7842
19.0045 89.6042 4.7731
12.4825 88.3418 7.23382
13.6444 87.8056 6.65874
9.56279 101.908 11.4726
12.7164 88.4605 7.27056
22.5328 109.091 7.82762
13.1649 88.6069 7.17328
16.8954 121.295 12.8697
20.5001 92.5953 5.07301
12.9955 116.304 13.3931
12.4775 113.486 12.9906
11.9347 105.323 11.4669
9.15975 90.456 9.3357
8.03184 92.0715 10.1701
8.87454 82.4422 7.74019
16.0848 85.1044 5.40324
10.7587 87.5663 8.13462
9.98967 91.4143 9.39598
9.55193 90.3632 9.35984
17.2669 86.7363 5.41288
15.6162 87.1472 6.30335
12.4047 109.069 12.4983
22.0334 101.945 6.98925
12.7726 114.813 13.6194
22.8177 105.818 7.53248
8.7273 91.7108 10.1979
22.3068 110.796 8.85867
12.9916 88.6897 7.79809
7.65285 96.2038 11.6564
9.19709 100.618 12.0004
22.6157 108.55 8.28333
16.1675 120.163 13.4909
15.0695 86.9716 6.628
10.4222 93.2824 9.93184
13.3529 85.6438 7.06701
8.90731 98.8027 11.8171
9.53717 92.2871 10.1238
19.4452 118.313 11.8267
14.611 85.4533 6.55981
11.9301 89.8813 8.65443
20.7968 115.529 10.7089
14.2703 81.7267 5.92636
14.075 86.9996 7.18081
22.6443 108.137 8.35722
12.2805 80.0024 6.3925
20.8274 115.527 10.7454
22.8719 106.552 7.97519
15.7933 87.3198 6.64285
13.7461 86.0588 7.22036
14.0751 88.1355 7.54759
22.6523 107.983 8.42773
20.9907 116.469 10.9971
9.0896 83.6349 8.62676
11.3314 86.789 8.4075
20.935 115.842 10.8933
14.0154 87.8898 7.57093
11.831 92.7758 9.54641
13.9757 87.6479 7.54241
22.4499 110.15 9.05089
15.0915 87.4179 7.05363
11.6206 87.0247 8.40125
11.9125 90.2652 8.99836
22.9678 105.452 7.83673
22.8679 106.511 8.11691
22.6449 103.379 7.52336
14.8667 86.855 7.07117
21.6314 113.325 10.1723
9.1629 100.495 12.4431
19.1647 118.088 12.2435
15.3575 85.2053 6.54892
22.2724 111.814 9.59263
12.6422 113.678 13.9673
12.8428 88.1169 8.25889
21.0433 116.26 11.1371
13.1668 114.734 14.047
23.009 105.789 8.05568
19.7221 88.7549 5.64557
21.1157 116.025 11.1208
11.1489 84.5423 8.25043
12.8133 113.876 14.055
14.5543 117.21 14.0852
11.083 76.2336 6.47254
11.1119 94.8661 10.5904
12.652 106.546 12.5867
12.2141 110.405 13.6235
9.53991 101.311 12.7314
11.5509 79.1252 7.03649
8.80913 94.9752 11.6944
21.232 92.2792 6.04693
22.1197 100.103 7.49005
12.6905 108.161 13.1401
18.9493 87.4099 6.11668
16.9473 118.083 13.7641
9.26217 83.8979 9.38859
16.6556 117.909 13.9087
9.43807 100.119 12.988
14.4099 87.6087 8.2173
19.9251 88.1967 6.14371
12.1135 93.4264 10.5008
18.2191 117.3 13.2856
22.7158 102.215 8.11928
14.7898 84.7256 7.54889
22.5398 109.783 9.93281
10.3991 101.701 13.119
21.9126 113.055 10.9265
20.9071 90.0216 6.27888
22.3539 98.1694 7.50186
21.2871 114.491 11.5992
21.0967 90.2208 6.38887
15.341 81.5029 6.86424
12.4187 88.9951 9.78512
12.4015 92.2264 10.5467
14.7078 88.0463 8.6958
14.7123 84.2797 7.9053
22.5829 100.924 8.39042
22.4493 110.298 10.5847
10.0312 99.9419 13.4741
21.5871 91.1767 6.81614
19.5263 115.173 12.9657
11.8311 105.658 14.0135
12.3026 78.4388 7.82133
12.5166 89.8093 10.2477
10.1615 98.6406 13.1887
19.0874 86.0117 6.80044
23.3117 104.75 9.25761
19.4847 114.903 13.0676
17.9707 84.0648 7.0937
12.7777 107.14 14.3099
12.6525 90.341 10.6633
12.6656 107.769 14.5325
20.5361 113.388 12.5614
14.2102 79.0506 7.60043
10.5494 95.7648 12.8018
10.3335 95.8924 12.9466
22.3743 94.857 7.82292
22.6457 99.1652 8.81288
10.6558 99.9423 13.8946
16.4518 112.772 14.4056
22.319 92.8322 7.64421
20.5259 112.363 12.7242
12.9477 78.0648 8.28792
14.2584 111.856 15.2326
19.9116 112.448 13.1723
17.1056 112.119 14.2532
19.7416 85.6075 7.3355
11.8015 101.513 14.1487
22.2265 108.82 11.52
15.6059 81.4877 8.23776
17.7851 111.811 14.1475
17.3412 111.345 14.276
22.7195 106.796 11.1058
22.5547 92.9542 8.29799
20.0804 110.758 13.2484
17.8756 110.913 14.2626
12.9275 107.73 15.5857
19.5553 110.639 13.5591
22.8361 97.2087 9.28034
12.5216 106.584 15.5731
18.6056 109.889 13.8343
14.8923 82.8775 9.41836
19.1752 83.7869 7.90837
18.627 109.586 13.833
22.962 97.7469 9.46189
14.6554 109.912 15.5573
11.6419 94.1925 13.3778
13.1947 87.5016 11.2956
12.7556 105.729 15.5606
20.7553 86.1381 8.0032
22.8617 104.814 11.3075
22.1891 89.0743 8.11317
18.484 82.3091 8.15365
19.3253 109.273 13.8115
14.4077 108.382 15.628
21.0557 108.321 12.9357
12.954 86.9836 11.553
14.5387 76.6351 8.73854
14.6267 107.151 15.4397
18.07 108.935 14.4781
15.3665 107.444 15.2987
16.5495 108.489 15.1374
16.6578 108.277 15.0921
23.5873 99.0312 10.3468
22.6356 104.081 11.9035
23.8627 100.614 10.7328
16.4134 78.3895 8.91868
12.4187 98.7741 15.0637
21.1096 106.796 13.297
20.1369 107.43 13.8423
13.7499 91.4512 12.9427
20.0958 83.9162 8.75361
18.7967 107.807 14.5848
20.1549 107.193 13.9033
15.7471 76.1861 8.87088
12.4393 99.0024 15.2655
12.7324 98.4464 15.0241
17.8923 79.4446 8.83663
23.8866 99.8879 10.9627
13.1129 84.4725 11.9889
23.1639 101.409 11.6298
23.1541 93.0904 9.85093
11.6023 94.6239 14.9518
17.5234 107.101 15.3215
11.9064 95.5904 15.144
23.2628 93.3087 10.1233
19.4036 106.649 14.651
15.702 80.3414 10.3771
18.2344 106.644 15.1802
22.8617 89.3919 9.49382
22.9128 101.305 12.1229
12.3117 95.44 15.2053
12.229 94.9891 15.1798
15.0646 81.5495 11.1296
22.2864 102.581 12.8476
21.1631 103.979 13.6661
16.9147 77.325 9.53341
20.0658 104.952 14.4239
16.9872 76.8925 9.53378
20.1271 80.7048 9.1435
21.7511 85.0681 9.45314
20.4668 81.3815 9.21234
22.2343 101.783 12.993
22.3662 85.773 9.48374
14.0487 101.667 16.4139
13.6509 89.9513 14.0862
22.6497 86.0093 9.57018
14.4309 83.3804 12.4371
14.4762 83.3746 12.4721
13.5788 99.3257 16.3589
21.7094 101.737 13.6461
15.1276 102.224 16.4917
19.756 103.509 14.8983
17.7719 76.7358 9.83278
20.9835 81.3196 9.57375
14.3054 96.8413 15.7914
22.7468 98.9778 12.8757
15.0828 101.02 16.4663
13.7584 90.0328 14.7008
15.9103 100.838 16.2306
23.2602 88.3485 10.4698
14.3769 84.8719 13.3375
15.576 80.6962 11.9354
18.6535 102.986 15.6192
18.2487 102.796 15.7527
14.583 100.089 16.6614
13.6829 89.6956 14.7616
13.7817 87.5099 14.2616
13.8937 94.6778 15.8073
16.0215 100.125 16.1473
14.2516 86.3791 14.1272
20.3483 78.0325 9.82688
14.2921 92.094 15.5087
23.3714 96.0324 12.6953
21.7181 81.4082 10.169
20.4093 100.19 14.8557
21.8178 98.3886 13.9429
24.2475 93.3549 11.8824
22.5849 97.1351 13.4044
20.3064 99.9 14.9574
14.2113 87.9214 14.8703
19.3857 100.428 15.5145
15.3776 83.8907 13.506
16.7333 99.053 16.363
20.2989 99.4018 14.9928
14.9761 85.8467 14.2919
16.3487 98.599 16.6351
15.0738 98.1251 17.0652
15.2612 97.6492 16.9378
24.1562 93.4242 12.4811
22.1639 80.7011 10.542
16.2325 83.2487 13.5884
15.8366 97.9719 17.0084
17.2745 79.8984 12.4567
24.2303 92.961 12.5323
19.3794 97.049 15.4325
23.7716 93.1196 12.9082
15.6942 97.3856 17.2274
22.3853 80.6744 10.818
15.878 85.4762 14.5425
17.6607 79.7029 12.5602
22.482 94.3283 13.9048
17.4084 80.7561 13.0496
18.8959 96.6539 15.9506
15.4964 86.5876 15.1462
18.6105 96.7955 16.1401
15.8374 96.5282 17.2965
16.3752 96.7107 17.1485
19.7732 95.4923 15.5887
24.2862 91.2352 12.882
19.5046 95.4105 15.81
23.8137 84.7515 11.7866
22.9349 81.6464 11.5472
15.6522 94.2358 17.344
22.8693 91.9877 13.9443
15.9 93.4673 17.2841
16.4526 93.7852 17.23
20.8242 93.411 15.4204
23.1928 90.6447 13.9002
20.4681 78.5126 12.3593
22.4053 91.4329 14.427
16.7059 92.9186 17.1074
19.9862 93.5747 15.9173
22.4506 91.0581 14.4527
16.527 89.22 16.523
20.0919 93.0331 15.914
16.9877 87.5427 16.0308
21.7143 76.079 11.6138
21.6346 75.9955 11.6622
17.0282 90.5466 16.8448
19.1986 91.2688 16.4311
18.0704 89.5147 16.5105
18.4063 88.6176 16.2602
24.2387 84.6863 13.0326
23.9487 82.9125 12.7676
22.5463 76.9135 12.0587
22.1843 76.6807 12.2435
20.2061 90.1549 16.0945
23.4543 80.0934 12.5956
22.4684 88.3417 14.8299
20.5888 79.3091 13.6945
21.4123 88.7764 15.4692
19.0848 86.6968 16.1173
20.6165 79.5797 14.1474
20.2903 88.0159 16.1855
21.5794 86.6522 15.5367
19.7943 83.8499 15.7574
21.572 86.1931 15.6008
22.3101 79.2157 13.7647
21.4571 78.9258 14.0901
22.2757 78.9413 13.8379
22.48 79.1305 13.8381
20.7071 80.7519 14.9478
21.4484 85.2562 15.7987
23.114 84.1964 15.0583
23.6779 82.9171 14.8662
22.0646 83.325 15.6507
22.057 80.9466 15.7427
22.7101 78.2305 15.0405
22.4062 80.3752 15.646
21.6525 77.5437 15.7492
23.3977 78.9455 15.4594
23.7877 77.9952 15.1452
