ply
format ascii 1.0
comment Created by Open3D
element vertex 1942
property double x
property double y
property double z
end_header
-13.7618 124.586 -6.85347
9.79683 114.605 -9.45955
-5.62142 86.5805 6.8877
0.731332 117.91 -8.20141
-13.0244 123.752 -6.67949
-18.0685 97.0917 6.07418
-20.2101 99.2331 5.8045
11.0834 114.798 -9.85737
0.0877398 119.657 -8.72281
-21.4697 115.847 -0.849691
-21.7861 123.381 -3.93906
17.2331 101.602 -6.02597
15.368 110.019 -9.04451
-22.0321 123.815 -4.03614
-10.9043 89.5752 7.25231
24.0014 83.6014 -0.328353
11.4205 114.915 -9.91515
-21.8027 124.232 -4.20929
10.6043 77.5548 6.1667
-23.2906 106.58 3.72459
-27.8604 122.376 -1.62789
-14.5018 93.3287 6.82077
19.1167 95.0077 -3.63226
-9.41081 122.276 -6.86538
-20.7064 100.06 5.8175
-23.2856 121.827 -2.64008
-23.7084 123.157 -3.06335
-27.3587 122.218 -1.55993
19.4982 96.9979 -4.46023
-11.766 90.3359 7.4338
6.00601 81.1132 6.19257
-24.0397 122.538 -2.62289
19.2886 95.2428 -3.60778
-14.8639 126.097 -6.70832
-5.15461 86.7003 7.15787
13.5647 114.032 -9.84219
-22.4374 120.704 -2.21637
11.2786 77.4124 6.33312
0.930389 118.428 -8.0299
-22.8019 123.644 -3.35072
-7.17617 122.018 -7.15761
-22.0642 126.586 -4.75392
-22.4401 105.742 4.1878
11.0815 117.348 -10.4261
-16.0225 129.364 -7.62463
14.2643 75.6564 6.34225
-22.3731 104.654 4.71056
25.2847 79.6896 1.48312
-22.1359 124.005 -3.51654
23.7488 82.7529 0.642822
10.7733 116.512 -9.8765
-14.0229 93.2765 7.16834
-21.8017 113.111 1.08182
-13.857 125.707 -6.52879
8.06561 80.5128 6.28875
-6.84791 122.233 -7.03046
-22.4078 124.017 -3.26093
23.9728 83.7121 0.368008
11.1825 118.668 -10.6899
14.0798 115.357 -10.1195
-2.16614 85.3726 7.31283
-4.89222 123.236 -7.8905
-15.7992 128.769 -7.04071
-14.3874 129.467 -7.74485
-25.0676 121.844 -1.40304
-29.9791 123.243 -0.558906
8.5906 80.6248 6.31029
-21.5856 125.095 -3.75896
-22.3783 122.157 -2.25223
15.1238 112.907 -9.21043
0.760374 120.366 -8.20048
-23.2167 124.048 -2.8012
26.1596 78.5738 2.13269
-22.3793 122.919 -2.5519
10.515 116.007 -9.11765
-25.6106 121.829 -1.0971
-23.3419 121.625 -1.65977
-23.3543 122.779 -2.11746
-7.34227 88.7936 7.63646
-21.3816 125.629 -3.87914
-15.2455 95.8493 7.05935
14.1973 116.008 -9.99319
-30.7599 123.353 -0.0583693
-27.4331 122.614 -0.704352
-24.6954 122.082 -1.26991
11.1528 120.178 -10.8605
16.8075 104.616 -5.90797
7.56642 81.6923 6.47773
5.61356 119.195 -8.82736
13.7658 116.293 -9.9584
-21.2891 111.6 2.20384
19.1242 100.209 -4.68974
-6.61674 122.71 -6.74357
-11.9316 124.904 -6.13006
-12.8857 125.546 -6.11836
16.9601 75.0849 6.59159
-23.883 123.652 -2.10352
-23.7038 123.693 -2.15858
-8.42431 123.335 -6.42469
-14.2275 128.419 -6.89134
20.3672 95.734 -3.07029
9.71911 116.385 -8.71985
20.5249 94.9042 -2.73195
-23.8957 122.683 -1.59884
-22.3458 124.91 -2.95562
12.3255 78.2914 6.73516
-24.6174 125.238 -2.40794
-19.9424 100.693 6.64937
11.5926 120.593 -10.9184
-19.123 99.848 6.80641
-26.8738 122.668 -0.589266
23.5086 84.2498 1.06388
-25.1039 121.775 -0.660823
-21.9117 105.911 5.14345
-25.8163 123.167 -1.01628
-6.94757 123.2 -6.50175
24.6323 82.3464 1.63458
16.9467 104.982 -5.71364
-22.8382 126.253 -3.16943
-23.4809 121.191 -0.839076
-7.47262 89.8664 7.78451
-22.2766 109.743 3.70411
-22.8977 125.798 -2.85397
-21.7845 127.723 -3.97705
-23.1825 108.003 4.79828
-23.5556 121.69 -0.878845
14.9951 76.9997 6.86819
3.68032 83.9438 7.2151
-4.27828 124.646 -7.70725
-25.2248 125.068 -1.81016
-22.2247 123.234 -1.88965
-22.8905 123.74 -1.89767
-22.9501 124.026 -1.99099
16.8423 76.0234 6.7953
7.20149 82.4099 6.91398
25.2102 76.8914 4.08932
-1.01113 86.1424 7.7902
-14.1767 131.774 -7.70609
16.752 106.837 -6.08758
-20.1781 101.64 6.84376
21.0741 98.3783 -3.73862
-21.0579 129.204 -4.56651
-33.8868 124.627 1.13798
-6.27691 89.5811 7.97344
18.3404 75.909 6.62569
9.21468 118.43 -8.72835
-25.2415 130.38 -3.7923
-24.652 127.092 -2.55082
-24.6346 130.095 -3.82402
3.00428 85.1186 7.20282
-16.1312 97.7505 7.42058
-5.81452 124.082 -6.70194
-26.0772 121.788 0.16502
17.282 76.5278 6.75696
-25.619 126.552 -1.92148
-22.7821 132.012 -5.05371
-23.1687 123.615 -1.38614
-22.9331 108.089 5.12839
15.8344 111.173 -7.41646
24.1954 76.5918 4.80504
-13.2472 94.9842 7.89973
-22.1997 110.093 4.1142
19.1414 75.9462 6.58771
2.48322 85.9214 7.20034
-35.1704 125.243 1.47718
-24.4186 130.797 -3.97892
-18.5529 100.218 7.2751
-2.10095 123.839 -7.49482
-22.0489 128.032 -3.4809
-21.8231 127.474 -3.29018
-21.4968 127.691 -3.4643
18.5534 76.4559 6.62814
9.97692 119.947 -9.29497
17.2698 104.773 -4.98237
13.8269 116.004 -8.73546
-25.3565 127.185 -2.09258
-9.49041 125.525 -5.98985
10.5542 82.0198 6.6194
2.03759 86.1103 7.40132
-7.04936 91.0195 7.96023
-33.6348 124.871 1.35129
-12.4358 133.236 -8.33209
-24.076 130.883 -3.95583
21.0453 98.7912 -3.44925
-12.4107 129.196 -6.59012
5.15989 84.1121 7.41515
-23.4275 132.033 -4.57426
12.1429 80.6749 6.86052
24.4399 77.6998 4.55624
-20.5884 113.324 2.53713
-21.4109 115.774 1.74296
-24.8019 122.199 0.00844431
-12.4111 133.41 -8.32854
23.3551 91.1154 -0.792713
-12.0665 131.97 -7.7954
20.5181 77.3199 5.89804
-26.4038 129.344 -2.50776
-11.8628 127.934 -6.12743
-22.2015 119.112 0.613678
-22.6559 109.5 4.82314
16.9221 106.94 -5.56725
6.74951 83.2886 7.43218
12.0699 121.677 -10.3555
15.8867 112.897 -7.73944
-20.8523 129.127 -3.9535
24.4995 88.1059 0.259665
-25.5515 122.756 0.127822
1.45801 121.508 -7.14917
16.5504 108.252 -5.90959
-22.0194 116.732 1.70409
-20.1523 102.555 7.16594
-23.8436 132.085 -4.23117
6.13296 83.7681 7.5421
21.1027 98.9637 -3.23061
-26.7269 130.167 -2.56421
-14.753 132.813 -7.15439
-32.0109 124.691 1.29069
-27.2545 130.872 -2.69984
-27.1657 130.472 -2.54887
20.9538 78.8168 5.3915
-22.7012 130.933 -3.96129
25.4838 80.2306 3.55791
-1.38296 87.4745 8.30041
-13.6334 96.4205 8.08227
16.682 109.182 -6.09579
23.8535 80.1499 4.12118
21.4432 78.8919 5.36504
-27.2898 128.039 -1.29589
-22.5894 120.04 0.742135
24.4491 82.7991 2.89162
12.3817 81.3497 7.00872
-26.4747 131.79 -3.07393
16.5909 78.9201 6.82507
-27.7607 125.854 -0.162461
-5.58662 125.587 -6.48021
25.5044 80.0798 3.77005
-14.3598 133.14 -7.12383
-16.8152 99.4266 7.86336
16.7568 108.356 -5.64586
17.8903 104.045 -4.14219
4.40651 85.6357 7.57072
12.7851 117.147 -8.19961
-3.91024 89.3292 8.42048
20.3106 80.3369 5.20576
13.6013 115.98 -7.91561
23.19 81.5416 3.94849
24.3513 86.7662 1.40539
9.30382 120.375 -8.43373
-27.6273 128.447 -1.13277
-28.0092 127.439 -0.594902
10.2781 83.2962 6.98848
-3.36361 89.6329 8.26377
-16.6022 131.61 -5.6651
2.05913 121.785 -6.9174
-15.1329 132.898 -6.63324
23.9512 79.1005 4.81175
-17.9307 100.714 7.81531
-21.0133 128.696 -3.13421
-3.75842 126.155 -7.04257
-29.8216 129.729 -0.994036
-10.9631 95.0589 8.27497
-27.1069 131.549 -2.45815
-1.24077 88.4484 8.28921
18.2842 103.89 -3.91156
-20.0593 103.31 7.47563
21.845 81.219 4.67551
-3.71374 90.6107 8.1144
23.8728 86.623 1.8011
22.7513 80.1295 4.87561
-23.7252 121.152 0.992209
-1.9345 89.3656 8.13032
23.1227 81.7905 4.1292
-28.3883 127.576 -0.296931
-20.6279 114.958 2.80357
-12.8504 96.858 8.22456
14.581 115.282 -7.52451
-30.6124 124.383 1.73795
-0.606025 89.2319 7.91646
7.68845 122.992 -8.77569
23.0478 81.8731 4.19182
-7.81258 127.566 -6.19125
23.8583 81.7113 4.03578
-2.82386 91.1505 7.779
17.0514 107.44 -4.87584
-28.857 123.568 1.62464
-29.0532 128.721 -0.499594
-1.5047 90.4775 7.71602
22.9171 95.4055 -1.4516
16.691 80.5373 6.65291
12.6611 117.86 -7.97535
-28.7862 130.673 -1.35994
21.7328 122.247 -12.4417
-18.1258 101.386 7.95392
-8.17036 93.7057 8.37505
7.40394 121.177 -7.76424
6.66616 84.538 7.96253
10.7728 83.9041 7.04093
17.3569 106.834 -4.50102
6.86503 123.33 -8.43961
-7.59804 127.941 -6.18596
3.33954 121.509 -6.6327
-28.8241 127.625 0.108905
0.485439 88.5335 8.16817
24.4564 82.1236 3.94825
17.2565 109.055 -5.35904
23.8049 93.8594 -0.824517
2.64042 87.4442 8.04702
21.3684 99.5668 -2.48999
17.0467 107.78 -4.71291
-7.51149 128.229 -6.21763
-29.5763 130.538 -0.792469
15.8336 80.7059 7.1367
-28.9632 125.486 1.18462
3.46567 121.662 -6.56626
0.17912 124.915 -6.98964
-17.5656 101.266 8.17052
-24.5831 122.338 1.3001
11.5458 127.065 -11.1697
17.4108 109.69 -5.50524
-24.1126 122.953 0.930529
4.28436 121.3 -6.59627
20.0793 123.355 -12.0469
-13.5492 98.2345 8.34842
-10.6306 134.342 -7.77412
-36.7535 128.14 2.43263
-28.4065 123.593 1.94094
19.1074 81.4271 6.0189
24.6455 90.7786 0.505856
-31.1957 128.675 0.664189
9.7926 126.987 -10.5069
0.758085 89.9007 7.82334
4.20366 86.9545 8.0866
13.2467 82.3937 7.41506
16.0489 114.263 -6.88399
21.8694 82.641 4.8238
24.5003 91.1792 0.455916
23.1303 96.2567 -1.28728
-27.2325 121.702 2.54905
-20.3126 130.304 -3.09816
12.9344 123.284 -9.76703
16.9181 112.311 -6.26743
6.99694 124.182 -8.41475
-30.5135 124.602 2.28948
23.3071 122.25 -12.3229
-10.4689 96.1342 8.53257
-31.7596 130.438 0.205567
6.13068 120.993 -6.78353
-0.919231 125.682 -6.71835
-20.5464 113.708 4.04897
12.9597 118.46 -7.67427
0.807226 124.642 -6.74771
-23.3388 120.56 1.99404
23.3371 82.4494 4.59028
19.8421 123.794 -11.894
-12.7207 98.0808 8.44651
24.2223 91.948 0.360795
-27.7437 123.147 2.23725
16.0559 114.102 -6.59993
-27.9002 123.212 2.29981
-27.2063 123.391 2.02575
-4.90595 92.7882 8.51923
20.5499 123.764 -11.94
-2.88751 92.9533 7.9361
13.395 121.67 -8.9428
13.0785 117.628 -7.12293
19.9076 81.8878 6.0349
-16.3315 100.98 8.46351
-13.2138 134.765 -6.73766
23.1982 97.2889 -1.42105
19.1729 121.646 -10.554
-1.5505 93.2407 7.48415
0.966716 92.1345 7.22285
1.52531 90.6982 7.67782
-1.39032 93.5542 7.34928
-20.2444 132.663 -3.73954
19.0935 118.68 -9.22088
-20.0379 114.933 3.74223
-9.73169 96.1669 8.71583
-2.26194 93.3081 7.76182
14.4137 115.929 -6.5772
-27.4216 122.141 2.92842
-20.792 107.037 7.40163
-11.5838 97.833 8.64276
5.19742 121.973 -6.43826
12.4756 127.326 -10.8127
19.6493 120.489 -9.99433
15.3774 81.5513 7.74171
23.3659 122.092 -11.7222
-0.469208 94.2168 7.00129
6.04257 121.946 -6.62439
-13.0243 135.808 -6.95399
9.2585 127.401 -9.85522
-22.8934 120.23 2.52477
17.0805 112.977 -5.98612
1.6873 92.1883 7.29239
-1.3122 126.398 -6.30621
17.6076 108.134 -4.05329
-28.9673 131.129 -0.278164
17.9413 110.647 -5.19143
-32.6056 130.078 1.24923
-12.482 136.272 -7.20654
20.0449 103.524 -2.77446
10.1196 128.274 -10.3443
-36.6586 128.292 3.24231
-13.3388 136.029 -6.79295
23.3853 121.852 -11.441
-29.5849 124.733 2.73185
-9.08331 133.527 -6.90069
-20.3292 106.057 8.00044
-22.4127 133.473 -2.99871
-19.6846 132.575 -3.40658
24.035 89.3307 2.22195
19.2517 82.3891 6.55668
-8.21676 95.8972 8.8268
24.1974 83.58 4.65309
8.88375 127.397 -9.41965
24.2587 84.0058 4.4933
1.69706 93.5256 7.0479
23.6728 96.8284 -0.724432
-22.747 120.427 2.75939
-30.1753 125.099 2.93895
-8.97683 96.7962 8.7927
-13.9579 100.88 8.51392
-12.9371 100.511 8.39777
-26.3271 123.747 2.44825
-21.1904 135.348 -3.93484
12.3563 125.078 -9.31731
-21.2359 118.181 3.35489
-24.3168 123.603 1.96345
24.7251 91.4735 1.35393
-19.7637 133.261 -3.41062
17.332 82.3481 7.39143
18.2196 118.338 -8.06198
20.6833 125.108 -11.632
3.10559 91.1766 7.84545
-36.4914 129.055 3.33667
23.6564 97.167 -0.601817
-6.02926 95.6689 8.66617
-17.6569 103.554 8.7016
-33.0757 127.996 2.82665
-7.18348 95.9928 8.87046
20.9953 102.448 -2.01868
-13.7518 101.61 8.41922
-33.5389 129.637 2.31726
3.10545 90.3841 8.30785
-27.1454 132.112 -0.550224
-15.9832 134.457 -4.77714
-15.8544 134.573 -4.86274
-15.8796 134.567 -4.84914
-19.799 132.257 -2.73404
-5.97895 95.9832 8.61502
1.71647 94.7276 6.93066
2.15093 124.884 -5.95444
15.5324 114.427 -5.38546
-29.987 124.193 3.69209
21.708 101.183 -1.54627
6.35693 124.741 -7.0522
3.26976 92.3879 7.54343
-13.0618 101.903 8.25487
13.2605 127.132 -10.049
-4.90696 96.6655 8.12581
-12.6417 101.628 8.28655
-36.3908 129.519 3.37868
-4.46187 96.9025 7.92731
13.2974 118.759 -6.47282
20.3256 125.651 -11.4174
13.4873 84.7069 7.90252
17.7981 122.001 -9.13504
20.2528 104.184 -2.27749
19.6655 105.115 -2.49953
-8.47215 97.9382 8.70314
23.4735 123.688 -11.4643
23.3337 88.0219 3.68592
5.30347 123.372 -6.04667
4.53297 88.6416 8.88604
18.5524 124.271 -10.2537
3.90296 91.4346 7.89923
-5.67037 96.8023 8.412
17.612 119.51 -7.94437
-19.7839 132.631 -2.63368
-21.1278 112.055 6.47446
8.00251 127.076 -8.32998
-33.9118 128.764 3.12044
-30.4389 124.178 4.06354
12.6371 122.841 -7.83002
15.7825 114.29 -5.11581
12.6237 123.096 -7.92282
13.4885 127.379 -9.97402
-9.25603 99.498 8.48209
-20.8232 108.43 8.06268
-23.611 134.166 -2.01863
-25.243 133.138 -1.09448
-19.8659 134.525 -3.20514
2.30635 96.1084 6.64915
-30.4027 124.111 4.28641
-2.27628 96.9497 7.63956
-34.4786 129.266 3.30449
-21.1989 118.755 3.91049
-6.00201 97.4382 8.57586
21.4105 126.02 -11.4704
3.7251 94.5871 6.97141
-25.8045 132.978 -0.714841
-21.0379 116.528 4.87672
18.5681 109.771 -3.72838
-11.4928 137.547 -6.76539
-21.3382 110.212 7.67113
23.7746 91.5309 2.50222
23.7553 96.826 0.271157
-23.4942 136.472 -2.78121
23.9807 91.9018 2.32621
-8.49996 99.6097 8.49701
-14.923 137.238 -5.56229
-20.3531 114.557 5.61898
15.5074 84.1477 8.10017
4.74262 91.9774 7.91107
9.62135 129.954 -9.56082
-34.9674 129.36 3.66683
-4.00248 98.1586 7.90995
-20.0744 115.082 5.41761
17.9164 123.888 -9.31768
21.0401 103.685 -1.66827
21.3332 103.152 -1.51418
10.7696 87.528 8.20315
-36.6045 129.061 4.37832
-32.0067 126.634 4.0908
20.6686 104.404 -1.77337
4.75986 89.4752 9.16749
-30.1257 126.055 3.80627
12.3454 130.883 -10.5502
20.6083 104.516 -1.78233
-6.64711 98.0362 8.87956
5.15312 91.2584 8.32984
18.8109 111.046 -4.00236
18.463 107.673 -2.45975
-0.619855 128.089 -5.5608
23.7415 97.1771 0.47049
3.02102 125.543 -5.5274
17.0782 121.081 -7.68924
6.0711 125.792 -6.4903
-12.1368 103.379 8.29433
23.7555 87.0705 4.7943
23.1259 85.0956 5.83479
-33.4434 126.407 4.75819
-10.1579 138.203 -6.98474
14.5082 85.3971 8.23164
14.5497 85.3894 8.23732
-18.8826 106.692 8.91993
-13.1891 104.054 8.4019
-7.06862 99.3406 8.63297
-32.6542 132.379 2.06982
-24.4971 124.602 3.00073
-20.0603 134.765 -2.58456
-21.7587 136.287 -2.72414
-5.62072 131.49 -5.37393
3.27106 97.6698 6.37425
13.6834 127.242 -9.16215
21.8906 102.574 -1.09054
-6.8481 131.744 -5.09008
-23.9236 134.995 -1.51311
-27.0146 132.959 0.256132
-6.62517 131.631 -5.08245
9.52691 88.0003 8.71701
23.6466 86.3293 5.33864
-35.8759 129.975 4.13001
15.322 85.1496 8.26583
12.3945 87.8457 7.99744
5.64242 93.2807 7.66252
-10.5297 102.996 8.25924
22.6373 126.334 -11.2311
19.69 106.163 -1.82199
-9.34267 102.046 8.34534
-24.2601 136.245 -1.77655
19.6936 127.622 -10.8551
4.33726 125.397 -5.44284
8.28766 128.606 -7.94564
-28.1431 132.683 0.908368
-24.2737 136.702 -1.8941
23.462 90.5863 3.78616
18.8071 107.272 -1.92559
-12.4983 138.484 -6.04536
-14.0744 104.863 8.6481
-21.3931 119.683 4.50174
-6.91415 100 8.65368
-12.3282 104.261 8.424
-3.46048 99.1342 8.02997
20.8106 85.3642 6.82457
12.9139 125.4 -7.82722
13.5479 119.216 -5.3899
-24.3066 135.238 -1.19101
5.76309 94.4077 7.39032
-18.3222 137.589 -3.88094
-14.787 138.932 -5.47111
-27.3503 133.069 0.660246
17.9904 126.054 -9.5151
-27.6993 132.952 0.82665
19.156 84.8166 7.62825
-16.0196 105.734 8.98732
-7.00279 135.622 -6.26376
-12.8563 139.035 -6.00964
-33.8302 127.707 4.88275
3.13073 126.426 -5.2712
13.8983 129.011 -9.48426
-1.74957 98.6308 7.92713
20.9675 127.696 -10.9623
24.0779 95.5588 1.75077
23.4131 86.6086 5.73614
-1.97448 98.725 7.97487
-7.37815 101.029 8.56901
16.9982 122.873 -7.72658
13.986 126.859 -8.5276
13.7682 120.938 -5.93226
-7.11421 100.868 8.63169
23.7374 87.5432 5.32563
21.175 85.6488 6.89839
-36.6501 130.18 4.82123
6.34242 91.9003 8.56039
-20.9189 136.346 -2.34172
23.5451 89.845 4.45847
23.1958 86.432 6.00875
19.0521 108.557 -2.15056
22.2147 102.609 -0.543539
-34.0392 132.156 3.26476
-28.4463 132.852 1.35622
21.1643 85.7046 6.93934
-24.6396 136.728 -1.3576
14.1187 127.535 -8.70663
4.73982 125.986 -5.33024
-15.1413 105.978 8.94761
22.2004 102.672 -0.478631
4.97146 98.9919 6.11431
-5.43896 132.529 -5.04924
17.1496 123.398 -7.72307
18.5724 112.754 -3.62802
2.37069 127.415 -5.12065
24.298 95.1107 2.20028
-11.4454 104.759 8.49055
-20.458 110.259 8.78548
18.1213 85.5827 8.05271
-6.6102 133.953 -5.24715
14.2367 117.843 -4.45462
19.0794 107.396 -1.43327
14.2594 119.281 -5.06228
-1.74593 131.068 -5.40334
-36.6098 129.325 5.45283
23.7564 122.911 -9.33664
20.3545 105.817 -1.10988
-33.4723 128.15 5.05644
23.6441 124.606 -9.99851
22.0178 127.779 -10.8426
-17.3848 138.975 -4.13159
22.207 127.298 -10.6645
14.3571 117.683 -4.31436
-14.4598 106.076 8.96456
4.10276 99.9471 6.18711
17.1026 122.126 -6.93007
-33.0207 133.064 2.98017
-5.46646 100.692 8.70109
-23.3575 123.677 4.17876
23.4418 90.7983 4.53178
-34.1825 128.65 5.22409
-0.739865 100.433 7.47009
15.6493 86.9097 8.44368
19.2459 107.25 -1.20667
6.08483 127.559 -5.96697
24.5106 94.689 2.60683
13.1128 131.617 -9.71714
5.47338 100.246 5.84065
23.8136 123.535 -9.31327
3.02641 100.191 6.60618
17.4287 124.296 -7.76945
17.8023 86.2799 8.21811
11.5106 133.886 -10.0968
-37.1054 129.849 5.71628
1.54525 100.418 6.96752
16.3041 86.8057 8.46867
-23.061 123.188 4.48977
-16.3286 107.287 9.27062
23.5949 89.8164 5.10589
0.990512 101.327 6.8562
-5.20334 133.063 -4.78225
-0.0544223 101.338 7.16438
12.613 133.172 -9.98603
-31.7759 127.424 5.32418
9.02165 132.158 -8.50212
7.13474 91.9809 9.0697
-30.3231 126.93 5.1444
5.02247 127.524 -5.35578
-29.1284 126.445 5.02488
6.79329 97.435 6.8914
-35.293 131.539 4.6711
-2.63518 100.789 8.22039
15.2977 117.76 -4.15783
16.9224 114.097 -3.07757
1.94312 101.469 6.61735
17.4747 126.204 -8.35069
-2.83225 100.951 8.23474
-10.7878 140.278 -6.0865
7.50127 91.2014 9.41471
5.71909 128.251 -5.75127
6.34745 99.6205 6.19344
-27.2529 125.887 4.8293
-33.7034 132.883 3.74599
0.937741 129.379 -4.79392
23.6126 124.808 -9.4191
-17.9273 137.653 -2.80673
17.8337 86.9238 8.31426
9.49178 132.67 -8.62883
-23.4671 138.023 -1.33478
1.52791 102.299 6.54005
-5.11475 133.284 -4.63689
4.34784 101.297 6.16925
-34.6006 128.945 5.7698
-14.4785 140.596 -4.99511
-12.7089 140.973 -5.66809
-13.8178 140.688 -5.21673
23.9558 96.9479 2.35543
-14.5681 107.121 9.22342
15.9312 123.681 -6.62201
13.7113 130.623 -8.91652
22.7252 88.0285 6.52122
2.91264 102.081 6.32284
-19.7655 116.283 6.90102
6.1449 129.414 -6.16726
11.119 134.402 -9.71901
-37.1826 130.624 5.89851
5.8132 129.005 -5.88665
3.08912 102.246 6.25302
-16.9498 138.283 -3.17567
23.3935 91.1804 5.06965
15.1304 128.336 -8.26387
11.6484 135.228 -10.1657
24.9703 122.74 -8.72235
-8.94341 140.387 -6.35557
2.87755 102.761 6.14967
23.229 93.5689 4.16474
6.35411 100.956 5.93805
-7.66169 138.795 -6.01452
-23.9098 124.611 4.70794
7.46825 96.6985 7.44907
15.7784 121.03 -5.19361
-6.19444 137.459 -5.77464
7.03972 130.603 -6.70617
7.73821 93.9617 8.63669
5.7342 102.757 5.49493
7.41027 98.8386 6.66969
11.0798 135.164 -9.76298
-7.8221 139.527 -6.12121
14.5064 127.437 -7.47093
22.5483 127.396 -9.73198
3.7589 103.634 5.78951
-17.2495 109.08 9.58322
-15.8746 108.525 9.43584
18.5549 118.363 -4.71442
19.9309 110.001 -1.57266
3.91956 103.763 5.72249
19.8669 87.4662 8.00182
-21.794 122.233 5.36852
-20.0941 117.175 7.0297
-11.8726 106.646 9.10828
-20.1389 113.762 8.49764
-7.24515 138.546 -5.72853
-34.8339 130.355 5.78082
15.0522 127.874 -7.61778
6.57213 130.991 -6.47532
-21.5088 138.381 -1.4424
12.81 90.2559 8.97835
-35.9678 130.571 6.07073
10.7578 135.5 -9.56598
18.243 113.282 -2.32798
-36.5023 131.362 5.89836
7.84803 96.5117 7.7896
8.0065 93.6929 8.94268
-4.24717 133.583 -4.38793
-7.47928 104.588 8.84308
13.5663 133.746 -9.60427
22.6113 101.824 1.29713
-21.3959 138.477 -1.45087
-32.3717 128.338 6.02888
-36.2893 131.349 5.91395
-35.3571 130.025 6.20485
-21.3561 119.619 6.56396
8.05451 93.1011 9.26518
-25.974 125.989 5.22663
16.4382 120.234 -4.63353
11.1137 136.236 -9.85978
-9.7328 141.952 -6.22885
8.57099 133.281 -7.8459
-15.8119 108.949 9.53083
-21.7149 138.484 -1.23748
1.81164 130.617 -4.72163
-21.774 138.491 -1.1942
13.5674 134.651 -9.78688
-2.98901 133.265 -4.39746
5.17071 104.574 5.41211
9.66797 134.369 -8.50401
9.2248 92.1859 9.48876
5.72565 131.253 -6.03418
19.9644 117.209 -4.21617
6.25492 131.545 -6.30422
-22.6169 125.518 4.63863
21.3139 129.92 -9.96301
16.5956 119.349 -4.11302
-24.0645 125.466 5.09193
4.97946 131.123 -5.66325
11.0836 136.974 -9.90817
6.23482 131.714 -6.26835
-31.0155 135.147 3.08894
2.26202 131.099 -4.82316
20.2519 109.527 -0.906877
-29.6662 127.421 6.00163
22.7238 90.2059 6.56573
17.6337 121.598 -5.2377
-15.7318 141.915 -4.15111
9.97101 91.8148 9.61619
20.3545 107.582 -0.06509
22.2009 102.843 1.42311
7.10018 103.107 5.69332
21.2916 130.148 -9.85252
14.503 127.977 -6.96119
9.60681 92.4169 9.56449
14.9606 124.653 -5.6356
-32.3923 128.821 6.33806
14.4683 125.27 -5.70779
6.87882 104.091 5.49866
-20.0231 117.528 7.61892
17.8776 132.118 -9.55121
-8.96043 106.386 9.13107
15.5464 123.904 -5.39217
-16.176 142.081 -3.87854
0.938069 131.609 -4.40407
14.7302 129.253 -7.38238
-34.9633 131.93 5.91682
-13.703 109.269 9.36874
15.609 123.815 -5.27526
-25.6116 137.671 0.815663
-22.0653 125.671 4.87477
19.9142 112.339 -1.61599
8.66751 99.8817 6.92459
20.419 110.016 -0.760472
18.5094 113.389 -1.63352
-28.5664 135.234 2.78743
10.4906 92.236 9.66345
16.7009 132.119 -9.01524
8.93135 94.0523 9.36425
20.7479 106.674 0.606861
-11.7685 108.225 9.41984
22.3468 90.3101 7.11233
23.3212 99.0666 3.13317
-15.1596 109.925 9.70667
7.93783 103.221 5.86392
14.9934 124.57 -5.19942
10.4786 92.5996 9.6569
23.0473 127.223 -8.60864
9.22512 135.722 -8.19559
-28.3371 135.144 2.94653
3.44625 132.212 -5.02259
22.6502 100.685 2.75888
15.5383 131.476 -8.20931
-34.2454 131.959 6.03646
23.7187 97.3392 3.88402
-9.30929 143.396 -6.03442
17.1168 120.364 -3.94668
16.8783 122.397 -4.70854
5.12267 133.336 -5.92606
10.3651 138.513 -9.62516
12.7414 137.067 -9.69322
-2.99184 104.542 8.64213
4.82364 132.889 -5.62142
-1.30328 104.396 8.22499
18.1951 132.755 -9.42622
-11.4983 108.602 9.42244
-33.8778 132.994 5.58718
-32.3423 129.956 6.43895
25.7205 124.197 -7.95221
17.5717 90.1137 8.84251
-2.39925 134.235 -4.02044
2.45373 107.198 6.02384
19.8011 112.681 -1.32343
19.7337 118.319 -3.67779
18.9413 113.295 -1.25508
1.58862 132.77 -4.46693
14.7608 134.876 -9.17811
-26.0871 135.765 2.29975
16.7356 116.184 -1.82752
-21.7673 124.662 5.75705
1.1102 132.714 -4.28498
23.1121 99.429 3.43578
-0.95616 105.125 8.01015
-28.9479 128.158 6.37988
-2.47722 104.661 8.65567
25.7869 124.372 -7.87784
17.3972 132.621 -8.93557
-7.35435 141.452 -5.49067
-15.9298 111.07 9.86366
0.574598 106.388 7.06431
-20.8586 139.929 -0.909047
2.14573 107.446 6.18107
-27.5749 135.046 3.12798
0.163819 132.723 -3.92918
18.0224 119.459 -3.48956
2.75055 107.975 5.82734
-5.34067 106.211 8.93103
-25.8355 138.046 1.40866
-25.6931 136.598 1.98156
21.5958 130.762 -9.26282
20.6835 109.426 0.0723582
-8.14085 142.404 -5.50976
-20.1503 116.288 9.03226
-20.3015 127.963 4.13402
16.3855 131.227 -7.88622
25.118 125.206 -7.85786
22.5416 93.9314 6.13166
9.90821 139 -9.27911
-7.46842 107.088 9.28205
2.38539 108.029 6.02795
4.08496 109.069 5.10377
16.8149 132.767 -8.60408
15.9109 132.763 -8.31412
-0.111311 133.181 -3.82634
-14.6358 110.848 9.85213
19.2527 133.039 -9.3641
9.47136 101.524 6.83215
-25.8887 136.243 2.40628
15.9027 129.825 -6.97944
6.42122 135.014 -6.41824
-24.2069 139.773 0.474947
10.9746 93.9209 9.68853
-11.474 143.85 -4.93428
15.088 124.371 -4.35516
7.19565 135.354 -6.71046
-22.4927 127.408 5.26525
19.5577 90.9812 8.50069
-11.4863 109.937 9.52667
-19.3577 126.487 4.80516
-20.3463 118.308 8.61127
15.92 92.3825 9.07549
17.918 119.404 -2.91448
-5.30814 140.469 -5.08237
13.9621 128.914 -5.7737
19.0835 133.692 -9.2696
8.84504 137.876 -8.06602
22.4348 94.0496 6.55106
16.8212 129.892 -6.98972
-25.9038 137.553 2.16028
26.2604 124.716 -7.51894
15.8251 123.512 -3.9758
22.2024 105.903 1.63733
-25.2376 127.539 6.24682
-21.0039 122.032 7.35387
-7.41081 142.519 -5.24567
10.042 100.455 7.50693
0.878342 133.854 -3.96679
21.9449 93.363 7.06715
0.474059 107.774 7.19963
-4.96542 106.922 9.14501
13.8648 93.3944 9.41131
18.7945 91.9845 8.58236
10.7564 94.9889 9.64901
17.0059 123.608 -4.27966
16.8713 122.156 -3.62042
0.269818 107.77 7.3271
-4.12202 139.098 -4.65663
-20.002 117.734 8.99602
-3.89784 138.546 -4.46018
-28.908 129.382 6.68691
14.5791 130.319 -6.32215
21.2772 107.272 1.51841
-21.6292 123.687 7.02825
11.8994 138.461 -8.93955
-3.51785 106.567 9.0361
-17.9433 141.269 -1.46764
22.6908 100.909 3.83887
13.8765 137.064 -8.88911
-8.24067 144.8 -5.73468
-13.7059 111.713 9.87003
14.9553 128.408 -5.48071
-29.7713 130.917 6.4673
-1.13239 135.24 -3.66891
-1.00197 135.137 -3.64934
-26.3001 128.673 6.42975
14.8815 94.7417 8.85509
-19.8819 117.362 9.40447
-23.9278 127.891 6.12851
15.7764 135.175 -8.46933
-14.9578 112.495 10.0482
4.27627 136.051 -5.49321
20.6549 132.298 -8.64363
-30.4762 135.086 5.05089
-5.04912 107.555 9.33887
-21.4426 128.397 5.27936
4.30902 111.738 4.87167
-10.8455 145.683 -5.10368
-19.3539 116.645 9.67112
10.6128 101.261 7.49633
16.6527 94.1013 8.77976
-31.2318 132.749 6.31277
-19.5734 125.119 6.16338
17.4688 115.008 -0.289249
17.3296 126.24 -4.98521
22.3364 130.956 -8.41716
-26.3286 129.184 6.46224
19.5887 133.971 -8.88143
12.4279 138.282 -8.61875
13.4303 128.627 -4.80799
-18.7907 141.666 -0.95678
19.2976 113.566 -0.105942
-21.9459 128.434 5.58536
10.4252 104.187 6.46853
14.0833 130.616 -5.76362
-2.81011 107.479 8.93421
16.2128 134.999 -8.23322
-30.8678 133.192 6.22589
-12.4578 112.062 9.85756
-13.2734 112.401 9.96247
6.8084 139.414 -7.28732
-28.1466 136.932 3.91513
0.832121 134.95 -3.64372
-26.9381 136.373 3.82329
4.0568 136.627 -5.27486
-24.0438 140.488 1.26558
10.78 97.8564 9.21716
14.0028 128.31 -4.60275
16.7084 95.476 8.52813
18.7597 94.3888 8.40414
3.11655 136.245 -4.75292
6.63356 112.04 4.47743
10.9041 103.119 7.03546
2.57949 135.856 -4.40497
-25.8958 139.12 2.475
18.7076 116.845 -1.03217
-27.1008 133.299 5.29272
17.8528 120.338 -2.259
18.7063 118.066 -1.53241
-22.8338 141.237 0.708741
-14.1178 113.05 10.1262
10.9539 103.57 6.90377
-16.1661 142.584 -1.73897
16.7674 125.802 -4.18294
-12.256 112.416 9.91246
6.3613 112.47 4.49199
-27.6134 136.113 4.34251
14.0051 131.1 -5.60214
-12.4202 112.567 9.94891
0.623738 110.132 7.20097
-6.46286 143.413 -4.83086
-23.54 129.492 6.02077
7.14394 112.024 4.51742
-28.5318 136.43 4.53914
-20.6695 122.523 8.15474
-26.2339 134.679 4.64357
18.7241 119.338 -1.8974
6.53539 112.678 4.461
3.39787 136.977 -4.90695
20.4355 133.65 -8.42538
20.3256 133.83 -8.46024
-7.36923 109.933 9.70188
6.58567 112.877 4.44583
20.5848 112.718 0.455953
-23.1726 130.166 5.76788
3.08918 137.02 -4.7422
2.69059 136.696 -4.48365
22.9048 99.0386 5.62081
22.3255 96.5173 6.87623
12.9142 96.8378 9.47848
-26.264 132.978 5.58396
19.0105 95.4089 8.37437
15.5551 123.837 -2.65864
-18.2378 116.086 10.4258
0.223305 110.487 7.45094
-27.2247 131.178 6.65555
14.88 128.913 -4.57737
-28.2843 137.685 4.2515
15.9789 132.867 -6.53783
-15.5607 114.953 10.2058
0.785006 111.185 7.06992
11.4577 100.866 8.35661
-15.2399 114.822 10.1922
18.1003 114.654 0.596416
-14.0122 145.455 -3.12346
20.7027 112.724 0.664716
-25.3178 134.292 4.90094
-22.6123 141.951 0.876477
17.7093 122.515 -2.58146
21.3945 109.322 1.9357
20.7759 133.661 -8.17002
18.7406 96.085 8.35658
5.66524 114.26 4.47867
-4.53477 142.951 -4.70166
21.2627 110.985 1.36902
18.1189 121.901 -2.33652
10.4737 141.63 -8.46385
-5.23277 143.503 -4.69601
-7.925 111.46 9.65896
22.6666 98.8839 6.13064
-17.1454 116.396 10.2786
-20.3776 129.82 5.53338
-25.0316 130.411 6.63458
-2.57078 139.68 -3.80141
-1.60369 110.147 8.42206
-2.30652 139.177 -3.66146
22.604 103.801 4.09455
-0.26615 110.919 7.73559
14.67 137.691 -7.86485
9.92967 109.676 5.37248
16.2535 135.965 -7.58024
11.7847 103.054 7.65269
-14.0947 145.698 -2.88534
22.2422 106.985 2.97413
8.15152 113.207 4.48149
10.3655 108.967 5.64356
-6.51575 111.103 9.63874
16.1596 127.999 -4.07717
17.3568 129.382 -5.005
-13.011 114.456 10.1248
8.36389 141.609 -7.57052
-6.77106 111.317 9.6457
-7.17047 111.589 9.65271
11.1318 141.436 -8.27068
19.4329 135.579 -8.19617
-9.67351 148.2 -5.08795
-27.456 136.917 4.84761
8.10894 141.474 -7.39698
17.2341 132.331 -6.17158
5.07775 115.463 4.49703
7.24856 114.51 4.27454
19.5943 96.1881 8.45518
21.1913 133.35 -7.73103
-25.2442 134.755 5.15232
-24.8663 130.957 6.65188
27.2873 126.058 -6.39917
18.1229 122.875 -2.38553
-17.4036 117.198 10.329
-3.64873 142.885 -4.49305
21.822 108.176 2.81436
-0.741955 138.361 -3.40925
15.9604 126.135 -3.05657
14.9435 128.554 -3.78317
-25.2896 132.32 6.30616
-5.90603 144.806 -4.58553
-25.9059 139.836 3.32679
8.33103 113.707 4.4694
10.3664 109.82 5.52985
19.0994 135.43 -7.84531
0.435682 112.677 7.20212
-26.1866 139.427 3.60245
5.81898 115.743 4.3465
-20.5975 131.286 5.4412
-0.304629 111.986 7.73197
-18.0014 129.757 5.34299
-12.9656 147.349 -3.56445
8.48452 113.639 4.50144
-17.7995 117.595 10.4516
22.7247 105.079 4.02753
9.38475 112.425 4.79169
-9.45736 148.464 -4.98522
-1.5205 139.674 -3.56263
24.1097 128.829 -6.37934
-17.6154 143.713 -0.577534
22.6606 103.736 4.66645
22.5154 101.27 5.75701
18.9321 116.761 0.288277
17.8872 121.471 -1.39677
-16.3616 143.993 -0.974228
-21.3968 143.142 0.851329
11.6415 107.329 6.43888
19.0009 115.883 0.700073
19.7811 119.354 -0.99225
17.7374 134.636 -6.86917
0.640618 113.857 6.88752
12.8214 98.9583 9.67271
4.28473 116.601 4.69602
1.78445 114.883 6.14905
15.9163 97.2571 9.51239
15.7953 126.592 -2.83644
13.251 99.0934 9.55475
-9.00565 113.552 9.90449
22.6101 132.376 -7.23026
6.42363 141.051 -6.1825
0.116646 113.564 7.28534
-18.6954 123.569 8.51595
-17.5042 129.076 5.86548
17.7432 123.602 -2.02416
24.7376 128.604 -6.1706
0.423254 138.706 -3.36487
12.4158 102.788 8.36578
15.2556 98.1609 9.5116
0.931748 114.801 6.62845
19.1338 115.933 0.877851
7.72385 116.168 4.11044
-14.4382 117.198 10.1053
12.0977 106.722 6.85157
4.00271 117.239 4.74735
11.1989 109.351 6.007
-23.3505 141.99 2.21227
9.18611 114.177 4.56225
-10.3025 149.037 -4.53308
20.7402 99.1441 7.5865
-16.834 144.145 -0.564884
-5.90269 112.364 9.72029
-23.9846 133.61 5.97082
-24.15 135.291 5.31299
-10.7633 115.145 9.99311
18.4665 122.98 -1.79444
-22.8915 142.74 1.83908
-5.30908 145.467 -4.41359
27.0614 127.131 -6.04017
-21.6474 143.568 1.14343
-21.9688 143.547 1.2797
-1.27735 113.065 8.18681
3.56992 117.354 4.97921
19.8809 98.5267 8.22235
0.175612 139.434 -3.37151
18.8636 97.4159 9.00211
22.0028 100.205 6.92425
1.68073 139.063 -3.62615
22.1695 106.235 4.35951
12.7601 105.591 7.36738
15.2945 126.3 -2.12434
16.8671 98.265 9.29627
-22.032 132.748 6.00664
-25.6682 136.049 5.67857
5.0962 118.225 4.30441
-6.25494 147.459 -4.773
9.80117 114.135 4.68193
21.7791 111.304 2.40938
14.3557 126.125 -1.6926
13.6352 100.097 9.54878
11.6828 109.227 6.2613
18.4201 136.338 -7.16937
21.7561 102.415 6.23893
17.0592 130.913 -4.46149
15.5929 124.953 -1.50664
-23.3978 135.511 5.3398
-9.28886 114.818 10.0198
-17.5132 130.683 5.7047
16.4839 136.158 -6.47218
-2.07269 113.479 8.57394
18.2533 118.256 0.659605
-7.67414 148.884 -4.78486
-11.0757 149.418 -4.02146
8.59966 116.829 4.0752
4.29752 140.281 -4.59085
19.8775 114.177 1.94745
9.34705 143.836 -7.54369
18.8163 117.256 0.965193
16.071 124.284 -1.19185
-20.2479 144.553 0.80882
-5.14521 113.307 9.65812
-15.3078 119.299 10.0794
-11.5269 149.348 -3.73475
-16.5632 127.013 7.18472
0.89927 116.252 6.69621
5.02 119.126 4.28869
18.3655 121.99 -0.764484
21.4848 103.701 6.07468
-15.5428 145.473 -0.866467
16.7121 99.5024 9.24487
10.3614 143.321 -7.45696
-2.15586 143.591 -3.93979
27.2537 127.63 -5.7105
21.6927 101.833 6.83001
18.1277 98.6702 9.22444
19.8397 99.4726 8.39672
13.3464 101.493 9.44331
-17.8168 120.713 10.3533
5.29914 119.434 4.19025
7.06502 142.71 -6.15762
21.9688 109.954 3.38807
22.2907 108.718 3.82912
20.6581 136.777 -7.56449
-8.1098 114.983 10.0114
-18.007 121.455 10.1737
15.7332 125.109 -1.15903
16.5082 136.155 -5.98496
28.2929 125.736 -4.98947
19.4212 115.664 1.85103
-22.4058 143.727 2.10938
27.0054 128.206 -5.63344
-13.2909 118.387 10.2135
13.6011 105.005 8.08435
24.2618 130.692 -5.87874
-6.48436 148.851 -4.63278
6.28065 142.332 -5.56419
16.6787 136.768 -6.19112
-2.65242 114.713 8.76325
0.961989 117.101 6.70903
7.65879 119.189 3.89582
18.9605 123.482 -1.1612
19.4493 121.788 -0.553053
-17.5685 120.874 10.5795
4.94012 141.5 -4.65596
-18.1308 145.738 0.246522
13.2702 142.035 -7.29006
22.0659 109.084 4.14466
-27.0838 138.037 6.1526
22.1303 119.334 -0.202698
-17.8128 121.725 10.3738
-2.28526 115.691 8.44012
23.7542 132.284 -6.13744
21.8372 110.98 3.46098
-12.8833 148.789 -2.47061
20.8677 114.057 2.47424
6.92819 120.231 3.9051
-8.47721 150.207 -4.31603
8.40133 145.018 -7.00628
15.394 125.468 -0.748819
7.51539 144.189 -6.36565
15.4914 129.592 -2.48851
-24.5944 136.841 6.07074
2.43451 141.286 -3.64001
3.32539 120.379 4.97867
-19.8492 133.394 6.20735
4.87134 121.41 4.21535
-1.20145 144.234 -3.68426
27.3549 128.54 -5.32114
-14.1589 131.407 5.52065
-22.9332 143.339 3.01948
-0.28337 143.092 -3.41384
-12.5018 132.706 4.52923
-12.5583 132.549 4.66071
1.66172 141.99 -3.45597
1.51878 119.772 5.99619
-12.4162 133.862 4.08351
21.5778 112.028 3.46759
21.3699 113.409 2.95745
-13.7956 134.393 4.33316
21.3557 120.322 0.100943
19.3737 123.189 -0.537649
14.2294 103.227 9.40601
20.4723 114.898 2.65946
-3.93186 115.844 9.34126
-24.5849 137.305 6.25593
-0.862322 144.323 -3.59319
3.11013 141.891 -3.7155
20.9401 105.117 6.70137
-1.02147 117.465 7.84484
-5.24229 148.617 -4.09457
2.71294 141.992 -3.5947
-9.42808 117.586 10.2617
19.2109 120.582 0.686911
19.949 121.18 0.220497
-15.4211 121.863 10.1976
8.54913 145.684 -6.80723
-16.3217 146.275 0.158591
7.58714 121.467 3.73069
24.8214 130.717 -5.18089
26.1475 120.31 -1.14079
-12.3198 120.028 10.1375
-16.3117 122.509 10.2513
-21.4501 144.793 2.31697
-13.2092 135.407 3.92471
15.073 128.391 -1.30764
-16.6003 125.554 9.08714
-8.32314 117.339 10.1681
0.489187 119.605 6.65729
-20.0193 145.756 1.53596
-11.528 119.47 10.2073
19.0524 100.976 9.17085
-13.8116 147.864 -1.1453
22.3949 135.176 -6.27108
-16.0259 126.113 8.7296
-16.3703 134.788 5.16148
18.7277 118.138 2.05047
19.1309 120.678 0.865239
-15.1987 129.162 7.23442
-12.8608 135.023 4.07913
1.04728 142.86 -3.25945
18.6384 124.566 -0.607975
-13.0234 121.76 9.7743
5.39503 143.367 -4.70337
19.8664 116.142 2.63301
19.4385 121.444 0.540232
-8.76025 118.021 10.1725
26.1401 129.655 -4.85802
-14.0284 134.758 4.64011
-2.74791 117.369 8.74216
-5.39304 116.812 9.75434
7.8216 122.384 3.5626
5.29234 123.003 4.04922
25.3529 123.391 -1.93383
-12.658 149.508 -1.96503
21.657 109.447 5.05617
12.3479 144.003 -6.87166
19.0499 124.638 -0.609805
6.14221 123.346 3.68771
18.2481 119.376 1.85777
18.6054 123.398 0.0644512
-8.87805 118.427 10.161
1.66881 121.081 5.9784
7.02983 123.057 3.58992
24.3584 120.569 -0.372167
23.7311 120.582 -0.177865
-15.8508 135.02 5.19241
-11.8917 150.603 -2.55311
5.87143 123.648 3.70696
-9.41302 118.911 10.1809
10.6537 145.359 -6.80409
16.1178 138.132 -5.32666
-8.49277 135.846 2.78153
-14.8732 147.003 -0.0788242
-20.4754 145.734 2.09635
-12.4762 136.719 3.60258
20.7199 104.638 7.56702
-11.3999 121.007 9.96764
0.839215 120.983 6.43298
-15.3657 147.074 0.106772
-9.40669 119.359 10.1459
14.2958 142.262 -6.4246
-15.7543 125.586 9.36388
19.814 139.083 -6.65823
-0.62553 119.953 7.37501
5.54676 123.959 3.90931
17.2317 138.354 -5.57259
-13.4179 129.717 6.97768
-8.82475 135.724 3.11362
-22.583 137.454 6.37292
0.413592 144.711 -3.36526
-10.2475 151.214 -3.01216
25.4667 121.995 -0.9927
18.9645 124.99 -0.373555
20.2601 103.882 8.18856
-14.8798 135.15 5.15526
9.08215 146.423 -6.56701
-13.2976 131.248 6.3581
20.5639 105.919 7.27293
7.25539 145.917 -5.79269
-14.5858 137.161 4.27326
-9.29207 135.424 3.47969
-10.2106 135.23 3.8363
21.6106 137.594 -6.39148
2.22051 143.661 -3.33426
18.5386 123.914 0.298556
28.1371 125.116 -2.97811
-7.38599 118.807 10.0056
0.914388 121.622 6.40889
-2.27385 147.589 -3.6505
11.1587 118.55 4.75896
-12.1468 135.909 4.1837
18.8432 121.021 1.50513
15.3269 105.591 9.07893
-13.6802 137.324 4.07355
17.3842 124.922 0.315576
-11.2504 134.943 4.37898
-7.43721 136.457 2.63384
-22.8331 143.586 4.08585
1.62208 122.318 6.00231
7.15191 124.676 3.40175
0.869028 121.886 6.40762
-9.65289 120.434 10.0857
23.9408 133.491 -5.15373
8.36532 146.768 -6.24898
4.04171 143.926 -3.78666
10.954 119.933 4.3721
11.4145 118.263 4.95126
-9.32552 120.439 10.0533
22.6668 136.196 -5.89319
-12.8722 131.072 6.60365
-11.9161 151.05 -2.12336
19.9948 117.321 2.90419
-13.1306 149.198 -0.978112
17.3736 125.057 0.412459
19.104 123.466 0.587191
27.2201 129.909 -4.49115
-7.34289 119.839 9.79759
-15.0029 137.878 4.38235
-13.459 137.62 4.05567
-0.812999 121.206 7.33867
21.5451 111.965 4.76796
-11.5365 132.848 5.54736
23.7899 134.195 -5.25923
-4.93321 118.952 9.54668
17.9987 124.324 0.624218
17.0688 125.456 0.459424
-12.0399 151.006 -1.90896
-0.640694 121.803 7.15102
18.4669 124.435 0.524088
19.2417 104.104 8.90744
-13.6269 137.924 4.13362
-12.2797 129.02 7.51626
22.2629 121.949 0.493001
21.011 109.902 5.96497
11.867 146.026 -6.66956
20.757 115.361 3.76313
-2.3391 148.437 -3.54003
-13.1236 139.884 3.21591
18.3377 124.433 0.638963
25.9044 123.712 -1.24211
-13.6474 139.986 3.34367
11.5353 118.48 5.15109
16.3752 103.814 9.9583
-2.58371 119.929 8.63754
-12.8177 126.653 8.78618
-6.0165 138.622 1.75014
-18.9476 135.787 6.70168
11.5696 118.428 5.20363
-13.8907 140.08 3.43742
6.3146 125.979 3.56783
10.5232 147.067 -6.57829
24.8964 131.375 -4.0787
-9.93887 122.07 9.9867
-8.06923 136.943 3.15193
15.658 105.973 9.3976
10.179 123.365 3.63135
-12.4983 131.848 6.63987
-8.08311 134.68 4.20281
-20.8024 136.694 7.03954
-4.31353 150.113 -3.41721
-9.64744 133.81 5.06308
17.653 104.485 9.56864
18.1834 118.91 3.31609
9.09912 147.532 -6.16588
10.3577 147.391 -6.45964
-11.1952 132.589 6.07607
6.8247 126.701 3.36655
23.8181 134.62 -4.89944
-11.6873 127.547 8.40716
28.1213 127.623 -3.16669
21.0245 114.008 4.6657
20.9162 114.526 4.48185
-5.27333 151.139 -3.41275
3.61707 125.064 5.0676
25.6757 122.925 -0.422502
10.6916 122.345 4.19191
-11.4734 132.334 6.39859
18.9606 124.207 1.01608
23.591 135.389 -5.05479
-14.7881 139.947 4.16164
21.1873 112.885 5.18821
-10.2171 137.806 3.75976
18.7843 105.346 9.09532
-12.7316 125.051 9.89765
-5.52023 138.074 2.32515
-17.7405 147.62 1.85443
4.57971 126.158 4.48699
7.36038 147.399 -5.25744
12.1889 117.315 6.08242
21.1322 113.253 5.21324
-23.86 141.045 6.4977
17.5383 140.028 -5.07967
-5.39295 135.502 3.49418
-11.7491 131.854 6.89481
-5.98312 122.691 9.10506
26.0881 131.365 -3.86475
-18.4701 137.348 6.54989
1.2888 124.543 6.24032
17.2566 105.486 9.71738
-23.9342 140.754 6.76629
-9.64243 138.645 3.51516
-9.71505 130.056 7.18853
10.965 122.022 4.59315
1.7633 124.942 6.06385
-8.57011 137.056 3.94767
-12.8606 142.372 2.94947
11.2225 147.204 -6.06857
17.0147 105.757 9.80284
18.3137 126.012 0.860874
-15.5264 148.687 1.08323
-8.5863 123.536 9.74048
-5.51451 134.11 4.37782
27.4453 124.398 -1.04493
-3.89452 122.777 8.73235
-0.0541518 124.785 6.78028
8.44718 148.286 -5.60909
15.0056 143.048 -5.28905
-9.10222 128.222 8.00886
-6.80082 126.138 8.23023
-9.12171 137.641 4.04048
7.34826 147.767 -5.02156
22.2808 123.782 0.803208
-3.72705 122.917 8.71617
6.17939 147.008 -4.35393
-23.2377 142.34 6.16057
3.26944 126.262 5.30368
-9.88874 124.408 9.90539
-7.72624 133.057 5.61986
5.86575 146.855 -4.16131
-8.29024 131.481 6.45384
-1.42519 124.56 7.39832
-9.09071 124.248 9.75533
-8.18095 131.567 6.41091
-8.74732 124.894 9.40099
14.9476 143.201 -5.21302
-4.55769 138.957 2.2447
-11.3782 130.255 8.00476
5.81364 146.992 -4.05985
27.0616 131.592 -3.66716
-17.202 137.867 6.51511
-22.7393 143.138 5.89059
9.04083 127.935 3.11893
-8.20917 130.221 7.16465
18.7302 121.182 3.17824
19.041 126.96 0.656295
-1.24166 125.176 7.3027
18.8012 126.336 1.00567
-7.48271 152.57 -2.46138
18.7237 126.424 1.01293
-17.3379 138.092 6.53922
4.98652 128.685 4.06931
13.9169 112.195 8.47398
-14.3287 149.268 0.980228
28.4272 129.478 -2.9988
-22.6966 139.975 7.38988
19.7687 124.202 1.75858
3.7599 127.252 5.11567
-8.09838 126.536 8.8652
19.1709 141.338 -5.31081
18.6214 109.789 8.22447
-5.22939 141.083 1.89466
-9.67424 127.454 8.95608
-4.25084 133.885 4.66437
-11.4551 142.92 2.93393
-9.97905 127.347 9.11004
-4.43728 125.669 8.23584
-6.79617 131.896 6.29
28.5092 129.865 -3.07266
21.5859 139.329 -5.07051
-6.65247 131.922 6.25931
15.0293 109.788 9.34325
18.2949 119.964 4.09437
-11.2772 142.789 3.02286
-2.67743 125.006 8.05834
19.3466 127.437 0.651941
5.24896 147.715 -3.80985
2.17149 127.172 5.79001
-13.5372 143.004 3.64903
19.298 125.113 1.71456
22.3262 124.493 1.10591
24.3623 128.252 -1.06676
-3.89132 133.945 4.73108
25.9994 127.612 -1.24723
-9.90508 152.573 -1.39898
-15.9997 138.91 6.15461
-3.29528 124.677 8.50225
23.9979 135.528 -3.98707
-4.79093 127.355 7.84243
-16.488 138.515 6.5168
-2.35281 125.641 7.88544
-10.7865 142.339 3.30819
-21.6021 140.414 7.29379
-13.5905 143.292 3.75155
18.1164 108.347 9.35187
-10.4867 152.548 -1.06146
-3.57648 140.596 1.995
27.0751 126.043 -0.722965
3.00889 127.776 5.52943
-12.0365 144.349 2.87733
26.5484 128.414 -1.5596
23.4172 137.524 -4.49802
-21.5551 141.292 6.97059
17.4257 107.88 9.81078
3.06145 148.496 -3.21738
8.29626 130.915 2.72482
17.4662 107.926 9.80798
-12.4012 144.231 3.11233
-6.19701 130.998 6.91968
-12.1527 144.43 2.96236
7.85919 149.026 -4.7875
10.5752 148.457 -5.30793
28.5028 125.943 -0.968761
28.7533 125.53 -0.837062
20.7636 125.049 1.68922
9.35106 129.817 3.00885
-7.45467 138.494 4.21406
-8.21427 138.825 4.32146
24.1279 128.828 -0.803147
2.57652 128.429 5.63291
25.268 129.346 -1.33463
-4.58896 131.968 6.21777
-6.61325 139.103 3.80143
21.9153 125.035 1.49047
24.2576 124.669 0.96756
-4.96374 131.581 6.51902
-10.4346 152.701 -0.821624
2.95201 128.474 5.55498
18.2352 128.476 1.12552
-10.4043 144.063 2.83578
-21.6045 143.639 6.27538
-18.5493 147.305 3.84751
15.4006 110.514 9.5861
-0.535517 127.725 6.93305
22.0121 125.1 1.51488
27.4121 126.637 -0.696938
-12.2383 151.577 0.254024
3.67974 129.061 5.17151
28.4527 127.751 -1.41611
19.5148 125.571 2.10082
-5.46571 130.881 7.09928
20.2619 115.727 6.05973
-21.0706 142.76 6.60602
20.7591 140.84 -4.7137
-5.42692 153.214 -2.34243
-2.35564 135.25 4.40047
-12.6979 144.822 3.36093
-19.0241 139.551 7.43006
19.2855 113.436 7.39437
-0.134573 151.34 -3.01848
19.2924 142.661 -4.96453
-7.16639 139.373 4.11272
-2.98273 141.693 1.92274
-20.7741 144.656 5.83068
21.1176 125.402 1.84454
14.6656 112.651 9.12585
-20.8119 142.653 6.71512
16.8969 109.651 9.77469
-19.2585 139.974 7.44549
15.0188 111.987 9.35335
8.50449 132.473 2.58679
20.5555 141.266 -4.627
17.7339 142.379 -4.27967
-13.7413 144.236 4.10214
-10.7042 152.686 -0.355594
-18.7107 147.095 4.34655
18.6261 128.316 1.49384
-4.37101 131.147 6.96968
19.5745 127.895 1.4055
-19.4479 146.215 4.97678
11.544 126.545 4.32453
18.5021 111.813 8.54619
-4.06912 142.231 2.2378
11.9127 122.278 6.05388
-2.28889 136.704 4.0933
5.22352 131.523 4.11327
27.5081 132.075 -2.56301
-9.74988 142.146 3.98026
6.57168 149.645 -3.92496
28.6929 129.699 -1.88132
-13.3537 144.976 3.87583
-9.68198 145.048 2.78483
-18.776 146.94 4.64578
-8.17484 140.046 4.4925
8.2872 132.971 2.71293
-15.3864 149.421 2.62442
2.75494 129.86 5.65278
-7.46862 140.038 4.31316
-3.62298 142.346 2.22583
-13.4554 144.89 4.02711
16.462 143.103 -3.86851
-2.5695 128.232 7.96751
-1.22526 134.617 4.8828
17.6802 111.055 9.4204
-0.824098 152.5 -2.75245
18.9828 126.41 2.55771
-14.8985 149.769 2.4989
18.8543 126.357 2.62525
19.048 126.53 2.50501
-5.9876 153.539 -1.66139
-9.62485 153.271 -0.458733
-15.9995 142.301 6.03738
19.6458 116.792 6.49961
13.2149 147.549 -4.64667
11.7144 127.09 4.48233
-2.40234 129.724 7.46344
1.68686 151.656 -2.99503
18.8275 122.262 4.48921
28.158 128.626 -0.89793
19.6277 116.123 6.87198
28.2214 128.332 -0.779448
-10.4744 148.218 2.06113
-1.94629 141.433 2.46901
19.048 127.121 2.46456
-1.96996 130.256 7.23823
18.9121 119.182 5.90131
11.1004 129.767 3.72135
4.93209 133.586 3.89785
-16.1886 142.486 6.26098
12.1836 123.707 6.00069
-12.9001 146.272 3.72917
4.22861 133.825 4.0486
-10.0248 148.556 1.95501
6.12961 150.6 -3.58354
8.31738 135.072 2.35876
14.7025 114.63 9.17047
14.8476 114.465 9.22649
-0.425763 136.24 4.46364
3.96367 133.63 4.30151
14.5006 145.708 -3.86417
19.3592 116.665 7.02345
-16.3121 142.72 6.39205
-17.133 141.692 7.07412
13.8253 116.815 8.65002
7.99049 151.193 -4.21156
0.12591 152.976 -2.66903
18.4299 115.326 7.97229
26.102 131.736 -1.19866
-1.68826 142.903 2.15256
16.1118 113.011 9.64705
8.52773 151.281 -4.33219
5.19397 134.409 3.79787
19.1495 117.577 6.89116
-15.4647 149.135 3.5856
-8.20248 142.936 4.109
4.29289 151.25 -3.03074
-8.69552 147.721 2.23953
9.29935 134.82 2.49811
-18.971 144.999 6.38909
5.84674 134.099 3.86651
-3.89154 154.355 -1.88423
25.1778 135.037 -2.13191
9.59447 134.677 2.54243
13.9101 146.66 -3.77399
-1.95753 153.822 -2.18513
-12.6948 150.835 2.19723
-6.26374 141.865 4.15716
15.197 115.104 9.27961
-0.543387 139.75 3.41181
10.2891 132.974 3.16011
3.20827 152.118 -2.88923
25.081 135.325 -2.1229
23.4419 126.519 2.08618
17.8203 128.204 3.0128
-0.826161 141.572 2.76462
15.9472 145.082 -3.56002
17.3327 114.767 8.87477
-0.15791 132.398 6.49514
6.06434 135.476 3.4054
-7.59146 143.471 3.99341
11.7675 148.831 -3.88596
3.6635 134.564 4.53127
18.7601 127.529 3.13483
18.4438 123.703 4.85293
9.30819 150.718 -3.93115
12.2857 127.001 5.26117
17.3088 125.681 4.37745
-1.75573 143.576 2.33238
24.6883 136.09 -2.16674
0.858496 136.691 4.50319
-14.8325 149.381 3.68501
-0.488187 141.125 3.02386
16.6171 113.768 9.65013
-15.1142 149.218 3.84653
0.06505 139.286 3.65372
25.4251 132.835 -0.964503
18.3442 144.709 -3.93227
-15.4755 148.469 4.30035
18.8374 144.638 -4.02975
18.7243 127.588 3.22399
0.2414 138.856 3.81665
-11.5083 151.129 2.03724
-17.1826 142.771 7.23097
-12.8873 147.977 3.78246
16.3814 114.232 9.58783
10.8328 132.674 3.39451
2.70064 134.065 5.20578
-0.627154 142.473 2.63607
0.46339 138.886 3.84028
5.30094 151.953 -3.0868
18.7624 144.805 -3.93765
18.9646 118.776 7.07427
17.8649 116.234 8.4838
12.7202 121.975 7.54689
26.4534 133.411 -1.25597
-16.4345 147.031 5.41966
24.4028 136.488 -1.92209
0.402705 141.176 3.06644
12.2909 148.968 -3.64108
3.43852 135.216 4.75473
11.1814 132.753 3.55379
0.965999 139.442 3.70363
-15.3658 144.186 6.43671
0.847585 140.383 3.34986
-15.761 147.224 5.29192
21.7236 127.348 2.84668
17.2047 145.481 -3.46716
18.2756 123.612 5.48766
1.58558 134.199 5.86821
26.8955 133.882 -1.32243
20.4726 128.767 2.70735
18.0172 124.179 5.36799
-7.69147 152.738 0.742835
16.1087 146.126 -3.33792
9.59682 136.897 2.47697
5.1259 138.229 3.22846
17.788 128.491 3.68186
-15.6656 145.565 6.20559
25.0815 136.252 -1.64203
17.5543 117.044 8.69814
-15.0908 146.187 5.83446
-14.9741 145.665 6.05373
17.1119 124.283 5.86063
16.7452 116.455 9.30758
20.8564 128.142 3.18991
18.6681 118.999 7.69775
18.2284 122.434 6.372
5.54315 139.039 3.04628
3.95804 136.646 4.52113
18.6082 118.769 7.84439
5.86466 138.889 3.05349
24.1635 137.11 -1.36455
17.6755 145.883 -3.17262
-0.288287 145.049 2.39297
2.74946 153.761 -2.16969
13.618 148.945 -3.2407
18.43 131.086 2.92792
14.7352 119.031 9.12352
16.096 117.774 9.26107
15.8615 117.958 9.25451
11.1161 136.188 2.93045
12.9012 123.421 7.85204
16.3903 117.892 9.19748
17.4043 131.869 3.00552
4.78962 140.61 2.9898
11.7194 133.172 4.13003
24.1544 133.658 0.330426
17.515 128.624 4.39031
0.0371807 145.199 2.44786
12.1621 131.209 4.8703
8.17884 139.173 2.70713
13.7488 121.78 8.47387
5.70653 140.581 2.85236
9.13512 151.767 -2.86815
10.5634 150.361 -2.66156
6.84008 152.987 -2.66095
16.3312 123.759 6.96221
16.5427 118.689 9.04913
17.1937 128.009 4.9422
23.7211 139.132 -1.63488
17.3864 123.031 7.02549
13.0092 123.372 8.19879
11.5913 134.09 4.19863
2.23554 143.851 2.81607
24.8715 134.335 0.307581
14.5112 121.352 8.85013
15.5175 119.991 9.16812
16.1075 120.154 8.98282
16.5784 128.866 5.21323
15.1012 120.44 9.24049
2.5938 144.171 2.83217
11.9391 132.69 4.99258
15.5048 147.105 -2.13646
20.6275 144.495 -2.47892
9.21796 152.044 -2.32904
9.90681 151.459 -2.27495
15.0644 147.301 -1.9428
9.17726 141.024 2.43475
2.91482 144.422 2.84821
22.7492 130.313 3.15394
6.22544 143.081 2.55766
3.21772 144.279 2.92507
8.33345 142.234 2.38511
5.17833 143.412 2.8246
15.1607 130.291 5.48739
11.5809 136.601 3.8547
