ply
format ascii 1.0
comment Created by Open3D
element vertex 1953
property double x
property double y
property double z
end_header
-1.7562 105.643 -9.32061
0.0307062 83.9254 0.468199
-17.226 125.406 6.2291
-18.405 128.851 6.30621
-0.638696 81.2298 3.37869
-3.41319 107.85 -7.52995
1.25347 90.0577 -5.10244
-5.45301 87.4454 8.26295
-5.97204 115.063 -7.20369
0.184786 83.1188 0.97507
-12.7137 106.635 9.68192
-6.71731 90.761 8.58827
-14.3069 113.839 8.25962
-13.8713 111.032 9.16285
-9.76381 127.967 -8.12331
-14.0996 131.685 -2.59992
-18.0691 137.698 0.81992
-6.52821 117.399 -7.40585
-14.9339 117.176 7.54108
-18.9544 138.639 1.8672
0.0429263 85.5432 0.0460103
0.289954 82.4806 1.48498
-14.6133 132.211 -1.87161
-4.38478 85.9488 7.6492
3.98942 79.4482 -3.15826
1.81131 89.4027 -5.24654
-9.49529 97.5449 9.80348
-18.2086 128.428 6.76824
0.286655 83.0459 1.22088
-11.0777 101.775 10.1556
-7.79751 120.18 -6.54719
-14.043 115.414 7.27645
-7.29154 119.281 -6.86023
-2.53603 107.356 -8.04322
-3.28476 83.4614 7.49922
-19.5961 133.272 6.60884
-12.1423 130.754 -5.00687
-9.98755 98.7636 10.267
-20.3545 134.348 7.35127
-17.3271 137.594 0.160326
-15.7258 123.484 5.79197
-16.4845 125.099 6.24172
0.180646 101.06 -8.77333
-14.7787 133.752 -1.86647
3.29678 83.0647 -3.48308
-11.454 103.776 10.1943
-17.9564 128.792 6.76669
-15.5728 122.219 6.53416
-14.3106 133.332 -2.29371
0.368764 82.6364 2.0563
-15.53 123.714 5.61879
-0.229567 102.915 -8.89212
-5.43366 114.459 -6.58382
-13.9378 132.565 -2.3696
-8.8477 125.459 -7.08028
-7.80359 94.0747 9.7553
-14.0223 133.25 -2.58065
-8.80728 125.229 -6.9614
-0.162187 86.192 1.22298
-17.7927 131.079 5.54711
0.0968753 86.3141 0.704125
-6.96224 92.2769 9.5852
-19.0626 139.526 2.7943
-6.98572 92.352 9.61349
-4.14284 86.4103 8.22669
1.46734 85.2627 -0.817202
-14.367 133.898 -1.84933
-13.5224 133.328 -2.98741
-4.90087 88.3028 8.64844
-8.72185 125.929 -6.97226
1.59159 82.8935 0.599607
0.588218 84.2522 1.57499
-14.3174 117.212 8.37094
3.00913 89.7729 -5.79006
-18.4132 140.145 1.99143
0.522809 83.2332 2.55224
-18.3717 140.254 2.00668
-14.6035 118.557 8.32011
-19.7159 139.241 5.03827
-19.1363 140.205 3.46025
1.77052 85.4287 -0.718323
-14.751 125.43 4.58836
-15.1216 122.735 6.96497
-17.352 130.882 6.0592
0.88441 100.654 -7.97604
-0.0590697 87.3134 1.61916
-18.7344 134.114 6.64323
4.11115 82.3199 -2.72285
-19.6219 134.964 7.7208
-18.5727 133.956 6.48818
-8.25687 96.6384 10.5888
-13.7791 115.087 9.33377
-13.8517 136.602 -3.33359
-2.87435 110.018 -6.80266
-9.32161 100.435 10.3933
3.50033 88.3624 -4.98056
-12.2033 109.289 10.2079
-4.23897 112.429 -5.62266
1.21257 86.3388 0.391894
-13.0573 112.592 9.99442
3.03693 86.5619 -2.79261
2.56539 92.0636 -5.21762
-13.3365 114.449 9.50385
-9.81354 132.301 -7.27722
-10.6876 105.423 10.2748
-18.0016 141.098 2.07703
-16.7067 129.465 6.75758
-8.65188 130.055 -7.75005
-11.778 108.956 10.355
-5.5746 117.932 -5.89139
0.307493 88.567 1.2303
1.22574 99.932 -6.99385
-10.9788 132.738 -4.98494
-13.4983 137.576 -3.42602
0.702637 83.6146 3.6983
-11.8299 134.141 -4.28315
-11.1145 133.134 -4.9306
-6.91972 122.002 -5.67713
0.429 83.7013 4.17689
2.74556 81.9403 1.21878
1.9384 86.471 -0.0466772
2.25204 93.7274 -4.89952
-16.5254 131.659 5.60754
-7.46311 124.576 -6.0308
-13.7696 117.488 9.29372
1.82624 87.4863 -0.296793
-19.4424 138.781 6.65655
-0.143836 107.398 -8.59964
-12.1076 135.12 -3.98813
-7.92058 99.3279 9.97642
2.49589 83.7627 0.95402
-5.4027 118.233 -5.58414
6.90133 80.6165 -4.82074
-13.5587 125.33 4.60057
-9.22068 132.782 -7.45978
-2.59468 86.6497 8.32387
-6.73682 96.5913 9.73572
-2.15634 87.1664 7.34577
-6.05089 94.183 10.0895
1.53883 87.4084 0.818537
-13.6346 136.344 -1.57989
1.17198 89.5336 0.295628
6.21996 80.3827 -3.11263
4.51899 88.8414 -5.1446
-11.8241 135.95 -4.40023
-10.2534 134.532 -6.31552
-12.0745 137.797 -5.00379
-2.52784 90.6126 6.27158
0.988614 85.155 3.33214
-5.10506 91.6245 10.2069
-11.9972 136.756 -4.49207
4.62255 88.4695 -4.93265
-4.40856 90.1286 9.98316
-1.33446 86.2157 6.94404
1.14976 84.3432 3.71912
0.285217 88.9974 2.52564
-11.0031 109.861 9.97776
-11.3068 136.465 -5.27895
-9.82179 134.352 -6.62815
-11.3212 136.537 -5.26103
-13.042 125.317 4.60396
-6.77962 98.9097 9.33356
-17.4501 142.25 2.34354
1.69079 99.4341 -5.86012
1.40431 89.6251 0.543255
-2.21105 91.5734 5.74586
-5.59298 95.1351 9.59401
0.264415 89.8518 2.43838
4.68845 84.4188 -2.09082
-9.71973 134.983 -6.78682
-0.547077 91.2795 3.10313
-4.08252 91.69 9.10072
-2.19327 111.898 -6.21174
-0.619504 85.2799 6.85215
-14.1679 127.425 5.63753
-12.2332 114.314 10.0903
6.24985 82.2935 -3.35869
-6.17559 97.3296 9.58736
0.923833 89.5298 1.8343
-15.3564 131.365 5.61207
-2.32248 92.294 5.94484
-6.72494 100.261 8.95562
-2.37483 92.3686 6.03051
-7.3637 102.235 8.98483
4.58575 86.6132 -2.72511
-16.1778 132.867 6.31299
-5.11906 92.8247 10.6782
7.48494 80.628 -4.21851
4.59561 92.9291 -6.41623
-14.5175 129.542 5.46984
-17.5008 142.565 2.97866
-7.99874 103.772 9.33768
4.75817 85.9425 -2.41873
-4.56951 117.53 -4.76244
-5.9699 122.973 -5.48975
2.25819 97.5943 -4.80165
1.31694 86.342 3.57148
-7.66359 103.855 8.96229
-7.77384 131.367 -7.13706
1.29441 106.47 -8.26785
-17.6139 142.607 3.51646
6.83664 82.5526 -3.68265
-12.3624 139.652 -3.8139
-9.22376 135.478 -6.85247
-12.7344 126.953 4.39488
-12.2813 116.018 10.1138
3.39227 86.1296 0.349917
5.08323 92.9988 -6.69312
-2.71618 91.8819 7.70723
-5.06729 120.11 -4.92347
-17.3093 142.95 3.04693
-8.15362 105.37 9.3696
-2.61675 91.5586 7.91576
3.46398 85.8461 0.622998
-12.3573 124.395 5.5536
-17.9032 136.937 7.90277
2.5516 86.259 2.09181
-7.64901 132.274 -7.28935
-16.4596 133.636 7.40911
0.732245 86.0398 5.47333
3.82522 84.524 0.958631
-8.83967 107.179 9.78315
-2.44736 90.9755 8.19657
-17.7362 136.592 7.97672
-14.099 139.491 -0.134988
-13.2179 138.813 -1.23496
-12.5735 123.637 6.66687
-11.0704 138.849 -5.0189
-0.444403 89.0276 5.91961
0.973755 90.7918 2.4052
1.44361 88.5855 2.91479
2.66714 86.0799 2.2577
-17.2362 143.205 3.30654
1.3866 90.1499 2.09868
-6.89246 103.83 8.53123
-12.4481 123.69 6.54284
-12.9367 139.166 -1.7523
-7.51066 105.51 8.71977
4.38846 83.1897 1.07876
-13.1092 122.201 8.66934
5.73307 92.2105 -6.63468
-16.635 134.378 7.67223
-1.7892 113.263 -5.88648
-1.0227 88.8886 7.2955
-5.88447 101.214 8.53037
-13.3199 141.633 -2.426
8.01067 80.7331 -3.67021
1.58648 90.1404 2.03884
-8.0393 134.922 -7.66082
-12.6323 141.322 -3.38233
-11.7577 115.713 10.321
-10.4797 138.755 -5.59757
1.53468 107.318 -8.02558
3.26236 86.2595 1.47265
3.73696 85.6889 0.992002
-4.75826 96.5083 9.52149
1.2329 92.3299 1.4729
-9.81791 111.823 9.3389
-0.49677 93.1181 4.07292
-13.4081 139.762 -0.859567
4.12827 96.0392 -5.69271
3.12062 85.1512 2.56157
1.93363 87.3837 3.32225
-12.4222 120.071 9.14979
-7.17707 105.783 8.47284
1.14086 92.8355 1.56233
6.20579 84.4428 -2.35555
-12.7728 139.467 -1.68713
3.12129 84.7442 2.93443
0.888369 91.3784 2.92279
6.12496 91.3798 -6.28519
-5.50331 100.85 8.55301
-7.30554 132.17 -6.89102
-2.0628 93.6203 6.82967
1.50777 88.4793 3.66661
1.84108 86.9981 3.96917
-4.28777 118.838 -4.09904
1.35246 108.667 -7.96437
-1.37759 93.4566 5.89965
-12.5817 121.083 9.22111
6.07784 84.7446 -1.94989
7.5417 83.8926 -4.0133
1.60913 91.4993 1.90111
6.11062 93.1064 -6.94711
-16.1376 134.333 7.70877
-9.95178 113.699 9.10624
-3.58056 94.3556 9.42625
-17.5512 139.008 7.45564
-8.80765 109.288 9.78891
1.00312 92.7115 2.41315
6.53299 89.4324 -5.34466
1.17789 91.0834 3.0988
1.84167 90.7114 2.15612
-6.6389 105.517 8.27388
-10.7276 115.446 9.5832
-13.5023 140.385 -0.321236
-4.78659 98.9806 8.97306
1.71419 87.3141 4.53933
-12.411 121.053 9.33579
-9.39364 137.952 -6.01578
-6.80739 129.666 -5.63219
-0.33115 93.6612 4.39484
2.59076 88.1378 2.54173
-11.0916 116.177 9.93726
1.85332 90.0429 2.70883
1.56723 108.76 -7.8798
1.60539 89.8588 3.29839
3.53422 97.8913 -4.86488
-6.50299 127.246 -4.66181
4.18568 85.7012 1.24476
0.979905 92.6521 2.76263
-0.399132 113.174 -6.96328
-8.41905 109.184 9.53369
2.23043 90.4022 1.97811
-6.59109 128.124 -4.89115
-17.6491 140.864 7.0063
-7.77335 108.169 9.08871
0.912125 110.439 -7.53027
-8.76197 110.04 9.74142
4.38051 84.9342 1.58567
0.920721 91.9448 3.53187
-2.11909 115.301 -4.96427
5.00308 84.0082 1.1445
-13.1994 141.847 -1.21707
0.575966 94.7703 2.55801
4.99031 83.8569 1.33035
-16.4619 135.863 8.14763
2.33613 90.0851 2.31804
3.26333 105.053 -8.19751
1.59572 91.332 2.90881
-13.6098 141.036 0.110413
5.52569 95.6921 -6.5799
-10.6784 116.402 9.6342
-17.4607 141.808 6.46547
0.471966 94.8571 2.9283
2.07064 88.173 4.10255
-5.59915 125.211 -4.38669
2.18852 91.8537 1.75741
1.96035 88.6473 4.10394
-0.550702 114.096 -6.55743
-11.8725 142.476 -3.50233
6.75936 84.9459 -2.04961
1.66431 89.4892 4.22576
3.36391 104.593 -7.72253
-9.16533 139.134 -6.17363
-11.0069 117.305 10.0523
7.05955 90.7963 -5.94479
-2.10126 116.003 -4.79317
-11.1849 126.025 5.25598
-6.06035 127.206 -4.38905
2.31843 91.5969 2.13566
9.17754 82.1821 -4.24223
4.45423 85.4208 2.14653
2.1283 89.9506 3.54706
-15.2217 134.195 7.80569
-2.77965 95.7555 8.78361
2.03231 92.6372 2.18304
2.68943 91.5869 1.67439
-4.33793 122.283 -4.20112
-11.4098 123.302 7.64373
7.06334 85.4659 -2.31038
-14.0864 143.01 0.721277
2.57091 90.9055 2.44435
-14.9786 133.956 7.72047
3.53796 86.4821 3.54267
-16.9501 143.313 5.79107
4.23766 84.3652 3.60467
-11.3489 122.633 8.35667
3.63377 86.379 3.56177
-15.6427 135.924 8.01254
4.64288 85.3366 2.42607
4.62687 85.9674 2.08517
-14.6775 133.875 7.55708
-6.55416 133.471 -6.45694
7.38202 87.1272 -3.39143
-8.89151 139.952 -6.15908
-6.3243 130.913 -5.29201
-11.2125 127.646 5.29349
3.72952 102.787 -6.1972
-2.30843 117.231 -4.1409
-9.74225 117.172 8.99015
-12.1765 129.298 6.07166
-16.8749 142.851 6.29611
5.3317 83.9841 2.2674
4.16186 87.0859 2.48991
-6.83141 109.694 8.40899
-11.8172 143.46 -2.877
-3.29715 98.0277 9.15511
-0.11105 95.5602 5.01821
9.43567 83.3256 -4.47464
3.13547 90.0247 2.65245
0.971323 92.4319 5.04999
-10.7345 126.397 5.51388
7.69498 87.4648 -3.73933
1.37978 91.1527 5.19278
7.59288 85.7634 -2.48343
7.02234 94.4103 -6.61644
3.87468 103.381 -6.38513
9.3485 84.2921 -4.65384
6.88968 94.6741 -6.49328
7.77404 87.4881 -3.77255
-1.54659 94.4851 8.50263
-11.023 143.732 -4.10869
4.49988 85.723 3.11436
0.657668 96.5668 3.43013
-9.65608 141.396 -4.98637
3.80643 106.952 -8.1515
7.91224 87.256 -3.59331
4.40413 84.4286 4.30922
-2.36684 118.305 -3.92545
5.25854 85.8126 2.01795
-11.1473 120.744 10.1185
-1.71404 117.303 -4.4277
-9.99749 118.525 9.42133
0.205178 114.961 -6.3889
8.04476 90.6232 -5.69779
-2.2716 96.8206 8.82438
6.93376 96.1376 -6.95696
-0.580713 95.5088 6.64174
5.5903 84.0871 2.59548
-14.7833 144.457 2.55794
1.24917 92.979 5.00003
-6.23376 132.417 -5.19108
-0.913784 95.1776 7.61606
-15.9433 145.276 4.28385
10.0143 82.7039 -4.14747
-1.39403 95.18 8.50385
1.39726 93.0129 4.93884
2.19665 110.697 -6.97916
5.34532 85.0423 2.75494
5.8655 85.935 1.3896
-12.581 144.129 -0.767681
6.32537 98.0673 -6.55522
-9.38096 118.279 9.08386
2.3973 92.9649 3.42922
-0.139078 116.387 -5.94277
-1.86577 118.32 -4.04173
-12.4298 145.344 -1.52726
-13.7939 134.899 7.11582
6.41185 83.9173 1.9722
-10.7832 123.56 8.64908
-6.09948 132.926 -5.13709
-16.2419 142.516 7.01272
2.66796 110.216 -7.01256
6.25465 99.3258 -6.79556
-12.3756 145.596 -1.52198
3.52529 93.5798 1.47507
-6.03443 133.484 -5.43102
11.3699 81.1935 -4.90202
-15.5415 145.579 4.19516
4.00697 93.0913 1.07826
5.25986 82.5632 5.15197
6.81588 98.5823 -7.07728
-12.0483 131.37 6.61303
11.4098 83.1188 -5.93186
5.58991 81.5217 5.27472
-14.2656 136.45 7.57574
11.7639 81.6467 -5.61893
-10.7763 122.558 9.72215
-4.81496 126.609 -3.12599
-10.1327 127.327 5.82945
-10.5999 145.418 -4.08244
4.64649 102.67 -5.47136
-5.38924 129.979 -4.04771
-9.71372 144.406 -4.98716
-8.47279 142.257 -5.88121
2.69953 111.031 -6.83849
-15.6059 140.52 7.83105
-13.3307 144.638 1.39959
-5.173 129.32 -3.80658
1.80531 113.428 -6.62962
4.82076 104.169 -6.36605
-7.53979 140.697 -6.32709
2.61733 93.1804 4.079
1.834 113.528 -6.61895
6.2391 81.5248 4.69259
-2.48373 102.425 7.63489
-15.038 139.287 7.80934
-5.79615 133.759 -5.15718
7.09637 96.728 -5.75241
4.11301 93.9105 1.1754
-3.67135 105.362 8.10075
-2.06536 99.783 8.60441
-12.8044 145.969 0.0316667
3.04573 89.6855 5.63022
8.87759 91.7204 -5.78981
11.6556 83.1031 -5.54294
-13.4305 145.85 1.30196
-1.01506 118.539 -4.27148
-10.9372 146.434 -3.40279
-0.905869 118.415 -4.37706
-14.728 145.624 3.75753
-11.5857 131.547 6.61968
-9.35574 120.218 9.49842
-5.19429 109.947 8.29123
1.65964 93.3795 6.15113
-0.241608 97.6479 6.96286
4.11912 108.994 -7.39533
-13.0663 146.513 0.535073
1.33125 99.1876 3.4196
-7.82168 116.732 9.11954
-13.2976 146.657 1.03935
9.20871 87.7782 -3.53246
-9.6752 145.85 -4.84061
5.3238 83.2518 6.03974
6.60183 101.332 -6.9438
-11.0376 147.059 -3.06632
-11.2774 132.435 6.20357
-11.3872 147.487 -2.48619
-13.7425 146.94 2.04136
-1.95426 102.905 7.52301
-10.7625 147.197 -3.3084
-1.06765 119.731 -3.89365
-11.5684 133.151 6.63881
10.2243 85.5075 -3.30043
2.76667 112.968 -6.50816
4.79103 94.4203 0.978068
-13.1087 147.291 1.06173
-9.81559 123.126 9.64178
11.8828 81.5905 -3.81212
-4.45054 128.571 -3.00008
-10.1549 130.421 5.95318
-0.519662 98.4364 8.03975
-9.23469 121.598 9.62507
5.69146 82.7917 6.59417
6.8718 99.9994 -5.69998
12.2521 83.6107 -5.40419
-8.42738 120.477 9.14284
7.20338 80.8264 5.22818
-10.3357 132.179 5.64585
6.01283 86.1596 4.26924
-5.73746 137.421 -5.53229
11.8726 82.2486 -3.65375
7.60695 81.5692 4.26134
-3.0521 123.813 -2.09879
5.84122 83.7263 6.15882
9.6255 89.2809 -3.78429
-3.11873 124.15 -2.0562
-4.07253 127.582 -2.41236
-13.5638 147.656 2.39937
6.02194 103.535 -5.72898
-9.92411 131.268 5.83729
4.90314 109.564 -7.30671
2.98042 91.7428 6.6929
11.8037 85.058 -4.74835
3.10489 113.613 -6.40804
-4.55008 130.545 -3.00918
7.191 101.656 -6.46025
-5.5549 114.308 8.43915
11.8688 81.8109 -2.87988
-5.5865 137.364 -5.20819
-7.2958 143.453 -5.79161
2.3583 95.4799 5.80774
-7.18122 118.548 8.90048
4.67942 110.257 -6.98342
2.95735 114.249 -6.2912
4.62346 110.533 -6.91997
11.5339 85.4854 -4.15893
0.254433 99.5841 7.33812
12.6413 84.1749 -5.20979
0.297494 99.8334 7.23042
-14.0419 141.284 7.82553
-5.50512 138.014 -5.19244
-7.16001 119.273 8.92046
4.37767 111.461 -6.72407
3.12127 99.98 2.32586
9.41122 92.9488 -4.55153
6.41819 85.9232 4.89829
-8.49494 126.704 7.00136
6.14562 82.6978 7.42492
6.30013 107.795 -7.73669
7.85531 79.874 6.14691
12.8915 83.5224 -4.75338
-2.33614 106.776 8.21092
6.58543 104.428 -6.0642
2.45971 101.826 2.74734
13.3549 81.8509 -4.51111
8.92087 94.4141 -4.17874
6.37088 83.5397 6.77592
6.61313 105.27 -6.56599
-8.82606 147.723 -4.59921
7.41081 80.6025 6.76713
-4.92953 114.121 8.58462
-13.7417 141.946 7.61077
4.68471 111.535 -6.7038
-2.3675 107.459 8.14784
2.26573 116.655 -5.45815
-5.50643 139.861 -5.56335
12.9661 81.7377 -3.47468
-10.8937 136.706 5.84071
6.68694 81.8345 7.5479
-11.4887 137.781 6.28319
-7.01765 144.552 -5.57487
12.1231 86.1495 -4.51186
-13.8204 144.103 6.75957
4.2218 112.915 -6.41009
5.87084 88.0979 5.50143
3.82055 113.872 -6.1927
7.83267 80.3474 6.6997
12.9262 85.5456 -5.32992
-3.09886 110.588 8.09459
7.8037 96.9306 -2.94264
-9.87743 134.381 5.94178
1.42542 101.318 5.76041
-1.26865 122.627 -2.1464
6.61343 82.3565 7.99572
-2.75807 126.304 -1.62895
3.09876 96.4738 5.82476
6.23192 108.851 -6.94409
-4.16274 113.582 8.54034
-10.7446 150.053 -1.53799
6.88362 82.1039 7.90853
8.02976 96.8201 -2.78638
3.3417 93.249 7.58553
7.02382 85.1361 5.97258
-11.4086 140.743 5.35259
-5.4788 116.597 9.32481
-1.65854 124.442 -2.05571
10.1367 92.8321 -3.95252
6.83461 83.1773 7.61071
3.91988 92.4023 7.25348
11.4577 88.5685 -3.71609
-2.40722 109.778 8.06355
11.0061 89.3742 -3.34984
-5.74764 141.939 -5.13855
2.0738 101.92 4.90486
-6.0807 119.385 8.93412
7.87317 105.223 -7.13083
0.268621 103.701 7.16357
3.08373 94.3906 7.81517
-1.67911 108.01 8.16515
5.54473 97.2763 1.86805
-4.07683 114.158 8.77899
5.61169 96.7084 2.11687
3.34155 114.962 -4.67403
-13.0497 146.984 5.12511
-8.81496 135.942 4.26837
-7.27213 127.331 6.68515
-13.0107 146.447 5.4187
4.07492 97.1483 4.68996
-5.9132 119.6 8.94835
-9.54597 137.512 4.69169
-12.9991 147.361 4.94289
2.07459 118.344 -4.27746
4.14598 113.333 -4.9155
8.40274 96.4949 -2.28813
2.17892 118.162 -4.15244
4.00735 102.512 1.94412
1.72603 101.839 6.37332
3.93457 102.566 2.11888
8.69202 101.19 -5.43055
10.5511 92.8304 -3.70254
-0.542825 123.039 -2.10793
-4.12231 135.501 -3.18586
-1.00906 107.075 8.31139
5.94162 96.3063 2.49853
4.54006 102.045 1.58986
-5.07049 141.456 -4.87344
6.66578 87.2082 6.83189
4.38426 112.849 -4.38782
-4.05814 136.384 -3.51647
-6.83228 128.368 6.14606
2.80606 116.69 -3.8209
13.19 87.147 -4.51282
-2.04082 126.742 -1.26595
-1.82565 110.226 8.18662
5.65129 91.0115 6.48273
9.27685 95.3463 -2.43613
-3.81542 134.53 -2.59222
8.33071 105.263 -6.55385
9.24794 102.358 -6.42762
-2.47007 112.224 8.34297
1.48775 102.945 6.91521
4.22865 113.333 -4.07983
4.73962 112.178 -4.28322
4.14783 113.552 -4.03505
-2.03726 111.425 8.13478
-9.87764 140.943 4.39771
4.50792 97.7497 4.82217
-6.8159 131.925 4.43748
-7.81108 149.24 -4.07417
-11.295 149.934 1.67169
9.04956 79.8649 7.61985
-11.1258 143.274 5.49047
-11.4987 143.818 5.83039
-7.17684 133.869 4.1476
9.40161 102.179 -6.17002
-4.26946 138.719 -3.77747
-6.71847 124.881 8.78206
6.30407 109.701 -5.01788
-3.63327 115.196 9.19903
7.73061 83.9867 7.77641
5.02961 102.072 1.77348
11.7825 91.9555 -4.07994
-0.464711 107.328 8.34117
11.8375 91.7001 -3.99904
-8.93167 139.967 3.83735
13.0618 88.4212 -4.19527
3.6959 103.159 3.52388
9.77829 94.9513 -2.27888
-7.44131 135.042 4.18101
-10.9781 144.455 4.83334
-1.78231 127.349 -1.16523
-6.22989 127.471 6.58871
2.22461 120.073 -3.84953
2.00323 120.485 -3.67357
10.9424 93.1129 -3.11247
-6.10364 122.686 9.29113
-1.11572 109.561 8.33558
4.33128 103.307 2.47988
0.503764 122.919 -2.43339
-8.92885 140.495 3.7501
4.3657 98.2426 5.55359
6.1374 97.392 2.96148
-6.4058 129.535 5.92151
8.9414 80.6879 7.9888
8.82702 80.8709 8.13511
-6.04957 146.709 -4.85026
14.3143 80.3113 -1.15303
5.21755 92.6557 7.54075
-4.41212 140.629 -3.98611
-11.4887 147.346 4.52504
-2.98234 133.314 -2.0776
14.8087 80.5698 -1.98193
13.0995 86.7147 -2.6171
-6.27856 133.185 3.90342
9.46959 100.532 -4.32873
11.4087 91.6517 -2.36187
4.28504 103.71 3.06105
2.50532 103.497 6.33028
10.1198 94.7794 -1.8786
-7.58481 138.885 3.03723
-3.76365 138.364 -3.36258
-8.45444 141.299 3.20362
5.6294 111.123 -3.6248
-6.61323 133.967 4.3338
11.9212 91.451 -2.96642
8.20133 81.969 9.24073
-4.97919 143.805 -4.34786
-4.49801 119.441 9.29717
-5.9285 127.92 6.77802
6.45138 99.5485 1.90226
3.75902 115.754 -2.94142
-5.77236 126.448 7.47952
9.24807 95.8948 -0.760836
14.4132 80.7654 -0.837499
2.84486 119.315 -3.39672
13.0909 88.5095 -3.08609
-6.18962 129.84 6.25945
-1.36493 127.877 -1.00313
2.68115 120.317 -3.55762
7.75207 85.9439 8.00762
-3.56777 116.902 9.52183
-4.30162 119.38 9.35587
4.08073 103.658 3.96309
-5.79241 127.494 7.17539
0.176404 107.964 8.30487
-2.50644 133.102 -1.85912
10.7015 94.1528 -1.86997
-0.865574 126.855 -0.958165
-5.67417 126.962 7.45601
-8.40934 142.75 2.93881
-9.58127 145.336 3.46769
-5.04346 144.847 -4.20901
11.4269 91.0617 -1.1538
5.36168 104.817 1.38082
10.5242 77.586 8.52194
13.915 85.8889 -2.31512
-0.927118 111.987 8.34792
14.7993 82.2271 -1.59885
7.40191 87.9634 8.00674
-2.25816 132.913 -1.69541
7.02097 98.4535 2.56459
0.829128 124.388 -1.92458
-4.54263 143.782 -3.97383
5.50325 99.2429 4.86002
-2.77056 115.986 9.49545
3.78753 104.423 4.84769
-10.2006 150.656 1.96903
-3.07714 117.432 9.26096
-4.17626 142.455 -3.67802
-0.770129 127.591 -0.777379
-6.72437 138.596 3.17069
3.64701 104.351 5.36069
-10.3214 148.704 3.56135
4.95892 106.829 1.59063
7.80605 107.478 -3.74254
-2.20032 133.627 -1.6299
7.49777 88.4688 8.20445
14.9981 82.3268 -1.33776
10.5564 78.7161 8.62467
14.7557 85.142 -2.56506
-2.17883 115.267 9.32025
7.27521 108.74 -3.40846
-6.08378 134.912 4.55372
-5.40012 128.482 7.22103
1.31861 107.507 7.89397
-7.28772 151.096 -2.84532
10.009 79.9798 9.03184
-5.42807 128.777 7.18321
-4.99572 146.372 -4.01624
-6.89949 139.915 3.22897
10.8569 100.511 -4.57069
13.0503 88.5799 -1.31845
-6.52676 150.346 -3.59731
-9.89796 150.912 2.02581
-5.22371 127.545 7.7049
13.047 87.7346 -0.691631
-5.22911 127.889 7.63816
4.24381 108.276 2.71879
-1.9693 133.882 -1.47289
6.04484 93.3775 8.5197
8.71393 82.5894 10.2711
-9.30688 151.713 0.871096
6.24829 99.9168 4.38495
9.99141 96.4734 -0.147176
12.8241 88.6864 -0.487212
4.86311 108.481 1.77832
10.3323 94.9196 0.276359
2.66345 122.031 -2.31359
0.437618 110.363 8.58436
12.1176 89.5259 0.439063
13.4949 86.4555 -0.146307
-2.06871 116.66 9.27258
13.8429 85.9569 -0.441655
2.80392 121.733 -2.2954
4.32105 109.366 2.41459
-1.77853 133.844 -1.40023
8.66043 85.5552 8.98787
7.19712 101.24 2.3355
5.43272 94.8327 9.26776
8.42565 86.7526 8.82863
-4.96016 147.609 -3.76964
-4.65343 146.621 -3.65758
-4.10137 144.551 -3.36254
-4.46317 124.087 9.46421
3.58757 107.167 5.40058
11.369 92.3858 0.543171
-9.33494 151.064 2.08343
8.27665 87.5834 8.85659
2.48429 123.363 -2.221
4.08701 108.638 3.75311
9.15711 105.536 -3.31949
-7.11518 151.886 -2.21402
-5.80576 138.766 3.32877
-0.0155941 128.145 -0.510061
8.75685 84.6146 10.0151
3.27332 121.13 -1.94244
7.92831 108.671 -2.71707
8.73088 84.065 10.5752
7.57702 101.492 2.24933
0.230262 112.628 8.56382
8.76732 86.4061 9.1481
-2.32701 119.707 8.88
-3.24221 121.654 9.34492
-1.75316 118.23 8.78658
-8.35016 148.162 2.60211
6.58992 106.234 1.26544
-1.65217 117.928 8.82737
10.3919 80.2598 10.0758
-7.44089 145.798 2.54929
-4.22056 126.999 8.08369
4.78235 110.591 2.02558
2.75036 123.196 -1.83897
-1.81188 119.034 8.66643
-2.73292 121.006 9.16448
9.24377 83.1777 10.6027
-5.22468 137.259 3.94375
15.7886 80.9665 0.45941
16.466 79.6597 0.0533562
8.00084 101.225 2.18731
0.57896 127.681 -0.460572
12.3279 76.854 9.15557
9.33441 83.2244 10.6451
-6.29639 140.747 3.97141
-8.64481 151.402 1.83098
11.4991 92.8694 1.20739
10.6476 98.3417 -0.542446
6.18167 94.3666 9.68024
1.91785 109.446 8.23142
3.98988 110.913 3.71671
11.2793 93.8316 1.06679
-7.89046 153.118 -0.461855
-7.6382 147.266 2.57878
-6.37264 142.174 3.40447
-8.11457 153.34 -0.104119
2.94523 123.135 -1.56066
-4.72961 135.755 4.49709
0.0980015 130.437 -0.761778
9.96272 82.2411 10.601
6.39096 113.209 -1.38744
-4.93207 137.639 4.04748
-6.81172 152.662 -1.54105
5.61883 110.6 1.65389
-6.91254 146.344 2.46099
-3.7211 145.999 -2.82986
12.6269 77.1424 9.36935
2.19669 110.198 8.08046
13.4778 87.9155 1.54119
-2.98276 124.163 8.98961
-0.346328 132.692 -0.705742
3.59465 110.239 5.74593
10.5471 104.116 -2.83942
16.1017 82.2362 0.500392
8.45262 109.066 -1.97175
-5.44809 151.626 -2.7753
9.27545 84.8267 11.0644
-3.88325 133.25 5.42076
3.53315 111.355 5.43135
-4.37806 136.554 4.39686
-2.00723 122.086 8.84478
10.3186 82.4393 10.7411
3.72648 112.291 4.59442
5.2051 99.8222 9.49103
-4.37151 149.011 -2.91674
-3.51079 131.835 5.83257
-5.6729 152.364 -2.52941
7.71776 101.219 4.42418
-2.37485 127.193 6.76112
7.91847 91.5135 9.92114
-3.44099 131.963 5.86631
12.0912 93.0839 1.72976
-4.02321 135.826 4.67159
6.27063 97.1048 9.6605
3.28558 110.575 6.90614
-7.61252 153.287 0.692453
-1.60182 122.527 8.46087
4.8167 119.094 -0.770202
9.7439 84.5616 11.1529
2.85855 125.7 -1.19383
7.25081 93.3471 10.354
11.0634 81.6418 10.6736
-2.12675 141.442 -1.66199
11.4916 98.5187 -0.0240278
5.15308 118.381 -0.665657
2.36581 127.288 -1.03934
-1.94855 127.132 6.79653
10.3627 83.5525 11.0874
-2.52403 128.876 6.84558
12.2131 102.078 -3.07385
-1.64102 124.306 8.10244
-1.42022 138.837 -0.911835
12.0743 94.4121 1.78302
3.37005 113.083 6.09743
9.85494 85.069 11.3511
0.712692 115.85 9.25491
-1.07448 123.266 7.99251
-0.222772 134.812 -0.370866
10.788 105.009 -2.0017
10.3197 106.185 -1.79895
-2.90748 145.761 -2.06229
7.62621 112.633 -0.880427
4.89676 115.175 2.47915
-2.22466 128.246 7.25204
4.52647 121.245 -0.460186
11.7431 98.3456 0.479762
-3.95111 149.691 -2.40746
15.7725 84.0743 1.95406
-3.9204 149.643 -2.39023
-7.12008 154.053 0.618395
-2.37997 130.389 6.36621
17.0407 79.9934 2.21102
-2.65248 145.241 -1.88442
6.62874 97.4049 10.2617
0.39231 119.69 8.0277
-0.712255 137.408 -0.512269
-5.65046 153.517 -1.35314
-2.28624 144.24 -1.7194
1.38577 115.019 9.24915
1.82102 114.187 8.97833
2.10044 113.702 8.84992
12.4229 94.8868 1.93769
0.706373 118.838 8.34706
-6.56797 154.513 -0.0430147
4.65352 121.643 -0.216062
13.0833 92.8687 2.10752
11.6451 82.4129 10.9829
1.30276 115.991 9.27915
-0.285062 123.987 7.34772
-1.38905 127.656 7.11145
7.49321 114.06 -0.421388
-2.24747 145.191 -1.74813
14.9934 86.2343 3.01386
-2.99143 135.683 5.27075
12.435 99.2475 -0.178819
-0.590545 125.761 6.97671
-1.25376 141.295 -1.05265
2.42359 114.108 8.64799
10.1762 107.712 -1.13569
7.72042 113.753 -0.387741
-4.73394 142.805 4.26295
10.2956 85.8564 11.7647
7.59736 111.055 1.55675
7.49335 96.259 10.5743
-4.86678 143.983 4.00082
8.36057 92.4355 11.3962
-0.622265 139.345 -0.621172
6.93449 116.278 -0.0793811
1.47604 117.41 8.95309
8.42571 102.693 5.48765
0.818073 121.084 7.97992
-4.49382 142.456 4.61556
-0.900682 127.503 7.24332
-2.57876 135.764 5.47931
6.74349 117.557 -0.0802822
12.9319 80.6947 10.962
-3.35665 150.803 -2.04208
6.03375 116.915 1.68462
0.599175 122.862 7.72631
8.22717 113.638 -0.184865
16.8425 83.4899 2.72186
13.8054 101.638 -2.71896
14.0471 92.4766 2.33939
10.0457 88.3076 11.869
-3.5995 152.113 -2.00874
-1.2721 144.165 -1.2846
8.58223 109.473 2.0313
5.47396 121.453 0.401341
-3.49053 152.128 -1.97693
14.6799 91.1601 2.34857
-0.0185788 139.344 -0.442637
3.88267 126.733 0.228646
8.63834 93.38 11.7329
9.00755 104.621 4.42073
13.9033 101.658 -2.41008
3.90626 126.902 0.277275
-3.91148 141.386 5.44521
5.58984 118.754 2.33876
6.57029 102.419 10.465
10.1705 89.5872 11.7729
15.44 88.1374 3.41506
7.79395 118.581 -1.23881
-1.90444 135.409 5.88982
3.76745 116.451 7.23907
9.07195 106.554 3.79529
8.43443 114.768 0.0344157
5.95481 121.906 0.22192
11.9133 84.737 11.8811
9.07084 113.159 -0.014292
-1.1403 145.578 -1.3246
10.3577 88.8309 12.2446
8.23808 112.787 1.73204
10.016 111.038 -0.336049
10.5455 109.672 -0.438006
8.96749 116.619 -1.72608
8.62197 116 -0.725126
-2.2027 137.209 5.77709
18.7056 79.3534 3.44074
17.1696 83.246 3.88954
0.868658 124.54 8.04605
2.59807 132.192 0.477571
8.91486 109.976 2.57813
14.2652 101.925 -1.9731
2.27386 133.44 0.394098
6.95654 102.378 10.6818
6.91895 102.648 10.6176
-0.0296448 127.885 7.84492
4.77187 120.041 4.13014
2.54335 118.652 8.88174
1.7006 135.574 0.319459
14.4468 102.191 -2.23892
-3.56116 142.13 5.73246
6.85809 103.372 10.467
10.6476 88.4316 12.7091
10.6384 88.5605 12.7261
3.55343 129.793 0.693798
3.78772 117.96 7.32143
4.95974 120.557 3.72157
1.57822 122.617 8.44602
4.49879 118.739 5.61662
15.9244 88.1879 3.74403
18.5278 81.4591 3.18462
3.11634 131.665 0.456525
-4.01245 143.948 5.74768
2.38755 134.393 0.172915
10.6224 89.2705 12.5413
6.91402 118.817 1.50406
2.7083 133.094 0.419021
-2.07248 137.475 6.24365
16.3381 86.4187 4.22441
8.12096 103.827 8.34833
9.80974 115.477 -1.48698
8.03429 98.1906 11.9312
19.3993 78.7969 3.51649
19.3612 78.876 3.54974
-0.861462 146.88 -1.29447
2.76164 133.409 0.36841
11.5377 87.1036 12.5556
16.8648 83.5649 5.30913
0.719368 141.409 -0.635519
-1.51827 149.345 -1.38147
14.2093 81.4125 11.451
5.31798 121.362 3.34399
-2.50511 152.84 -1.60506
18.8591 80.361 4.0127
13.8091 82.534 11.6126
6.457 120.778 1.82046
9.38241 108.396 4.06554
-0.721 147.46 -1.36477
5.57323 121.482 3.05123
15.506 90.9711 3.72338
10.1036 113.652 -0.260195
-3.82655 143.325 6.62834
8.00023 104.37 9.10386
16.3571 78.004 10.1372
10.138 114.275 -0.462948
7.6026 121.297 -0.170012
3.04223 134.362 0.135941
9.40832 96.003 11.7723
0.636152 128.177 8.25346
8.71061 114.868 2.02595
-4.07358 143.933 7.24848
9.7758 118.417 -1.92988
0.455024 144.288 -0.894758
11.5912 114.159 -2.498
0.528951 144.388 -0.922515
10.9751 112.527 -0.299901
7.48421 124.445 -1.1908
7.67378 122.367 -0.256327
4.04159 132.203 0.291991
-2.44005 139.451 7.40324
15.861 90.0714 4.57709
8.06305 124.021 -1.89143
8.63718 98.3 12.4687
10.4208 120.597 -3.92953
10.1825 93.6687 12.5174
7.78049 127.711 -3.4879
3.69238 133.779 0.103909
3.94643 133.276 -0.0345965
4.78332 130.246 0.306544
9.61122 107.328 5.50855
3.88286 133.707 -0.0434779
7.7647 122.761 -0.355034
9.18423 122.177 -2.49231
9.76428 121.385 -3.02904
4.84671 121.962 5.29678
3.51912 121.258 8.0528
5.82705 132.444 -2.63454
-2.1043 138.866 7.5211
7.56176 123.519 -0.354488
5.44752 133.281 -2.42654
0.353644 130.763 8.1394
9.93224 121.016 -2.8635
8.89614 120.999 -1.02518
4.11262 121.137 7.35149
6.21438 126.665 0.375149
15.064 97.2849 2.28321
1.61589 142.162 -0.696227
6.52869 127.237 -0.446666
8.08398 119.439 1.47002
15.07 95.3331 3.60352
0.00372707 132.784 7.85064
12.428 113.731 -2.65476
6.39553 128.042 -0.52154
1.37132 143.29 -0.733555
15.7519 91.6015 4.78247
8.71981 117.486 1.78038
9.45258 125.933 -4.48661
1.59777 143.018 -0.797432
11.9679 113.431 -1.41172
8.19994 128.54 -3.7477
9.66526 111.472 3.83399
4.97564 133.409 -0.936501
9.72116 107.477 6.1821
11.3876 120.165 -4.27944
10.391 123.645 -4.57223
19.657 80.4657 4.80862
14.779 82.8867 11.9765
12.4558 114.522 -2.70398
9.71663 109.557 5.10449
7.65368 122.093 1.34452
-0.851482 152.862 -1.98676
18.8319 81.3789 5.92106
4.41856 136.214 -1.31909
2.88386 124.347 8.44068
19.2135 81.123 5.46058
5.26245 135.818 -2.52401
3.39194 123.579 8.06662
10.0564 96.7888 12.3143
11.2792 118.473 -2.71519
0.284102 149.144 -1.5818
8.67513 101.557 11.9743
9.75149 111.268 4.32034
-2.15643 141.047 7.57035
14.3 106.507 -0.832726
8.55111 101.862 12.0533
8.99492 99.7109 12.5613
17.2934 84.5729 6.96812
13.0501 111.584 -1.60093
12.5508 116.964 -3.90608
16.5095 80.3577 10.9018
4.60902 136.91 -1.76899
6.01305 135.59 -3.41905
3.95374 137.346 -0.827962
13.2794 120.423 -7.15952
9.00558 105.602 9.19353
8.19586 129.943 -3.83221
12.2052 121.029 -5.57288
15.6371 97.6149 2.31639
20.243 78.713 5.48183
6.43157 134.784 -3.53912
18.1673 82.0515 7.18677
20.2634 78.6885 5.51025
0.0539902 134.72 7.74772
16.4583 90.3373 5.29097
-1.63738 139.033 8.17172
15.1174 83.0234 12.041
13.5209 111.534 -2.10269
12.5297 120.354 -5.58387
0.389352 149.964 -1.82495
0.495892 149.446 -1.69625
8.98919 118.231 1.93662
9.80939 108.757 6.13089
5.72591 124.858 3.84403
9.79683 108.626 6.34523
9.88166 126.898 -4.65092
8.77429 119.371 1.78273
9.7071 114.016 3.34181
11.2655 122.405 -4.38432
15.8439 94.6992 4.08484
12.372 118.9 -4.1778
9.86096 111.275 4.79554
12.3928 121.399 -5.6482
10.1609 126.558 -4.78863
20.5818 77.7429 5.92346
20.5169 76.9886 6.48992
9.76153 97.933 12.9727
12.4736 119.509 -4.50955
15.826 95.9407 3.64245
6.45882 125.363 2.62389
-1.06629 138.058 8.35671
6.38029 125.402 2.78633
13.0988 121.83 -6.89241
13.9393 111.285 -2.08805
11.4811 122.268 -4.26257
14.3892 85.4066 12.5864
13.2555 115.347 -3.22623
1.65264 128.981 9.11625
13.9027 109.534 -0.858274
14.0782 110.022 -1.43878
12.0763 121.533 -4.76242
13.4807 114.046 -2.7542
1.70817 128.911 9.12626
16.7215 81.121 11.1603
13.7615 113.482 -2.78862
16.0837 101.97 -0.0119803
8.04542 104.483 12.717
16.8073 81.1621 11.1833
13.4733 115.323 -3.26774
13.8417 113.18 -2.62289
7.71687 132.445 -3.21716
-1.76398 143.153 7.09571
4.03685 124.809 7.84248
5.32546 140.133 -3.53776
16.1725 97.4856 2.76712
8.5567 121.611 1.84883
9.52265 106.177 9.34319
20.7754 78.1536 6.22866
-0.483815 137.984 8.06487
7.45386 125.098 1.82977
12.8942 120.447 -4.95375
17.1931 89.2522 6.06142
9.36482 106.044 9.86592
8.70484 105.779 11.2335
14.2309 87.1508 12.6023
0.255524 135.711 8.3223
4.4007 141.812 -2.56093
9.44686 118.709 2.30435
-0.493641 140.649 6.75517
1.41631 131.637 8.76625
12.6234 122.979 -5.7767
4.87894 141.69 -3.2627
20.2205 79.6149 6.66788
9.33116 101.861 12.6179
20.2193 79.6068 6.70381
-0.135988 137.066 8.38037
8.59669 122.436 1.7448
1.32567 150.439 -2.08544
1.05348 151.886 -2.36087
10.0187 112.247 5.48027
11.434 125.644 -4.94446
14.3435 120.548 -6.9552
4.72223 125.809 6.87379
9.71913 100.594 13.0987
4.2306 143.147 -2.54934
17.6213 80.6009 11.132
0.21831 137.053 8.20969
12.6 124.036 -5.80905
10.0438 112.117 5.80286
8.21907 124.974 1.38995
2.76356 129.237 8.47741
8.97412 121.687 2.05098
17.3524 92.3131 4.8158
1.1705 152.491 -2.4986
5.81952 141.046 -3.78254
2.41945 130.59 8.45792
4.13126 126.387 7.96424
6.73994 127.364 2.80217
0.411371 139.259 6.88989
19.3366 77.0578 10.6088
5.13006 142.84 -3.46345
0.526767 138.441 7.26928
20.5591 78.9402 7.41649
18.5109 79.1566 10.9485
2.47805 131.08 8.33019
5.91224 141.405 -3.85005
16.7695 96.7302 3.64974
12.4286 122.483 -4.02795
6.32593 140.881 -4.1283
18.4709 79.53 11.0189
8.39705 105.391 13.3811
3.12486 146.949 -2.05876
-0.978879 143.444 7.26045
0.605928 141.019 5.92677
13.2897 90.7288 13.5244
5.59755 126.945 5.5214
8.68299 105.722 12.7412
11.0766 129.34 -5.48568
19.7821 76.663 10.598
12.7777 121.413 -3.6136
4.44977 127.312 7.53413
1.03169 136.956 7.85671
7.85869 126.783 1.90662
14.341 123.031 -7.25993
5.95729 142.228 -3.90786
4.78666 144.646 -3.21727
17.6361 94.3269 4.1317
9.19436 133.693 -4.39999
10.0959 117.931 3.4285
5.26827 127.029 6.51416
8.39443 108.759 11.9048
12.9992 123.295 -4.83985
6.79818 128.426 3.04946
6.19144 127.916 4.43666
2.25932 150.907 -2.28907
3.08279 131.172 8.00051
5.30776 127.148 6.51742
5.01928 127.399 6.91515
1.28298 153.613 -2.08138
9.60048 112.203 7.94969
9.57821 133.088 -4.36685
15.1699 114.815 -3.33066
13.3345 121.123 -3.85133
9.41366 112.294 8.32656
18.6888 85.9004 7.71373
7.36319 140.454 -4.80681
18.2327 91.093 5.44145
9.23975 112.356 8.68425
10.1171 112.996 6.79625
9.65617 121.964 2.31927
1.89551 134.888 8.29324
10.1738 118.315 3.60692
11.9921 95.5762 13.9763
17.3155 100.021 1.99684
13.249 121.186 -3.42393
10.7808 131.07 -4.92076
14.822 122.874 -7.15165
8.93219 112.527 9.40078
2.08919 135.229 8.00411
17.6189 103.304 -0.317559
11.5552 130.122 -5.55572
11.27 98.8435 13.6529
14.0225 119.558 -3.48217
17.4922 97.5494 3.53451
10.0493 113.672 7.05716
18.7929 87.8676 7.04597
5.60835 128.654 5.99826
15.8427 111.742 -1.94411
9.28209 135.796 -4.70034
16.3201 108.896 -1.03156
2.22411 137.482 6.84415
2.28214 136.893 7.09634
8.7234 107.454 13.3047
19.0447 86.4367 7.67837
18.6915 90.3963 5.99127
9.49237 113.825 8.29111
10.5473 101.125 13.9916
12.5471 127.145 -4.95137
15.1311 114.719 -2.07455
12.744 124.791 -3.86127
11.0564 131.546 -4.87286
2.05522 141.607 5.0172
5.83936 145.669 -3.98633
15.8289 113.465 -2.38543
10.2811 133.865 -4.71532
9.08137 114.383 8.99332
3.28966 135.186 6.82059
17.9055 105.064 -0.950752
7.03435 143.428 -4.63474
14.9654 123.771 -6.882
11.923 129.53 -4.92375
17.9192 102.098 0.875871
7.64289 142.202 -4.88704
1.84594 142.2 5.33469
13.0818 124.598 -3.94906
20.3278 77.9971 11.0841
1.80168 154.303 -1.69481
14.3429 116.167 -1.04907
16.9614 108.649 -1.1751
17.5534 107.325 -1.4184
13.1117 127.698 -5.70709
9.71393 105.576 13.4406
12.03 129.76 -5.0062
19.2865 86.0808 8.20982
13.9459 93.227 13.3976
19.3865 84.1174 9.26186
19.3985 85.1459 8.63133
9.51668 115.037 8.24063
10.1412 135.364 -4.91091
16.6745 86.9443 12.3942
8.83282 112.433 11.1204
6.47113 129.794 4.98478
9.41129 115.35 8.41648
10.1586 122.238 3.01314
9.56432 126.369 1.63951
4.03888 133.701 7.04503
7.09246 130.023 3.92442
15.8821 122.334 -6.95734
11.4915 131.968 -4.96254
18.1192 83.9503 11.9435
8.81035 112.396 11.4571
12.8005 96.5603 13.9071
3.26155 152.81 -2.74965
18.2686 101.225 1.61515
18.1144 105.369 -0.533291
10.3009 116.894 6.40105
13.8765 121.978 -2.89545
8.51742 129.938 1.82919
13.5932 121.42 -2.02193
8.78865 112.686 11.6345
14.4603 118.167 -1.52711
13.3427 95.5102 13.9325
6.23065 133.755 3.72298
10.319 122.285 3.37717
13.2777 121.869 -1.49892
17.4601 109.354 -1.40106
4.76964 134.177 6.16416
19.3682 81.6617 11.7295
5.66207 148.652 -3.97715
10.1044 116.657 7.25275
20.9763 79.8712 10.099
7.93827 144.318 -5.19667
2.12483 143.499 5.55321
2.62455 154.343 -1.73505
13.3632 126.91 -4.23273
8.06928 144.337 -5.27055
8.74472 113.12 12.1097
9.01596 116.69 9.5193
17.3701 87.4064 12.2438
19.3247 89.5768 7.51607
14.8368 116.057 -0.326683
4.98385 150.488 -3.45647
16.516 120.654 -6.0001
9.89185 117.144 7.78425
9.70741 117.118 8.15756
4.31116 152.019 -3.04889
2.67201 154.515 -1.62007
18.2605 106.034 -0.189505
7.91843 131.742 2.75065
15.1898 92.5657 13.2955
10.5265 121.176 4.53123
7.40731 131.528 3.86545
11.0559 137.575 -6.12198
9.89614 117.709 7.76011
12.9316 130.541 -5.17735
10.4129 139.169 -5.84481
19.3663 91.5253 6.78743
8.78932 114.963 11.4774
13.1049 99.1628 13.3729
13.7615 125.59 -3.48796
14.1566 124.408 -3.47019
14.1711 128.286 -5.79179
18.8967 98.6187 3.53995
2.36929 143.886 5.69446
15.5338 113.708 0.530764
13.1688 99.0954 13.3887
10.2524 139.897 -5.7386
16.3427 123.585 -6.53279
19.6029 90.9397 7.16899
19.4779 89.5277 8.29966
9.67591 129.914 1.52882
19.5179 89.1968 8.46041
14.8301 119.312 -1.1993
10.5049 119.765 6.15955
10.4781 140.006 -5.79184
14.6092 118.724 -0.371979
15.5449 114.335 0.603476
5.13156 138.272 4.7144
20.8073 80.5532 11.4692
14.1134 129.235 -5.6198
15.092 126.761 -5.84247
9.15293 113.364 12.5806
19.1408 102.459 1.5746
17.4358 109.785 0.222497
14.0964 118.17 1.11419
8.95446 119.206 9.5461
5.33255 138.198 4.6517
5.94071 150.416 -3.65065
10.6616 123.756 3.90198
7.72592 134.701 2.59165
14.1964 116.431 2.07905
14.1138 121.95 -1.05732
13.9762 126.596 -3.53137
17.1703 112.411 -0.667799
13.3799 130.983 -5.03767
13.5007 129.115 -4.12679
20.2746 85.2174 10.1081
15.6942 126.001 -5.96219
19.5985 95.0469 5.58354
8.81388 118.636 10.5508
18.3943 107.114 0.55842
16.4776 124.427 -6.35512
12.4154 128.391 -1.49217
19.608 90.1165 8.65741
13.0372 133.192 -5.39252
5.77453 151.237 -3.34471
18.2976 107.376 0.710982
7.69784 136.795 1.91904
18.3083 88.675 11.9191
10.726 141.024 -5.86711
5.93577 137.685 4.54929
12.4132 128.724 -1.49477
6.27705 137.386 4.17104
6.71708 137.974 3.11134
13.8296 126.142 -2.33945
5.0328 141.859 3.79608
11.5336 138.324 -5.52691
16.2348 93.2929 13.0386
21.6255 80.2668 11.3474
13.8085 125.483 -1.79224
17.5173 109.313 1.33942
11.8748 105.238 13.7473
16.0108 126.017 -5.8809
18.2791 107.118 1.40571
10.4222 122.355 6.21403
8.65243 146.778 -5.18385
10.4451 141.885 -5.41023
10.6559 123.335 5.27555
12.6701 128.944 -1.56729
19.261 102.854 2.3699
18.0131 89.9316 12.2884
14.3706 98.6227 13.603
19.6809 98.3064 4.45081
19.6606 98.1125 4.62304
14.8235 116.432 2.27809
18.1743 107.34 1.79775
10.2474 122.384 6.81526
7.38847 149.314 -4.15801
14.5526 121.982 -0.504998
13.433 133.401 -5.2929
21.4238 83.2065 10.5408
5.79796 152.245 -3.02677
10.3071 122.955 6.49662
9.3555 116.487 12.0263
14.3868 130.617 -5.19416
10.8173 126.554 3.5069
14.9387 97.9653 13.3048
19.4278 101.761 3.15556
14.149 126.757 -2.38877
12.7597 129.188 -1.34327
21.1103 84.4022 10.6164
12.1742 105.638 13.7086
11.7495 138.846 -5.29296
21.6995 81.4579 11.3491
12.4148 128.02 0.00239733
15.0808 118.066 1.24667
13.0064 132.501 -3.66114
19.0685 104.675 2.22911
18.4759 89.9036 12.0573
5.7596 142.028 3.43524
13.8703 126.415 -1.53538
15.0699 117.22 1.88728
9.68666 122.833 8.02454
17.8716 122.143 -5.94716
12.2252 105.867 13.6783
12.227 132.29 -1.97842
19.2786 103.625 2.70404
13.7392 126.692 -1.26823
15.177 117.546 1.64766
12.6186 104.343 14.0079
19.3987 102.408 3.29388
9.00089 121.436 10.3185
9.61095 115.898 12.5743
10.8887 127.009 3.73186
17.2673 113.5 0.589524
21.3005 83.3366 11.4365
14.8647 130.393 -5.17504
7.14725 141.875 1.62713
15.8445 123.594 -2.79786
9.59431 116.446 12.461
12.4261 132.454 -2.01511
14.7146 125.251 -1.73217
14.1873 132.086 -4.84546
6.89415 142.241 1.97827
13.4584 102.873 13.8578
10.1604 123.811 7.23422
12.9859 126.049 0.941316
6.88484 142.342 1.99673
15.0519 120.948 0.355594
10.4389 132.429 1.6463
18.0361 120.945 -4.87927
19.9159 91.6653 9.2925
11.4513 109.813 13.4954
14.3781 126.63 -1.65341
4.76709 154.95 -1.56038
12.4345 129.092 0.441028
16.503 127.086 -5.50182
19.4885 95.2218 8.21336
12.1578 131.263 -0.322093
15.3829 120.128 0.678883
10.291 133.23 1.87768
10.8866 125.967 5.2413
17.9544 93.2117 12.2902
12.4624 138.011 -4.63073
17.6973 109.839 2.92321
9.87481 124.568 7.93171
6.83657 143.863 1.83695
9.79869 135.602 1.5951
12.4089 128.502 1.22899
13.1135 136.626 -4.83824
21.0015 88.1528 10.1435
9.83361 136.135 1.2778
10.0426 125.047 7.52338
8.97125 124.975 9.45514
18.9511 91.3845 11.8909
15.0212 131.158 -4.82327
10.0854 134.142 2.10936
19.1602 104.378 3.85536
13.6449 103.846 13.876
16.1136 124.326 -2.63118
13.7663 133.306 -3.77637
13.6569 133.845 -3.90157
12.9999 106.227 13.7078
8.52049 140.736 1.11638
12.4048 138.46 -4.3221
19.7785 99.1697 6.10304
13.0198 126.197 1.94016
14.089 135.403 -5.31075
19.5871 101.262 5.37457
17.6893 112.875 1.84942
13.0942 106.629 13.6551
15.4021 122.719 0.0258564
17.6578 94.8207 12.6627
15.3771 122.113 0.474964
18.4994 106.35 4.37637
10.9744 130.321 3.40709
10.9547 144.216 -4.80377
18.7467 122.47 -5.57148
19.3128 103.556 4.71227
19.9235 94.4099 9.08484
10.0204 127.295 6.96811
10.1268 126.957 6.98438
15.0401 132.034 -4.57588
14.2525 133.957 -4.23121
11.3438 143.047 -4.5194
7.65797 151.889 -3.28285
20.5504 91.8023 9.82808
6.70965 146.373 1.75698
17.9188 126.169 -5.94244
11.5182 142.522 -4.33318
13.3237 125.949 2.38159
21.1408 88.5264 10.8881
13.5871 128.209 0.61166
12.796 138.242 -3.93577
11.0959 113.964 13.5152
13.7932 124.832 2.41284
17.7084 113.095 2.56566
14.0128 135.704 -4.35028
10.9721 134.235 1.87723
16.555 129.063 -4.86132
13.67 125.153 2.56089
10.5431 129.767 5.31977
15.9841 123.709 -0.635326
11.0974 144.818 -4.55392
15.5258 123.94 0.0856213
9.50807 129.827 7.17832
13.9682 135.653 -4.12415
14.1697 134.22 -3.61108
15.0986 126.17 -0.426493
9.70136 138.847 1.58443
13.7251 136.923 -4.34995
10.6937 130.625 4.75787
10.4938 131.002 4.91305
9.83657 138.308 1.72567
10.8764 132.923 3.16326
6.25192 154.225 -1.35787
17.398 97.7429 12.6891
16.7064 113.865 4.33541
18.7801 102.862 7.25955
10.331 119.094 12.4866
14.7229 126.869 0.149918
18.3689 108.311 4.87913
18.8807 102.473 7.59115
17.5522 127.691 -5.01393
20.1224 92.7973 11.2344
15.4455 134.25 -5.18967
16.8814 113.814 4.44099
14.1693 129.364 -0.0345691
12.2664 141.752 -4.03893
13.7309 127.687 1.7668
11.2234 134.342 2.30702
13.912 125.101 3.07797
9.8738 132.016 6.19823
21.8411 89.3116 10.5614
14.8566 124.15 2.14833
13.5249 134.394 -1.56525
14.7558 127.097 0.609836
10.9561 135.363 2.38071
13.1812 110.746 13.1743
10.8625 135.717 2.40521
14.5185 133.443 -2.4991
15.9545 115.29 5.81374
10.4289 120.81 12.2576
13.1373 111.325 13.1948
10.0411 132.827 5.8599
18.4425 120.32 -1.39901
14.4089 135.267 -3.1361
18.1721 120.2 -0.794448
7.28588 149.164 1.13866
12.6396 141.399 -3.64578
15.5979 104.05 13.4247
14.6939 127.576 1.03583
19.0452 103.773 7.55534
8.01853 152.676 -2.10943
10.489 147.216 -3.1928
12.1992 114.265 13.4855
17.6423 99.7394 12.6276
10.067 126.587 9.99967
7.69906 148.795 0.970645
18.0191 99.0444 12.4265
13.6971 136.394 -2.15927
8.53218 152.196 -2.44377
12.0326 140.018 -1.35716
17.697 122.557 -0.873434
16.939 118.395 2.9531
10.3232 126.261 9.93524
9.44549 143.049 1.51551
10.5651 146.883 -2.72013
8.40178 146.799 1.17337
19.5079 124.815 -5.28771
16.2667 103.499 13.1337
21.9251 91.4914 10.3205
10.6137 123.497 11.266
12.4404 142.824 -3.38988
16.464 103.398 13.0478
19.9295 122.114 -4.18025
15.56 123.592 2.68892
18.3829 121.174 -0.817057
9.2122 151.104 -2.48286
19.6773 101.884 8.39208
6.53108 155.076 -0.103916
14.2254 132.426 -0.15738
15.1904 107.286 13.1222
12.6177 139.922 -1.74241
16.0267 123.314 2.16874
13.5297 139.662 -3.13472
16.4646 133.59 -4.65851
13.8377 138.632 -3.03293
18.8483 112.524 3.6846
10.9219 125.767 9.8166
6.97622 154.581 -0.300065
7.67421 150.967 0.629864
14.3935 110.209 13.0667
17.108 102.731 12.7725
16.2129 113.852 7.74295
10.9335 134.969 4.49274
17.2272 118.491 3.22751
9.89068 142.873 1.63844
17.948 100.808 12.5441
11.0925 123.584 11.0643
15.5802 131.594 -1.55433
12.1296 142.821 -2.14943
11.3261 123.942 10.5377
20.7396 97.9004 9.48212
16.9818 103.438 12.8107
15.6486 131.509 -1.52184
15.7686 106.639 13.0961
14.555 130.206 1.23478
11.015 145.96 -1.8839
19.8804 97.3076 11.4606
14.0395 136.783 -1.7224
19.4716 124.728 -4.05332
14.5157 137.225 -2.76315
19.6431 104.688 7.58471
10.0975 150.327 -2.72309
17.1215 103.572 12.7393
19.0784 112.297 4.12047
7.88849 150.952 0.820855
11.0204 146.683 -2.14803
14.1593 136.249 -1.39626
15.7288 126.697 1.60038
21.6124 95.0297 10.0913
10.415 134.845 6.13629
10.7188 148.86 -2.71312
18.5928 112.626 4.99771
11.7059 125.27 9.59915
14.7082 124.597 4.73118
10.8118 148.54 -2.6499
10.4734 141.343 2.34425
8.32137 149.787 1.13423
18.9719 112.103 4.81554
19.3901 120.111 -0.659312
18.0844 112.947 5.93112
9.27504 146.468 1.55299
15.2406 129.55 1.13094
14.7227 137.446 -2.6233
18.1636 121.894 0.581044
10.4919 135.199 6.18037
15.9298 131.98 -1.45516
15.1508 135.947 -2.41504
8.91226 152.663 -1.29296
12.5362 141.635 -1.07727
15.7408 128.059 1.37697
9.08838 147.648 1.47384
21.0133 97.6993 10.3076
11.2182 148.077 -2.41238
20.6441 98.5239 10.5068
10.1743 150.586 -1.98717
10.7957 140.754 2.77275
15.5423 134.825 -2.00074
19.2243 120.605 0.030013
16.8025 122.47 3.2094
10.7852 129.654 9.52911
16.7879 115.261 7.54269
15.029 139.353 -3.67267
12.509 124.946 9.37147
15.5811 110.191 12.7602
19.8064 120.117 -0.519556
9.13749 147.982 1.68418
19.5069 128.124 -4.72802
17.4729 116.106 6.00842
17.6668 117.637 4.80328
20.1979 120.13 -1.021
20.4867 102.298 9.11925
7.54664 154.165 1.04351
20.9259 99.6855 10.0032
12.0188 126.835 9.56344
16.458 126.267 2.11233
14.4153 119.717 9.66289
19.6817 106.525 8.26246
17.0866 107.218 12.4201
9.63067 151.738 -0.936111
19.8087 108.413 6.98254
15.2461 125.139 5.06575
10.6172 142.22 3.06627
9.02485 153.345 -0.716355
18.2148 121.527 2.14129
17.5357 123.62 2.11528
17.0197 108.125 12.2598
19.9892 105.796 8.45674
9.43687 152.462 -0.716553
16.0969 127.001 2.77715
19.8241 120.209 0.291333
16.2699 126.763 2.65915
13.2273 118.723 12.7967
16.0722 125.539 3.74048
7.75352 154.898 0.946017
18.3313 131.946 -3.94855
14.686 114.407 12.9139
14.8459 126.514 5.43543
9.79407 146.423 2.48906
10.8583 136.196 6.72429
16.9806 115.695 8.15516
13.793 117.286 12.8334
19.1927 111.082 7.05378
15.2877 125.318 5.4736
13.823 117.544 12.7424
13.9221 117.134 12.8232
14.0897 116.413 12.9685
15.8017 131.182 1.19709
9.85881 151.777 -0.583042
16.7302 114.309 9.62134
19.4386 107.183 9.14306
18.1395 119.379 4.2134
11.6963 138.334 4.33763
15.0372 127.427 4.9524
17.9076 117.408 5.87232
16.9566 123.876 3.70142
14.5155 115.661 12.9241
19.5913 120.382 1.21107
12.8968 127.099 9.01984
20.4635 125.213 -3.15754
9.24433 153.609 -0.235091
13.5472 125.955 8.6821
12.2236 145.976 -0.843298
12.2776 147.326 -1.69752
16.3407 117.531 8.88627
14.376 141.208 -1.72115
15.3754 126.538 5.2709
20.2311 104.33 9.96685
18.4933 112.632 8.12026
16.4244 123.682 5.22432
20.5604 128.09 -4.66785
15.5815 126.196 5.26859
18.4953 106.817 11.7454
14.6097 116.885 12.6006
17.3685 110.003 11.8418
14.0489 141.43 -0.962142
18.5933 133.343 -4.13919
15.6598 126.325 5.1977
16.7691 111.199 12.2492
13.9429 122.349 10.746
18.6786 133.328 -4.09784
13.8678 126.513 8.43826
20.8933 125.304 -3.12499
12.3585 130.966 8.53056
16.8953 128.907 1.78966
17.7719 123.167 3.66807
17.5678 110.513 11.7077
9.14301 154.277 0.500827
15.7768 126.912 5.11231
12.5689 146.026 -0.575465
15.5888 128.768 4.42309
15.6813 115.115 12.4819
15.5917 116.307 11.9358
14.7263 141.708 -1.58446
18.1378 136.385 -4.41753
16.0676 114.308 12.3781
21.3694 127.233 -4.60609
19.0404 107.608 11.1952
17.8623 119.109 6.5738
16.8709 123.675 5.65228
14.6589 123.191 9.92358
20.575 129.213 -4.06488
12.7866 146.208 -0.44906
17.6811 113.782 10.3054
15.6719 121.633 9.18327
19.223 108.129 10.9806
14.6268 123.707 9.84609
18.7901 135.163 -4.28546
10.1283 153.373 0.137516
17.1936 112.904 11.8322
19.4121 110.32 9.47114
16.9194 120.951 7.54894
17.4816 112.45 11.6272
9.21432 154.167 1.36626
10.6724 144.835 4.3759
11.8268 134.539 8.4786
12.6113 132.164 8.52819
19.2917 111.019 9.37781
19.2802 111.067 9.37411
15.3793 122.401 9.52483
10.1601 149.374 2.91488
17.1224 124.449 5.52269
13.7177 128.392 9.17868
21.2339 126.73 -3.00306
13.7334 128.582 9.12753
9.77817 153.447 1.32241
12.0195 149.306 -0.137514
9.94421 154.02 0.778125
18.3596 120.248 6.06055
10.6568 147.155 3.64961
17.9036 120.322 6.85972
