ply
format ascii 1.0
comment Created by Open3D
element vertex 1832
property double x
property double y
property double z
end_header
-36.9761 90.512 -12.0707
-27.1989 116.062 -0.40472
5.69937 131.107 4.92256
-6.7695 110.418 -4.27031
-16.7641 94.2122 -11.4591
9.6519 122.064 0.35804
1.5814 120.44 0.035053
-14.4564 130.359 5.68167
-28.0212 129.159 5.85881
11.0423 122.157 0.307132
-5.29378 108.103 -5.49264
13.728 122.8 0.461833
-31.3059 90.7615 -12.3208
-37.7006 92.3297 -11.2129
-7.4987 93.169 -12.5145
16.0283 123.123 0.480847
-5.81107 94.0537 -12.2096
-25.5406 132.374 7.21726
-0.293305 115.681 -2.218
-6.06456 107.95 -5.59042
-23.4859 129.573 5.72908
15.6487 122.419 0.0705942
-25.7066 129.902 5.97747
-23.4437 129.283 5.55308
-28.3927 128.658 5.52745
-24.9747 125.959 4.04084
-26.7822 121.393 1.94139
-9.47341 127.75 4.00127
-24.7386 128.816 5.37093
-35.1564 102.075 -6.8325
-34.4597 105.102 -5.43109
9.27834 121.502 -0.0799159
-26.926 120.054 1.25883
8.82565 122.442 0.378381
14.8003 122.606 0.104676
10.2621 119.106 -1.3198
9.23081 128.251 3.09315
-36.493 90.8773 -12.2056
-27.6404 129.338 5.68009
10.6836 120.374 -0.7671
-21.5418 128.804 5.07258
-3.64716 110.116 -4.87414
-37.7089 95.3248 -10.0274
-25.7194 129.852 5.80626
-28.677 128.235 5.1979
6.60422 130.866 4.45902
-35.9714 93.2647 -11.1339
-23.4177 128.626 5.06659
-19.693 95.2467 -11.1117
-33.3375 108.08 -4.21368
8.9721 121.379 -0.245693
-4.01571 109.789 -5.06343
-5.5589 116.258 -1.89444
-25.3593 126.389 4.05383
14.3208 118.353 -2.05527
16.4163 125.589 1.28233
7.58592 111.254 -5.07548
13.449 129.236 3.19157
14.8302 120.17 -1.22629
-26.4605 129.109 5.36973
0.428946 117.345 -1.77943
-0.0910114 116.094 -2.35487
-36.01 92.2462 -11.7503
-26.2001 128.241 4.90709
-26.5314 118.961 0.483213
16.8669 126.168 1.47862
-36.5237 92.9421 -11.4003
-22.7737 130.93 5.98834
-21.9102 132.065 6.47837
-36.6916 92.9663 -11.4019
-19.4057 129.869 5.25438
-23.1342 130.021 5.52458
13.3487 118.27 -2.15564
-34.1317 91.6001 -12.2385
14.7422 121.887 -0.511272
-0.361794 115.504 -2.71627
-6.50732 111.18 -4.45372
5.92587 131.637 4.62163
-5.80569 110.047 -5.04261
7.69396 122.827 0.290746
-34.1532 91.2996 -12.4262
15.6629 120.835 -1.11294
-28.2333 127.354 4.4782
-3.86699 128.312 3.53808
3.91668 101.422 -9.76438
-35.1256 94.8179 -10.7417
-31.837 110.796 -3.28973
6.64093 112.96 -4.43266
8.89593 130.121 3.64544
-35.0097 94.5954 -10.8732
7.99793 115.976 -3.07388
-19.8021 129.589 5.00224
-19.9401 129.358 4.88728
16.64 127.487 1.92802
12.3034 126.935 1.90288
-33.7672 107.183 -4.9472
-23.3938 93.5052 -12.103
16.2429 127.907 2.10492
-27.8461 129.702 5.43645
4.60783 131.539 4.48491
-19.9994 130.19 5.22207
0.665775 117.844 -1.84715
8.74229 120.512 -1.06121
-6.19193 94.6124 -12.6044
9.90554 121.188 -0.809362
-28.7511 127.218 4.2451
-21.1739 132.93 6.53849
-24.7185 132.521 6.53629
-6.14842 111.506 -4.58401
-25.8745 129.931 5.33611
-20.1831 130.786 5.41636
-24.9368 92.7663 -12.4959
14.5374 128.93 2.57015
10.6047 123.092 -0.0307027
17.1061 129.998 2.90397
-20.5487 129.483 4.74713
-0.30927 115.592 -3.0374
-22.4701 94.3954 -11.9267
-12.5858 132.017 5.49164
17.3899 130.225 2.93332
11.0195 125.719 1.13534
11.3773 123.549 0.0734631
16.4512 130.059 2.89766
-19.1475 132.168 5.90627
0.584488 117.675 -2.14616
-30.2746 112.52 -2.87724
-32.5007 109.519 -4.18836
-15.4557 132.456 5.81674
11.2895 128.264 2.30317
-27.229 123.484 2.16962
-13.7727 131.75 5.35995
-5.17989 117.366 -2.00372
-3.00605 112.122 -4.65688
16.6566 130.396 2.97238
6.9958 110.06 -6.20734
7.49738 123.431 0.15061
-26.1629 129.641 5.01244
9.62575 131.532 3.8944
12.0021 130.821 3.40624
-22.1946 94.7691 -11.9089
13.8259 129.84 2.82872
3.55954 101.636 -10.1016
2.67355 123.749 0.516076
14.0535 130.013 2.86525
-27.8213 126.715 3.64731
-28.6036 117.29 -0.819496
7.27678 110.853 -5.92525
-2.91483 112.392 -4.61976
-3.24553 128.781 3.22586
16.0567 119.163 -2.46428
6.9861 115.562 -3.6808
10.6481 129.955 2.98308
15.1202 130.461 2.96305
-18.0096 132.568 5.8265
-3.98836 121.913 -0.0770457
17.1354 130.958 3.04907
-17.114 96.7699 -11.3989
15.6253 120.324 -1.98935
-24.466 133.035 6.346
-27.8483 121.064 0.805372
4.12558 102.552 -9.85481
-7.31808 130.271 4.02056
-8.19963 129.948 3.90647
8.04926 122.622 -0.512593
-23.5105 132.45 5.95708
-36.6266 100.342 -8.6647
-4.45497 119.984 -1.10199
-10.327 129.65 3.8498
-28.1272 118.296 -0.579227
-35.3928 96.2755 -10.7007
-0.24464 99.0979 -11.3335
-27.6232 126.649 3.37129
13.3756 130.762 3.01778
-25.389 130.181 4.91646
-24.6969 93.6275 -12.6029
-24.0615 132.529 5.96006
10.5044 131.813 3.65283
6.55204 107.897 -7.57713
-27.0903 129.138 4.45912
-17.9309 97.3989 -11.2361
7.79391 123.62 -0.149172
-32.9091 93.5896 -12.2192
7.57825 111.831 -5.80011
-32.5414 93.2117 -12.4454
-3.74966 130.406 3.70867
13.5512 117.389 -3.5119
10.9772 130.818 3.05095
4.62517 132.433 4.17225
7.36766 125.294 0.57066
-3.02034 126.624 1.79135
7.20927 133.889 4.68705
15.8051 121.938 -1.51457
16.8046 126.598 0.647974
-27.1942 123.674 1.72794
-27.2029 128.759 4.15445
-32.699 94.3826 -11.9742
7.14748 124.349 0.10381
11.1966 126.598 0.945996
-21.189 131.966 5.32557
-18.3594 133.916 6.09758
17.4038 127.555 1.03032
2.34937 122.803 -0.398074
11.1185 124.739 0.0316426
-27.0589 125.075 2.33723
8.97338 123.678 -0.378135
-26.7888 126.898 3.16337
13.3509 131.277 2.99153
7.31316 124.034 -0.133737
6.24955 115.739 -4.04386
-31.5487 93.9749 -12.327
-2.56826 128.617 2.58982
10.9792 124.442 -0.173875
-30.8864 94.1584 -12.3143
-27.3174 127.066 3.21024
-31.2586 94.4983 -12.1517
-27.8294 119.549 -0.368108
-14.2696 132.924 5.25851
-33.0545 95.8566 -11.41
11.167 124.988 0.0207121
-14.9969 97.1978 -11.8
-27.402 124.701 2.04974
-27.1899 123.723 1.5632
-30.4015 128.75 4.13999
-5.82496 131.757 4.18565
-26.6204 125.67 2.43902
-7.06648 95.3654 -13.1547
10.4789 124.383 -0.282068
-27.3189 126.979 3.08831
-27.4078 125.005 2.14892
4.59111 132.203 3.7764
-29.5886 129.771 4.52665
-2.41364 128.665 2.46472
-27.4981 127.385 3.25197
-15.3972 97.4176 -11.7618
-27.0678 127.246 3.15867
7.57952 111.92 -6.14326
8.33306 123.096 -0.857844
10.2739 124.442 -0.340825
10.3593 127.696 1.20522
-13.1756 97.1601 -12.0738
1.45555 101.029 -11.053
-7.8893 131.739 4.1499
-26.928 125.662 2.306
-24.1082 133.942 6.10142
7.95982 124.601 -0.186935
-1.46594 115.628 -3.95237
7.37709 111.262 -6.54761
8.78042 117.82 -3.49431
-35.8068 97.0727 -10.9228
7.31484 116.438 -4.09776
-27.6487 127.365 3.08268
-4.39401 96.9233 -12.8254
8.51618 134.58 4.40521
-28.0068 93.4912 -13.1844
-0.0787005 100.054 -11.6328
6.06542 113.793 -5.41283
10.0506 133.132 3.5917
-10.4933 95.468 -13.2842
-25.7193 126.481 2.38579
-37.1506 100.086 -9.59866
17.3811 128.11 0.715852
16.3508 133.146 3.17901
-31.7188 111.511 -4.4683
-36.268 101.683 -8.9144
-26.5309 93.9285 -13.1733
-28.7569 127.246 2.87802
-19.9454 97.4622 -11.8626
-7.18109 95.9293 -13.3171
-13.7327 133.871 5.1679
-4.64905 117.091 -3.42983
-28.2286 127.185 2.71759
4.05098 104.187 -10.1044
17.4286 128.832 0.91518
-26.1026 124.6 1.34202
8.77166 123.198 -1.31316
-29.2555 127.181 2.72796
-29.1821 127.373 2.81493
-27.5674 125.498 1.80537
5.97567 114.655 -5.29546
-27.3793 127.313 2.63386
-31.302 127.551 2.96309
-31.7159 111.504 -4.69223
-27.0335 124.363 1.18523
7.13286 126.172 0.11605
-27.0728 126.441 2.15716
12.2192 133.39 3.25157
17.8554 129.775 1.20151
-15.0118 98.728 -11.7943
-27.5559 124.891 1.42071
-4.47386 116.756 -3.77135
-34.4237 106.602 -6.97314
15.3364 120.399 -3.1831
-27.6753 123.169 0.565709
-18.9976 136.176 6.28652
6.85876 109.882 -7.75196
-28.4427 122.768 0.396464
10.439 118.426 -3.87286
-24.9356 124.688 1.10702
4.57684 131.805 2.83903
2.95742 124.615 -0.509375
-26.7682 127.272 2.43511
-25.1575 134.053 5.57899
10.1415 133.671 3.3853
-30.9834 126.755 2.3599
-31.7295 111.429 -4.93959
-7.17382 132.525 3.75805
11.6524 134.873 3.81186
-20.4778 135.721 6.01231
-3.89483 116.508 -4.12715
-5.51197 97.2231 -13.2703
8.24287 124.955 -0.795167
4.40139 129.195 1.43746
16.9525 134.693 3.35001
5.78811 116.633 -4.69051
6.2903 124.926 -0.802289
-23.736 124.359 0.617614
5.42664 133.873 3.51026
-22.1773 134.223 5.20328
-26.9897 124.34 0.742925
3.1595 125.258 -0.534168
-32.2211 110.351 -5.67192
9.83852 134.602 3.55289
-30.27 128.487 2.87448
-25.4311 95.7731 -13.0517
14.5177 134.287 3.10683
10.9635 135.563 3.90106
-3.57769 121.041 -2.22383
6.02267 116.17 -5.11357
8.06053 118.196 -4.27043
-25.2965 95.9448 -13.0318
-6.2376 132.984 3.57545
-4.67165 98.0821 -13.2088
-2.16284 116.911 -4.35319
-29.6515 128.955 2.94152
-24.1364 124.739 0.610867
15.6479 122.382 -2.76456
5.16107 106.969 -9.54695
0.354438 102.095 -11.6066
-27.0283 127.538 2.10205
-3.71099 117.291 -4.12142
16.0217 123.388 -2.33181
18.0851 130.03 0.72455
-31.6308 111.72 -5.23983
-27.8324 128.566 2.58866
-3.61908 117.831 -3.91347
-30.6659 127.859 2.39525
-21.0268 98.5078 -12.2066
-13.5488 134.09 4.38599
2.43764 103.427 -11.1776
-1.548 130.29 1.88513
-27.6856 127.186 1.87122
-14.7697 134.761 4.75899
16.1991 124.06 -2.10988
-11.0268 98.277 -12.9041
6.47838 114.572 -6.11196
11.3496 118.364 -4.57355
-3.72227 98.8792 -13.0427
-35.7437 98.8905 -11.2476
-24.3638 97.5371 -12.5438
-11.8096 99.0934 -12.5108
-27.5747 127.264 1.84625
-23.6517 98.0489 -12.3474
15.8598 122.134 -3.05834
-14.9063 99.9897 -11.9193
-31.0161 126.709 1.75825
-2.09358 127.135 0.321283
-19.0017 99.4235 -11.9789
4.21512 106.051 -10.1395
-13.1899 133.869 4.10738
10.2674 118.736 -4.45546
-36.1744 100.072 -10.7683
-7.26847 133.18 3.43399
13.4959 135.696 3.46612
-36.308 102.043 -9.83677
10.9651 118.591 -4.60479
-34.407 98.5668 -11.6386
-3.33125 118.138 -4.03304
-9.0544 133.132 3.4566
10.4798 118.96 -4.44034
16.8046 126.456 -1.21898
2.21678 103.576 -11.3407
-25.5774 97.2609 -12.8054
-17.459 100.341 -11.7907
-27.0202 127.117 1.54222
-29.2727 121.92 -0.81784
-2.14743 133.721 3.29313
4.71996 129.427 0.844726
1.74427 122.71 -2.20536
10.8343 119.283 -4.3567
8.05194 126.437 -0.788529
-29.9583 129.034 2.58971
-27.965 129.351 2.62368
-10.6 98.6527 -13.0499
-31.3814 128.198 2.24049
10.7478 118.328 -4.87663
-1.22336 128.871 0.828388
-30.0064 129.031 2.51968
-30.6984 115.862 -3.73832
-1.25277 101.069 -12.4778
8.44423 126.932 -0.675791
-19.8245 138.371 6.3794
-2.29311 100.252 -12.8423
-2.76935 99.947 -12.972
-28.3669 96.2419 -13.3099
19.0464 134.219 2.17283
16.1099 136.237 3.29306
-27.1284 96.7956 -13.1346
-34.3424 106.689 -8.00511
17.3446 136.991 3.56038
-30.715 115.645 -3.95084
17.0351 136.905 3.51481
-34.6712 106.166 -8.27484
-2.95855 119.465 -3.71896
-29.3415 121.349 -1.33348
-1.88217 127.091 -0.145472
-27.9219 129.249 2.32484
7.70356 113.185 -7.3659
-21.1437 137.931 6.07084
-1.54335 101.141 -12.6265
-18.3305 138.645 6.24384
-28.1862 96.8243 -13.1987
-14.3944 134.686 4.12657
-23.3371 125.928 0.423926
-30.6858 113.924 -4.90345
4.95617 131.762 1.60084
-26.6548 97.6957 -12.9076
16.4926 125.288 -2.15014
-1.37412 131.661 1.90314
18.4279 129.515 -0.249877
-1.65809 101.177 -12.6862
9.74545 136.82 3.71439
-19.507 100.275 -12.1145
15.9779 137.08 3.47888
-33.6132 109.391 -6.96619
9.9994 118.84 -4.9248
-25.0333 135.011 4.78213
9.58752 124.538 -2.179
9.45143 138.419 4.46148
-28.2577 97.2544 -13.1232
-27.7742 129.444 2.21827
-23.1192 135.258 4.70977
-35.4619 103.518 -9.78856
-28.3533 97.4858 -13.0844
17.4321 137.707 3.55433
9.68965 121.934 -3.55381
-0.627215 102.631 -12.2116
-14.714 135.458 4.27512
5.85869 134.299 2.56077
-20.8932 138.353 6.00683
16.4405 124.332 -2.81348
-17.9485 101.032 -12.0444
-16.6171 100.974 -12.1468
7.87329 126.587 -1.29268
-7.07896 133.987 3.08056
-32.6494 98.4509 -12.4905
-28.9766 127.157 0.998592
10.4026 137.595 3.76221
-30.0501 119.88 -2.44511
7.46406 113.426 -7.64832
-20.6023 138.657 5.99826
-4.32266 99.8258 -13.489
20.2067 130.605 -0.210589
-4.94188 134.581 3.09386
-11.0119 100.944 -12.6621
0.956974 104.412 -11.6794
-12.5481 134.859 3.62532
-23.4402 135.449 4.51637
-0.701281 134.222 2.63251
-35.2489 104.606 -9.589
-9.90153 100.141 -13.1607
-31.459 127.503 1.12724
-1.87341 120.875 -3.71151
6.4178 123.999 -2.6977
-27.4357 127.26 0.73845
-25.4075 126.151 0.0876747
17.0439 124.968 -2.87495
-30.9564 117.352 -3.81346
-27.3437 127.099 0.637104
-11.1616 135.186 3.58237
19.4052 135.519 2.01217
-35.2481 101.443 -11.2133
8.34896 120.429 -4.60105
7.45656 112.141 -8.52894
-28.0821 125.55 -0.117014
-30.2141 97.8347 -13.2553
19.1565 136.156 2.25084
-17.8618 139.71 6.02031
18.1409 127.17 -2.01858
-1.40204 127.035 -0.982724
9.61894 119.673 -5.13701
-26.7367 133.597 3.56816
17.2445 125.379 -2.84728
13.9258 140.443 4.52861
-15.3504 136.706 4.38609
6.03046 134.277 2.01182
-28.8888 98.2553 -13.2454
-6.20401 99.5807 -13.8919
-16.1394 101.459 -12.4372
8.8712 138.85 4.0277
-9.44748 100.55 -13.262
5.98249 117.342 -6.11453
9.7722 126.794 -1.81402
-15.3426 136.287 4.13836
-27.6607 127.099 0.435552
1.83171 124.232 -2.59899
-26.0833 127.197 0.371754
-35.2287 103.54 -10.4301
-28.9142 98.3925 -13.2606
-25.4982 100.057 -12.7007
6.58746 111.026 -9.27788
1.65953 124.237 -2.70076
-18.7464 140.792 6.36249
17.0648 122.481 -4.43308
-26.2665 127.183 0.256616
-13.4103 135.305 3.4042
-26.6855 99.5585 -12.9433
-7.29883 134.719 2.77523
3.01666 126.574 -1.72217
-0.01363 130.266 0.203121
-7.58329 100.445 -13.6511
6.39324 114.533 -7.70968
-3.51989 101.168 -13.5489
20.6751 130.417 -0.939261
-7.73794 100.6 -13.6053
-28.8421 132.125 2.63033
10.3469 119.732 -5.51046
15.1786 141.082 4.41514
-8.19321 134.957 2.76368
-0.861293 127.959 -0.996845
-24.2811 127.156 -0.0651559
-1.30502 123.415 -3.15829
2.81002 106.739 -11.3715
-32.8528 100.422 -12.387
-5.61486 100.347 -13.968
6.48189 111.465 -9.33933
10.7477 139.031 3.57946
7.58402 112.801 -8.79322
10.2436 124.024 -3.58316
8.72368 125.628 -2.74162
9.53015 119.855 -5.55524
7.36394 123.183 -3.85536
-11.731 101.863 -12.9789
-10.1661 135.881 3.19582
-9.95921 102.215 -12.9271
-34.4488 102.138 -11.637
2.3309 126.035 -2.29224
-21.7021 139.712 5.59114
7.19847 126.218 -2.49349
-18.6962 141.679 6.33109
-6.91659 101.247 -13.6771
-27.4171 127.367 -0.0406555
6.28284 119.279 -5.81071
-27.6386 128.33 0.423055
6.337 124.378 -3.38476
-23.9979 101.256 -12.7951
-20.3811 102.07 -12.6116
-0.27563 106.017 -11.8621
10.772 139.603 3.54289
-26.7926 133.698 2.83332
-28.1949 124.581 -1.48421
-31.3563 129.5 1.04162
-29.1161 132.376 2.27408
15.6268 141.629 4.17196
19.6731 137.351 1.89714
-6.69308 101.521 -13.7512
-8.09202 135.645 2.63891
-34.8217 103.928 -11.0226
-30.637 119.531 -3.79763
-34.5542 103.319 -11.3462
18.2442 126.322 -3.32409
-31.5144 100.718 -12.7689
-0.868032 126.783 -2.03516
2.3951 126.445 -2.39839
-30.4715 127.877 0.136223
19.5291 135.577 0.983898
20.7908 131.144 -1.21711
-3.49123 102.358 -13.6346
-28.7598 99.6913 -13.486
2.681 107.304 -11.6208
9.20439 122.664 -4.66916
-0.000429607 129.756 -0.759767
13.5951 141.938 4.29526
8.64525 122.51 -4.73573
10.2807 127.134 -2.65859
-14.2572 137.419 3.62908
-30.3136 100.429 -13.1777
16.733 141.362 3.73148
-4.29429 137.054 2.85517
-16.5101 102.326 -13.0837
-34.4065 105.011 -10.7987
-29.5695 100.14 -13.4424
-21.4523 102.33 -12.8724
8.23556 127.065 -2.72107
0.164897 134.88 1.45428
-5.80535 101.853 -14.0107
6.65463 135.637 1.41046
-18.772 142.827 6.26372
-0.0889997 107.031 -11.9088
5.51944 110.605 -10.5167
-9.54082 136.673 2.74881
0.746427 131.133 -0.493364
7.69845 137.868 2.33116
14.0651 142.637 4.23865
-24.8962 127.688 -0.71405
-27.575 124.326 -2.19852
-2.65455 137.017 2.45838
6.35184 117.041 -7.60437
19.7444 137.647 1.47915
10.9865 121.057 -5.96916
-0.816234 106.509 -12.264
-26.534 127.687 -0.687345
18.2467 139.554 2.44982
-26.9377 128.979 -0.073892
-33.2354 110.727 -8.47346
-23.5767 138.282 4.15558
8.57989 126.484 -3.3104
-17.5597 102.573 -13.2988
-27.7654 123.284 -2.84241
-25.9518 127.326 -1.02209
-3.87885 137.563 2.59903
5.75125 111.703 -10.3206
-33.3203 110.523 -8.69073
11.7308 142.676 4.10332
-16.2044 102.815 -13.432
-12.6485 137.337 2.86817
-28.218 122.656 -3.28092
0.488892 135.157 1.06992
-17.2424 102.786 -13.4441
-5.30957 138.104 2.75919
7.92877 126.383 -3.60531
10.6284 120.83 -6.42187
-20.1588 103.682 -12.9038
18.5318 124.104 -5.34578
2.91642 108.848 -11.7627
-18.1251 142.37 5.44918
-26.866 125.59 -2.08603
-33.78 108.94 -9.66088
-7.69333 103.697 -13.6422
-26.9677 124.533 -2.59658
-23.7916 127.366 -1.44047
-23.8113 137.444 3.352
1.37495 127.027 -3.05112
17.1408 141.861 3.14661
8.77246 139.953 2.7035
19.6942 139.112 1.65928
16.843 121.748 -6.48382
-1.30648 106.795 -12.6114
20.2439 127.783 -3.80265
8.68128 122.846 -5.52596
-28.3139 101.311 -13.7421
3.86365 109.765 -11.5144
-28.8058 101.947 -13.42
-32.2535 103.611 -12.4558
1.40939 128.513 -2.44946
-5.27682 103.042 -14.2538
-33.2957 110.559 -9.11045
9.05486 142.158 3.61044
-24.7858 127.973 -1.26667
19.3348 139.602 1.79942
-3.72867 138.179 2.33699
-30.66 103.684 -12.6431
-27.2173 123.663 -3.28534
16.9749 122.191 -6.50141
-32.1873 113.972 -7.68416
18.5874 124.242 -5.65136
1.31741 137.214 1.51998
-31.7273 115.852 -6.84836
-24.4142 140.011 4.28848
-27.9763 122.857 -3.72094
-0.103838 138.124 2.00333
18.9479 130.293 -2.82208
10.1713 129.18 -2.8626
-0.15611 138.151 2.00385
-31.6356 116.114 -6.78953
15.7171 143.472 3.61879
-25.8196 126.809 -2.03287
-24.2899 140.512 4.43372
5.0147 111.284 -11.1956
-26.2931 127.387 -1.73761
18.7508 128.159 -3.91282
10.5174 142.9 3.59201
-0.635993 108.319 -12.3244
10.2113 129.192 -2.95859
2.91792 128.759 -2.756
-17.8182 143.078 5.24246
1.10043 136.182 0.874578
6.21777 126.68 -3.96662
1.09715 130.403 -1.90004
-33.2515 106.373 -11.4774
-6.45983 144.284 5.13934
8.66815 128.392 -3.31659
5.54758 133.249 -0.840752
7.72564 126.556 -4.16877
15.4438 124.937 -5.37851
-2.41205 138.592 2.14803
-15.6661 103.489 -13.8942
0.828564 134.53 0.0108249
18.5484 128.296 -3.99163
17.6779 129.686 -3.27903
-24.2191 137.871 2.98839
-6.36441 144.596 5.19226
8.63007 120.292 -7.27777
-11.5076 104.247 -13.8228
17.167 142.749 2.96746
1.6207 133.245 -0.701982
-24.6285 140.184 4.08538
-24.4637 139.399 3.70036
6.72045 127.888 -3.56248
-26.0285 128.429 -1.46262
-17.7739 103.863 -13.6767
0.942869 135.321 0.306362
10.1505 127.616 -3.90116
-22.1772 142.223 4.88724
16.604 125.319 -5.38434
-15.4958 142.865 4.79168
10.0099 122.128 -6.5816
20.1513 130.412 -3.19768
6.59415 125.633 -4.73915
-32.8945 106.522 -11.6812
-6.56215 144.038 4.77176
8.56528 126.351 -4.54414
15.4862 122.843 -6.62181
-32.7283 109.913 -10.0982
-32.7992 110.747 -9.70373
9.13595 124.892 -5.32399
-25.4639 103.118 -13.7896
-3.2454 139.298 2.25775
-15.0619 141.044 3.75605
6.69437 125.417 -4.95287
11.4234 144.806 4.03392
17.0989 123.174 -6.63767
-4.34876 139.668 2.44696
-8.26051 105.189 -13.8258
7.00923 115.476 -9.77031
-10.4753 142.099 3.9365
-14.9302 140.117 3.23378
-26.7039 103.079 -13.8243
6.37894 120.485 -7.3746
19.3276 128.296 -4.37101
-30.8259 132.473 0.439825
2.26793 131.19 -2.03972
-23.6705 103.697 -13.7246
-0.841379 139.192 1.96023
-31.0388 131.925 0.14773
-32.0498 106.271 -12.0696
-24.7165 128.231 -1.9915
-17.148 104.299 -13.8704
1.45887 136.166 0.310763
14.7445 123.461 -6.5197
11.3121 144.963 3.94474
-17.9775 104.494 -13.7656
1.81068 137.358 0.831229
-24.4621 126.876 -2.70564
-32.106 106.657 -11.9911
-31.1048 118.141 -6.57106
7.51624 122.543 -6.65561
15.6841 122.454 -7.1635
-29.9688 120.744 -5.41851
14.7015 120.21 -8.19527
-10.2446 138.378 1.897
2.61221 134.38 -0.745666
-14.8872 140.747 3.27647
1.48108 139.726 1.86398
19.289 136.792 -0.54425
-25.7434 138.179 2.63438
15.9717 121.787 -7.56054
-6.80823 105.122 -14.2545
-25.0743 140.952 3.90784
-0.745329 139.678 1.92737
7.44145 127.851 -4.19175
-8.19488 138.998 2.0143
14.453 126.235 -5.37812
-30.6964 119.907 -5.86074
7.59152 119.735 -8.10337
5.19457 132.918 -1.66674
8.91048 125.259 -5.54094
-5.83375 145.182 4.80569
-24.6358 128.367 -2.1755
1.64732 110.208 -12.3431
19.2236 141.455 1.59468
-11.3843 140.54 2.8767
16.9376 123.6 -6.8206
-20.7023 105.636 -13.2952
6.65386 121.476 -7.26616
7.58529 127.585 -4.40973
9.43794 143.913 3.29208
15.5831 127.364 -4.9724
3.66198 131.552 -2.30071
4.12114 134.343 -0.994473
-17.4387 104.753 -13.9353
-25.14 126.507 -3.10126
-18.9099 105.225 -13.6359
5.93846 134.314 -1.13041
-28.1179 134.923 1.07621
16.0218 120.755 -8.19884
-31.351 111.085 -10.1568
6.83507 116.05 -9.97314
-4.72733 106.701 -13.8008
-11.283 138.786 1.90916
8.3056 124.277 -6.13641
-1.12246 140.01 1.9091
5.51301 113.589 -11.1026
19.108 127.899 -5.04006
-13.8319 104.716 -14.2971
-9.46745 140.232 2.43745
-25.1411 128.8 -2.15143
-21.0648 105.957 -13.325
-10.1923 139.841 2.25819
18.9838 135.862 -1.29307
13.913 126.658 -5.41956
4.15312 132.581 -2.03877
-14.8958 141.521 3.28107
-25.426 139.737 3.01956
-4.71095 140.928 2.42038
14.9125 122.947 -7.30354
8.1828 124.552 -6.15964
-11.8633 143.885 4.20609
-3.04894 108.718 -13.1127
-21.1936 106.098 -13.3443
6.19542 135.973 -0.610756
14.1739 125.747 -5.95332
12.6862 120.441 -8.41369
1.78374 139.687 1.40018
10.3755 130.195 -3.65803
17.3408 129.479 -4.39309
-18.6026 145.668 5.37393
-8.70816 141.55 2.84663
17.7555 128.429 -4.93247
7.02733 129.257 -3.94494
6.75888 116.344 -10.124
-12.5665 143.655 4.00958
-19.1532 105.822 -13.7314
4.96933 134.234 -1.51387
-26.3864 127.428 -3.00288
7.39423 115.209 -10.7618
3.19004 111.91 -12.1084
-26.8522 137.768 1.94692
18.4648 142.936 1.8637
9.48743 120.284 -8.46248
-30.8456 119.415 -6.61435
-1.05955 140.645 1.83512
16.8163 128.2 -5.13725
-27.6222 124.024 -4.62969
-12.1069 139.653 1.96236
8.17779 124.638 -6.36182
9.93977 128.248 -4.75169
18.6411 142.732 1.67011
-14.1348 145.166 4.67802
1.20669 140.866 1.75274
-24.9191 128.339 -2.77935
-28.5816 123.077 -5.094
-29.6764 128.84 -2.27701
-25.0817 126.442 -3.68943
7.36127 130.277 -3.68994
1.82514 140.366 1.44192
1.43376 141.032 1.77826
-1.78663 141.259 2.06313
-14.8342 141.995 3.15065
-31.2967 116.377 -8.18314
-0.727359 110.605 -12.6768
-26.6145 139.079 2.39318
2.2784 136.198 -0.615917
7.01014 123.103 -7.15708
-26.9746 104.998 -13.9007
-28.4466 128.889 -2.40131
14.9018 145.873 3.25789
-27.9294 129.083 -2.3594
4.18577 113.557 -11.6041
-30.132 107.757 -12.4656
7.32329 121.198 -8.17412
-26.2035 127.517 -3.26261
16.8346 125.138 -6.83056
-16.2205 145.472 4.75592
-24.4229 105.802 -13.7568
18.5316 122.254 -8.32735
-16.4457 145.975 4.96187
-9.71858 146.112 4.64519
-14.0967 141.426 2.64459
8.84295 124.163 -6.91436
8.1606 121.936 -7.94405
16.5534 144.961 2.59005
6.81063 127.037 -5.4376
-5.13104 144.997 3.82353
-30.831 113.552 -9.76811
-25.2918 130.029 -2.20188
-24.4965 129.509 -2.51202
18.4024 127.453 -5.92184
9.80881 120.53 -8.76149
13.34 126.476 -6.14552
19.0551 140.341 0.158229
2.39344 112.21 -12.3648
-3.20155 110.397 -12.9172
-28.4466 123.459 -5.24929
17.751 131.37 -4.10061
-30.6911 109.737 -11.7193
-25.1444 126.516 -4.02523
8.49938 127.043 -5.66993
-29.7905 108.11 -12.5857
-21.6951 106.995 -13.5928
-1.11234 141.748 1.85293
2.80387 113.77 -11.7566
-10.9517 106.419 -14.5017
-24.6785 129.382 -2.76245
-28.4374 123.06 -5.58495
-20.7023 146.149 5.01665
-30.7512 133.379 -0.534335
-30.3412 111.7 -10.9309
-24.652 128.304 -3.31458
7.93629 120.254 -9.00115
18.8201 135.854 -2.16344
6.24342 122.844 -7.69363
-13.376 143.785 3.4148
7.00849 122.11 -8.10853
12.551 127.193 -5.99846
-19.3299 147.095 5.28652
18.2147 124.754 -7.51767
-24.1979 128.963 -3.11458
13.2223 147.129 3.45921
18.9775 139.795 -0.372752
-25.9516 125.507 -4.67464
-30.8875 116.827 -8.55352
-22.7128 107.564 -13.4471
-16.6659 106.064 -14.5074
-6.72904 142.737 2.45141
16.4744 145.356 2.38055
-25.2818 142.036 3.14433
-23.4249 128.782 -3.3047
9.11823 144.421 2.33504
-30.723 117.63 -8.23177
-13.8235 142.119 2.52408
2.05894 141.618 1.3827
12.0881 146.991 3.38196
-27.1608 138.981 1.73993
-4.53497 142.651 2.20623
-31.2066 131.304 -1.73457
-4.04806 111.668 -12.6648
18.6894 127.746 -6.27664
-25.6393 128.627 -3.36078
-29.2189 107.839 -13.1004
-25.5853 127.793 -3.77038
16.658 129.683 -5.26369
8.40332 122.315 -8.33184
11.1864 130.486 -4.58307
6.42267 138.268 -0.59574
9.76639 123.68 -7.7635
-26.024 141.198 2.59547
-28.8896 107.332 -13.4392
8.56611 142.776 1.38937
11.4119 127.031 -6.31535
-24.6923 128.069 -3.78666
-20.2954 146.76 4.89616
8.04806 126.638 -6.34543
-26.652 124.654 -5.3419
-25.1076 129.822 -2.95973
7.60488 119.476 -9.76492
0.513535 145.96 3.28699
1.0353 146.094 3.31044
4.54929 136.448 -1.50107
-25.7275 141.677 2.69811
-25.3667 129.358 -3.21591
16.9895 130.905 -4.87152
-18.138 106.958 -14.351
16.769 130.746 -4.95049
-27.009 124.653 -5.4038
19.6206 128.229 -6.32644
0.738197 142.671 1.64096
-2.34395 111.791 -12.9536
5.2317 136.625 -1.50863
15.703 146.132 2.44282
-4.95303 111.4 -13.0011
-5.83614 143.068 2.18577
-24.6824 127.968 -3.97585
-6.96466 107.703 -14.6677
17.1045 125.475 -7.54283
4.34307 136.71 -1.46325
7.36116 139.996 -0.0657509
13.461 124.704 -7.72993
9.44654 124.422 -7.65113
-23.609 127.786 -4.18605
-16.9392 106.757 -14.6241
8.07525 141.591 0.605561
10.8811 136.336 -2.11146
8.02224 122.047 -8.78877
-24.9409 128.09 -4.04433
12.8117 125.881 -7.24599
-25.179 142.523 2.85221
-23.2065 128.541 -3.96963
11.1155 132.814 -3.88512
0.158081 112.605 -12.9422
6.73976 139.552 -0.428284
18.4545 138.358 -1.66275
-28.8483 129.43 -3.29117
18.1677 134.493 -3.53503
2.66234 140.468 0.193703
17.3906 132.142 -4.6337
12.9652 125.558 -7.54079
-2.2004 144.274 2.2631
-30.9507 133.215 -1.408
13.5998 123.693 -8.47482
-28.2176 137.468 0.460116
-19.1569 147.788 4.88411
12.4614 129.012 -5.88351
14.2244 129.883 -5.57303
-0.0845721 143.153 1.56302
3.6082 137.942 -1.14213
-2.61201 145.353 2.74957
13.4653 123.519 -8.60366
0.598753 145.358 2.54132
-0.717423 112.658 -13.0267
6.90959 140.236 -0.282409
1.20551 143.819 1.74962
11.4288 125.871 -7.41088
-23.116 144.342 3.36788
-28.5059 108.259 -13.5942
18.0937 141.853 -0.163966
-25.3122 128.442 -4.1456
-15.3648 148.07 4.67911
-29.6314 129.347 -3.49202
7.91519 120.941 -9.63335
13.1151 148.029 3.02432
17.9298 143.682 0.672951
12.7232 129.531 -5.80275
9.41823 133.587 -3.68755
-11.4511 108.356 -14.5906
-13.3432 144.84 2.96133
-25.3765 127.089 -4.85669
9.65994 134.535 -3.27256
-28.0121 138.323 0.657011
9.96065 135.893 -2.6452
-30.0242 119.868 -8.05507
8.74894 125.34 -7.62831
7.77986 125.769 -7.37043
-6.58384 109.392 -14.3923
10.9674 133.694 -3.79675
11.1336 121.867 -9.46538
0.782626 144.021 1.71039
9.88266 133.298 -3.93587
18.1378 141.216 -0.625129
-11.3664 146.029 3.32852
9.80052 126.024 -7.43597
-0.405036 143.949 1.70701
-25.5349 125.217 -5.83487
7.36326 119.23 -10.559
-9.17203 108.797 -14.6173
5.48741 139.115 -0.977468
8.08707 128.668 -6.12513
0.0645939 143.962 1.63913
11.0366 135.614 -2.9718
-30.1559 118.035 -9.06046
-24.228 127.387 -4.93169
3.59073 140.049 -0.459711
-22.5826 145.51 3.60735
-29.1949 113.937 -11.1185
-25.2321 127.222 -4.9946
10.0382 132.216 -4.59669
-12.6561 146.744 3.62195
-29.0647 110.729 -12.6832
10.6551 131.815 -4.84667
17.9646 126.919 -7.61217
7.74273 129.257 -5.92285
11.647 124.452 -8.44778
-26.5033 141.185 1.70168
-0.865582 113.639 -12.9262
10.5088 122.788 -9.21375
9.61156 134.005 -3.81578
17.864 142.947 -0.0460462
7.26185 118.612 -11.0963
14.8574 131.579 -5.32675
2.01454 115.748 -12.1803
-17.5072 148.717 4.68457
2.551 144.838 1.67006
17.5982 126.059 -8.16231
-26.8532 127.198 -5.12314
-14.875 148.872 4.53387
-27.9221 109.327 -13.641
10.6011 123.821 -8.88791
12.3685 142.302 -0.150954
6.37286 117.032 -11.91
-25.8728 109.218 -13.8345
-24.4904 127.698 -5.07688
7.47944 124.97 -8.19634
10.379 138.449 -1.91766
-3.23997 114.922 -12.415
-2.72433 114.896 -12.4588
-9.76428 110.231 -14.2966
-20.6269 134.318 -2.1732
11.207 135.281 -3.5445
12.0621 140.235 -1.24742
12.7773 143.687 0.353466
3.17883 142.463 0.308485
7.2855 124.572 -8.48044
-3.24999 115.114 -12.4103
3.08136 143.848 0.962793
-27.9542 109.929 -13.5095
-21.7194 146.723 3.71163
-27.5313 111.747 -12.6935
-23.3284 131.256 -3.60186
6.03859 140.937 -0.633328
5.06422 139.877 -1.09368
-25.8823 142.151 1.71782
-4.44509 115.119 -12.4308
8.54912 129.996 -6.05321
-27.5865 110.424 -13.3934
-20.9598 108.886 -14.5061
-27.5205 110.742 -13.2487
-29.7892 135.314 -1.37664
17.079 137.562 -2.94778
-16.6732 113.279 -12.6571
-16.6543 148.866 4.35788
13.238 144.315 0.493455
8.12932 125.59 -8.17649
-26.4259 141.586 1.41243
-21.8367 133.968 -2.4898
18.1262 124.283 -9.38954
-22.3639 146.22 3.38206
-18.9435 148.566 4.30804
12.3844 143.198 -0.0258109
-17.1536 112.787 -12.9133
-12.5378 109.694 -14.6596
10.4904 128.274 -7.07357
3.38668 143.191 0.457445
-26.7741 129.268 -4.50359
15.3346 143.975 0.150239
-20.194 134.848 -2.21753
-23.1772 132.936 -2.96989
10.2688 130.507 -6.0193
-16.1259 114.515 -12.1813
11.9838 139.822 -1.67397
-29.6467 118.926 -9.33385
7.61656 124.873 -8.59537
-16.2116 112.345 -13.2562
-13.7196 148.49 3.88175
13.3321 148.93 2.56146
16.0075 144.488 0.276845
12.6435 139.728 -1.81464
10.8368 131.2 -5.79155
-28.4735 138.354 -0.157151
12.435 137.448 -2.89965
5.48771 117.236 -12.1744
-26.2037 127.437 -5.51257
12.3615 139.694 -1.83223
-22.1927 133.254 -2.9767
2.99883 145.187 1.30876
-23.3347 145.399 2.88542
7.86271 125.147 -8.55996
-16.5244 109.851 -14.501
-25.3619 142.953 1.82503
-11.4241 110.373 -14.5452
6.78482 118.396 -11.7382
-23.9126 144.799 2.60924
-17.5536 110.204 -14.2997
-17.0615 113.583 -12.7149
-20.9075 133.069 -3.18216
-11.1754 146.589 2.73332
-16.2889 110.968 -14.0213
-15.7367 149.346 4.288
-14.4375 119.573 -10.0246
-26.49 111.991 -12.9722
14.6612 147.466 1.66167
-26.5479 110.134 -13.873
-16.0784 110.298 -14.4045
-26.0109 142.158 1.38172
-16.7062 114.518 -12.3599
-1.8965 115.645 -12.6603
-13.3782 109.68 -14.8711
-23.9459 110.462 -13.9099
-18.7125 109.953 -14.4603
-24.5493 127.287 -5.84932
-17.2549 109.08 -14.9711
-15.5302 117.477 -11.0626
-14.7574 116.368 -11.6509
-23.9111 128.877 -5.16962
-11.747 147.366 2.98199
-26.2165 129.49 -4.76279
7.56674 143.873 0.210058
15.7121 146.392 0.944373
14.9167 142.689 -0.783578
-20.2308 133.141 -3.37792
10.2447 137.376 -3.07688
-22.9858 130.131 -4.67022
-12.2403 110.435 -14.7009
-16.5384 115.512 -12.0401
-6.73979 113.017 -13.7947
14.4019 144.964 0.288508
11.2947 129.393 -6.98383
-16.3692 116.136 -11.7886
4.56595 141.749 -0.725064
-13.1643 110.119 -14.8755
8.4714 145.458 0.779092
-22.1269 133.406 -3.29035
-24.1786 131.05 -4.30494
-11.715 148.071 3.128
-7.95451 112.076 -14.3256
-21.1496 110.508 -14.3386
-16.0477 118.735 -10.6942
4.22514 142.747 -0.368098
-15.1099 113.949 -13.0559
-20.3924 134.503 -2.95051
15.7258 133.985 -5.23407
3.75982 144.535 0.477965
-16.0234 119.48 -10.3912
-4.85691 116.684 -12.363
7.54462 144.471 0.217118
12.5756 136.589 -3.83872
-22.087 146.899 3.04206
-25.6495 125.021 -7.2244
-24.3173 129.828 -5.00225
3.44302 117.562 -12.4339
18.1632 126.193 -9.14232
-3.95157 116.591 -12.494
-11.5845 149.628 3.72695
-24.118 130.485 -4.72395
-16.5249 117.612 -11.3095
-24.2805 129.279 -5.29528
5.61165 143.261 -0.297931
-26.0261 126.958 -6.32101
-20.9919 147.779 3.34971
-13.7752 124.271 -8.30124
-6.62517 114.203 -13.5277
10.4659 131.202 -6.36948
10.8331 136.277 -3.96609
-0.410506 116.281 -12.8963
3.85547 146.596 1.35537
8.89233 129.763 -6.97867
14.4563 145.652 0.304044
13.2271 137.37 -3.60554
-16.7283 117.458 -11.4432
12.3338 133.244 -5.55204
11.7971 132.297 -5.97713
-0.5823 116.441 -12.8733
12.0999 144.647 -0.117555
7.30967 144.532 0.0883127
19.043 124.457 -10.1796
-28.7912 117.157 -10.9838
18.6428 124.409 -10.1966
8.77155 147.126 1.21882
-7.01394 113.71 -13.8784
-25.0749 128.441 -5.8214
-18.3437 114.463 -12.9013
-27.2901 133.123 -3.47653
-14.1236 123.903 -8.62798
-29.6694 130.085 -4.80325
-28.8438 117.922 -10.6667
-28.171 115.616 -11.8264
-6.60556 114.791 -13.4377
-18.2593 115.188 -12.6026
-25.16 143.632 1.37685
-22.1935 132.624 -4.05789
10.489 138.784 -2.98732
-27.9709 114.358 -12.5105
-14.6534 113.29 -13.7758
12.3097 132.98 -5.88645
8.2136 123.87 -10.0171
15.1129 138.255 -3.53022
-19.4433 113.971 -13.1976
15.1457 136.944 -4.16442
-4.93188 117.55 -12.3079
-10.9408 127.637 -7.14719
-7.38971 113.275 -14.2179
8.4058 146.912 0.970308
-28.5967 117.523 -11.0069
9.06257 148.348 1.60809
-11.7435 112.058 -14.577
-29.4694 130.707 -4.66594
-21.0782 132.318 -4.3872
-24.5704 113.013 -13.4227
-24.3588 127.692 -6.42182
-26.006 131.03 -4.73383
5.82899 119.372 -12.1224
-24.9092 127.214 -6.64278
10.9815 132.205 -6.30404
-22.2335 113.292 -13.4788
-3.13223 117.061 -12.7566
-7.51109 113.423 -14.2521
-21.7845 132.891 -4.14326
-24.2355 127.766 -6.47711
12.5576 135.579 -4.83139
-11.1226 126.337 -7.95214
-11.4703 112.897 -14.3645
-18.4072 116.394 -12.3041
14.6192 133.935 -5.79682
-23.7766 112.001 -14.125
-14.5348 125.602 -8.148
-0.600581 117.383 -12.8645
-23.7159 112.194 -14.0443
-17.8005 119.399 -10.9429
-15.6186 124.185 -8.79531
5.93831 119.78 -12.1175
14.4163 135.23 -5.20758
13.6787 133.108 -6.1809
-24.1066 131.056 -5.06123
-10.9745 128.582 -6.99116
-20.5918 114.799 -13.0484
-24.8266 128.536 -6.24285
5.12351 148.932 1.82185
8.86171 148.661 1.47739
-18.4432 116.886 -12.197
5.14318 148.927 1.792
-13.683 114.772 -13.4801
-23.4921 129.603 -5.83949
14.5584 139.222 -3.38486
6.65011 120.601 -11.8465
-12.6521 119.949 -11.0788
-28.8761 131.956 -4.44119
-27.5226 124.294 -8.18514
8.39469 123.94 -10.3793
14.5414 138.788 -3.63958
-11.6809 123.126 -9.66199
-13.4863 114.412 -13.7291
-20.859 133.761 -4.06897
13.9573 134.629 -5.61651
14.1365 136.846 -4.57559
14.5361 136.831 -4.60623
-28.3853 135.618 -2.77154
10.2637 141.193 -2.30521
-24.3603 114.488 -13.1553
12.8496 133.775 -6.03464
-27.9423 117.612 -11.4961
8.43583 124.31 -10.3506
-22.16 146.951 2.19963
-0.57649 118.545 -12.6091
14.7948 147.483 0.36011
12.9156 133.536 -6.22052
-25.804 142.791 0.373851
-11.3495 114.06 -14.1886
-11.981 113.693 -14.3347
-1.19276 121.864 -11.0408
-13.0323 113.931 -14.1668
-1.59676 118.891 -12.4432
-20.5571 116.582 -12.48
-27.9106 136.18 -2.73344
6.44442 121.617 -11.6381
-22.7578 132.733 -4.67831
-12.2331 120.38 -11.183
-11.2536 114.336 -14.1449
-24.6244 132.24 -4.8498
-23.8399 114.848 -13.2108
11.5767 145.255 -0.683536
-5.8235 117.917 -12.7773
-12.6646 128.63 -7.27998
10.5467 138.075 -4.07521
-11.3527 129.613 -6.88925
-22.3686 115.233 -13.1874
-27.8768 123.204 -9.07995
2.82215 119.935 -12.3866
-21.4773 131.962 -5.27279
-18.7623 136.095 -3.45413
-0.220591 120.448 -11.9834
-19.1374 119.912 -11.1812
-10.3649 126.488 -8.53326
-19.5647 118.719 -11.7326
13.0559 149.547 1.16811
-27.7339 123.932 -8.79459
-27.1016 131.206 -5.36391
-0.411393 122.593 -10.9923
-21.3146 117.183 -12.4143
-1.77536 122.265 -11.0861
2.47708 120.341 -12.2549
-8.8125 130.375 -6.842
-24.5652 128.268 -6.96757
-18.0651 120.949 -10.849
-6.83603 116.836 -13.4499
-20.8872 134.24 -4.39364
-3.06727 119.023 -12.683
10.5466 142.962 -2.00717
-11.3401 130.448 -6.76324
-22.0915 116.234 -12.9595
-2.46126 120.655 -11.9536
-19.6049 120.002 -11.3012
-25.6699 142.663 -0.123717
-27.2994 130.376 -5.91139
-20.5447 134.594 -4.30441
-13.2098 128.569 -7.60107
-4.11181 119.67 -12.3901
-20.7358 133.482 -4.85272
-10.0363 126.725 -8.6914
10.6745 132.777 -6.99174
-27.3322 135.878 -3.37557
-2.77773 121.217 -11.7762
-18.656 136.856 -3.4055
9.10875 128.366 -9.03098
-27.5315 123.165 -9.45768
8.15819 124.671 -10.7598
6.11268 149.8 1.33597
-3.49122 120.1 -12.3293
0.27694 123.991 -10.6902
-7.10178 117.293 -13.4854
-25.9098 132.541 -5.13775
-26.8538 120.08 -11.0473
-8.6211 130.095 -7.29689
-4.80129 120.187 -12.2567
7.42794 148.953 0.801239
-18.2337 136.238 -3.83795
-18.7925 138.205 -2.86655
-9.08327 132.583 -6.13887
-26.4226 140.391 -1.44681
-26.4503 119.518 -11.4364
-19.7669 120.566 -11.3125
10.8089 133.025 -7.08069
-19.8824 136.047 -3.90776
-1.98256 123.755 -10.8057
-7.25037 132.536 -6.31013
-9.79395 126.799 -8.91311
-18.5564 122.857 -10.3233
-18.4423 121.676 -10.9159
-26.2728 119.478 -11.5271
-21.2968 118.578 -12.2393
6.08229 149.217 0.862948
-11.2123 115.995 -14.0501
-0.201017 125.119 -10.3134
-10.8924 122.751 -10.8484
-11.8405 117.251 -13.427
11.7019 149.047 0.443403
11.6891 146.02 -1.01387
-26.166 119.618 -11.5179
-25.2597 133.828 -4.8009
-15.3447 127.64 -8.3211
-24.8055 117.555 -12.6254
-17.4236 127.457 -8.31993
-21.8609 147.386 1.45632
-9.94528 116.79 -13.8831
-4.68058 120.721 -12.2999
6.97368 123.619 -11.5831
-26.0662 138.936 -2.40537
-23.8383 128.876 -7.34183
-19.8688 149.306 2.19716
6.97735 149.153 0.552831
-25.9028 120.671 -11.2188
4.18589 122.665 -11.9681
-25.5419 119.326 -11.8947
-23.286 117.59 -12.8559
-10.4535 151.812 2.77655
-11.1466 119.117 -12.8339
11.4061 151.172 1.21702
-12.1181 151.531 2.71108
11.8336 146.448 -1.07134
-18.3042 138.032 -3.3995
-25.7589 120.695 -11.2703
-28.6659 131.243 -6.06778
-9.7598 117.447 -13.7334
12.139 147.312 -0.692531
-26.7 122.673 -10.2976
12.523 150.381 0.737252
-24.0226 123.738 -9.95259
-24.6065 118.738 -12.3178
-22.621 146.488 0.839624
-28.0822 131.169 -6.21394
-26.5057 122.631 -10.4035
-24.2246 121.449 -11.1057
-24.9386 123.971 -9.86852
-24.5035 119.274 -12.1459
-27.9195 131.166 -6.26725
-18.5403 138.125 -3.48661
-23.0594 122.847 -10.5497
-7.85653 135.302 -5.47362
-25.9196 139.207 -2.60697
7.6502 149.861 0.588972
-22.8552 122.773 -10.6542
-5.51482 134.17 -6.18692
-11.25 151.866 2.59455
-0.733375 127.538 -9.63904
-2.71024 124.463 -10.9996
7.3823 151.296 1.25116
-24.8421 142.001 -1.39734
-22.0912 121.701 -11.2632
-23.0432 119.46 -12.2895
6.41847 123.695 -11.9263
-5.43766 136.002 -5.38953
-8.95285 127.565 -9.22965
-9.88293 122.729 -11.4908
-4.85838 121.364 -12.4357
-16.2574 128.154 -8.56963
3.59911 123.814 -11.7817
-2.37325 125.582 -10.6037
0.0281589 127.287 -9.95269
-17.3316 136.531 -4.55571
-16.932 150.927 2.29501
-15.8208 128.386 -8.5726
-24.676 133.181 -5.80421
-21.5402 131.591 -6.74283
-10.3297 152.305 2.52511
-25.3754 134.935 -4.93436
-7.57316 129.593 -8.49302
-0.153497 128.445 -9.46771
8.21249 150.766 0.720455
-7.98811 128.314 -9.10657
10.8188 134.293 -7.31965
-20.7464 121.745 -11.5441
5.33832 124.042 -11.9186
-23.1323 124.147 -10.2672
-5.50887 137.808 -4.75107
-22.0036 130.974 -7.0959
7.00208 125.262 -11.4703
-22.3701 130.626 -7.28607
-21.7396 122.924 -11.0077
-10.2583 134.082 -6.32186
-4.14084 135.626 -5.92917
-15.9203 128.536 -8.66375
-22.051 130.875 -7.2017
-20.4254 148.628 1.13962
-3.70478 134.594 -6.51741
-18.7097 150.265 1.79327
11.0296 149.356 -0.321113
-21.0377 124.24 -10.5248
-21.4555 131.601 -6.98202
-25.1255 132.165 -6.50791
2.6669 125.431 -11.2958
-22.0224 123.43 -10.8625
-23.6113 144.464 -0.717821
-7.77231 126.18 -10.3608
-2.95107 125.968 -10.7358
4.20869 124.838 -11.7207
-23.8717 126.313 -9.43511
-3.56279 136.285 -5.81919
-8.99158 121.792 -12.4502
-22.4679 124.767 -10.2754
-11.7422 132.88 -7.00373
8.22196 151.645 0.828548
-5.43019 122.153 -12.5185
-6.25966 121.397 -12.847
-3.07397 134.753 -6.65277
-24.4978 140.495 -2.71079
-6.9951 121.081 -12.9868
-23.6149 141.269 -2.40459
-19.8308 136.169 -5.06202
2.94265 125.853 -11.2823
-4.5651 133.548 -7.18055
-5.54567 122.241 -12.5358
-6.67754 121.462 -12.8487
-10.9692 133.921 -6.65264
-3.81875 138.837 -4.70882
-18.1194 139.225 -3.73
10.7225 149.924 -0.26409
-21.1699 131.796 -7.1404
-7.98294 122.834 -12.1777
-6.01893 131.124 -8.34912
-6.09499 130.602 -8.62214
8.78557 152.064 0.801496
-5.61201 132.365 -7.80888
-22.03 130.567 -7.75167
-18.2109 150.102 1.36168
-9.00763 153.173 2.30592
-9.38938 153.075 2.26507
-25.0691 140.185 -3.03148
9.68487 138.041 -6.02328
-4.29881 125.479 -11.2579
-6.51726 123.17 -12.2565
-23.3121 140.728 -2.95663
-22.7319 145.62 -0.652113
-22.3266 127.506 -9.34526
9.01667 152.449 0.79761
-6.0541 127.992 -10.0656
-18.5171 139.304 -3.95639
-10.6017 134.84 -6.54757
0.31321 130.214 -9.3842
0.103138 130.281 -9.34004
-22.418 130.113 -8.15569
-23.006 129.448 -8.45527
-18.1112 149.41 0.810069
-16.0318 129.183 -8.9823
-18.002 149.386 0.786968
-23.4683 140.036 -3.38478
-16.6522 136.249 -5.59756
-10.8291 134.799 -6.64353
-18.3725 129.15 -8.92033
-22.0942 146.189 -0.593215
-17.1819 138.567 -4.52364
-18.323 134.978 -6.20128
9.04486 153.316 0.978557
7.79953 128.639 -10.754
-21.9994 146.206 -0.679515
-22.9999 139.899 -3.64891
-3.61085 132.915 -8.08691
-3.10073 133.219 -7.99077
-11.2686 134.635 -6.86333
9.04558 130.851 -9.81882
-21.9274 140.708 -3.36048
4.19642 127.304 -11.2549
5.31254 127.502 -11.2518
9.1782 153.947 1.11171
-21.1 147.257 -0.388262
-21.5421 146.564 -0.707695
-22.6753 144.324 -1.72522
9.1436 154.066 1.13615
10.2828 140.046 -5.63368
9.08854 131.068 -9.8755
8.00818 129.284 -10.6857
-7.34978 137.944 -5.7012
-3.7657 132.015 -8.76048
-23.8558 135.774 -5.83655
-1.93437 142.317 -3.9508
-1.36119 141.764 -4.24992
-1.34621 131.875 -8.9845
-3.58093 129.568 -9.97883
10.1106 150.803 -0.605187
-1.16224 137.787 -6.21306
-22.1529 142.335 -2.86688
-10.6771 135.623 -6.73161
-15.6847 130.948 -8.7048
-0.932569 142.669 -3.93523
-21.4345 130.681 -8.51442
10.3863 135.08 -8.21089
-11.4487 134.908 -7.07858
1.19098 131.139 -9.62233
-22.2902 144.901 -1.72141
-17.2834 150.497 0.665923
-2.72585 142.484 -3.98882
-22.2661 142.751 -2.7961
-21.9013 142.525 -2.93201
-23.1195 135.323 -6.3175
9.89582 142.053 -4.96481
7.31806 129.939 -10.6452
-20.3827 137.39 -5.53232
-3.6489 142.315 -4.14054
-23.7469 133.237 -7.35251
-16.6422 144.446 -2.41022
6.40837 132.334 -9.50939
-20.8223 142.083 -3.31541
-16.8676 140.408 -4.35039
-20.4909 141.766 -3.51685
2.48317 129.691 -10.589
-20.198 139.473 -4.64451
7.29387 130.344 -10.565
1.26188 131.577 -9.64619
-16.6584 144.294 -2.55841
-20.838 136.942 -5.85141
-4.60211 141.455 -4.61334
8.78208 133.941 -8.9965
-7.77372 138.193 -6.05203
5.49183 132.863 -9.35715
-18.2341 141.948 -3.71536
9.49383 134.364 -8.90578
-17.8017 145.174 -2.2063
5.05793 132.474 -9.57258
-7.07304 138.772 -5.89175
-21.2807 129.071 -9.74151
4.29899 130.551 -10.483
3.55445 130.36 -10.5413
-5.96763 140.345 -5.23471
-24.1536 136.879 -5.91977
-0.148838 139.882 -5.85675
-16.716 130.746 -9.3234
-9.02445 137.657 -6.45838
0.226616 141.637 -5.08283
10.1826 135.767 -8.46289
0.351851 145.247 -3.37738
7.3481 134.328 -9.00636
4.47883 133.601 -9.19458
-24.0641 138.809 -5.09527
0.637203 134.585 -8.51862
8.67019 134.604 -8.96271
0.93767 145.213 -3.46665
-0.0370785 134.625 -8.47559
-18.9056 140.811 -4.4641
-0.493151 137.457 -7.1093
-17.808 130.582 -9.43023
1.87055 131.833 -9.94697
-19.5194 131.553 -8.88532
-19.5562 131.636 -8.8725
-0.311939 138.461 -6.71476
-20.6896 145.092 -2.41901
-23.1882 136.101 -6.58063
-18.8431 131.587 -9.01899
-0.558032 135.464 -8.22359
2.22297 132.55 -9.83543
3.37978 133.624 -9.39395
-20.4465 143.805 -3.1859
6.22279 135.127 -8.84592
-17.417 139.928 -5.22384
-20.7371 132.561 -8.58212
-16.1236 139.629 -5.51664
-0.402023 136.539 -7.88525
-11.0701 136.073 -7.53133
1.75346 133.334 -9.56591
8.27101 154.555 0.209602
-19.5704 132.152 -8.94114
-0.473132 146.095 -3.36561
9.5343 147.569 -3.22904
-16.3621 149.772 -0.729205
-6.32906 140.89 -5.55644
-1.31591 145.616 -3.60755
-17.8247 146.843 -2.10849
1.93266 144.136 -4.52587
1.70254 135.546 -8.63118
0.593309 137.137 -7.8087
-23.7602 137.866 -6.11736
1.96582 143.385 -4.92971
-16.954 131.18 -9.70669
9.9743 144.365 -4.9245
-18.2631 146.754 -2.20562
9.03877 136.197 -8.79601
7.62514 135.93 -8.84731
2.08093 142.826 -5.25523
-16.8132 140.163 -5.49697
8.5939 154.164 -0.240545
2.33355 143.092 -5.2066
-16.2672 150.389 -0.680796
-15.7084 136.133 -7.53935
1.37716 139.017 -7.12487
-23.0911 137.669 -6.41828
2.70506 148.469 -2.72962
2.89369 144.968 -4.42329
-17.8278 133.902 -8.58273
2.31374 138.324 -7.61081
9.70759 150.045 -2.44803
-5.06512 142.913 -5.03239
3.53347 149.234 -2.50179
-17.4766 140.467 -5.51377
-19.469 132.494 -9.23226
3.07245 143.228 -5.39147
-17.0901 135.085 -8.19338
7.51595 136.851 -8.73667
-5.15416 143.006 -5.09333
-10.1812 137.275 -7.56211
-19.4504 132.572 -9.29077
2.45803 134.751 -9.51019
-17.5663 141.082 -5.38214
-15.9543 149.856 -1.30827
-1.37191 146.906 -3.55732
-14.7183 151.538 -0.634014
-11.6911 152.433 -0.385778
4.13327 135.587 -9.37568
2.73727 137.262 -8.51868
8.87095 137.613 -8.77204
-6.44206 141.844 -5.89999
2.47984 149.964 -2.53099
7.6916 154.135 -0.846682
5.27249 150.222 -2.6401
3.85124 144.968 -5.08369
-15.7752 150.938 -1.15033
6.95305 153.166 -1.37834
-7.93137 153.797 -0.285044
8.76875 150.615 -2.84862
6.93552 154.313 -1.0191
4.20668 142.666 -6.46577
-15.2267 137.573 -7.82764
7.25542 139.091 -8.378
-15.3435 147.923 -2.89558
3.80751 151.409 -2.33931
8.44623 140.86 -7.65046
9.23733 145.409 -5.52977
4.91785 138.204 -8.73892
-17.0611 141.701 -5.84768
-11.5886 152.389 -1.10861
7.51431 139.771 -8.23882
-8.25568 140.894 -6.81532
-16.2515 141.1 -6.28372
-3.17392 146.596 -4.43175
5.07521 138.878 -8.63874
4.68047 142.984 -6.66436
8.84596 145.34 -5.81697
4.46394 152.742 -2.03723
6.62836 139.93 -8.30335
-7.82923 153.482 -1.04038
-13.805 151.647 -1.62796
6.27881 139.983 -8.34766
-15.7972 146.144 -4.18554
-16.645 144.145 -5.09593
4.77893 153.58 -1.80694
-3.71748 146.58 -4.70262
8.05453 141.655 -7.73204
9.13196 147.358 -5.10712
5.58546 146.953 -5.10766
-15.0174 139.36 -7.62839
-12.6435 152.24 -1.60489
6.3804 149.632 -3.94114
6.61688 141.903 -7.66878
-15.6246 144.266 -5.29373
4.61016 154.202 -1.70049
3.38579 153.587 -1.97925
-14.38 139.152 -7.91654
-6.63906 143.061 -6.52696
-14.4141 139.043 -8.0189
-15.3271 149.357 -3.04164
7.05113 149.509 -4.24258
5.99723 142.726 -7.42947
-15.107 147.058 -4.17103
8.58257 147.67 -5.28516
1.72017 153.448 -2.15036
-11.9478 137.584 -9.00091
-4.44647 146.634 -5.10095
-1.67276 149.301 -3.9859
1.50483 151.967 -2.91979
-0.361942 150.344 -3.59341
6.62498 145.848 -6.1525
-14.7366 150.378 -2.8645
-14.6097 138.43 -8.59598
0.58291 153.005 -2.51209
-13.2047 143.278 -6.39126
-15.0884 144.885 -5.52306
-12.8954 139.896 -8.13589
-15.262 135.195 -10.2796
-0.0168191 152.629 -2.84717
-3.25927 154.554 -1.83529
-8.95003 141.337 -7.83477
-14.4292 146.848 -4.90134
-4.51376 154.104 -2.01171
-3.31963 154.373 -1.97929
-10.7785 139.174 -8.86419
-14.492 147.444 -4.71705
-14.6351 148.742 -4.09842
-1.09001 151.113 -3.754
-1.67879 150.286 -4.15718
-1.00812 152.728 -3.06364
-14.0681 150.156 -3.58488
-13.856 136.888 -10.024
-3.10236 153.425 -2.72714
-9.54383 143.088 -7.31121
-13.9573 145.591 -5.87346
-5.6254 153.154 -2.81732
-8.70903 143.185 -7.41389
-11.5695 141.272 -8.20676
-13.3966 145.985 -5.91518
-11.8183 145.63 -6.17961
-8.50485 142.761 -7.76341
-5.99191 153.049 -3.06564
-5.78525 146.843 -6.23513
-7.42367 144.682 -7.20187
-12.6746 150.692 -4.13057
-3.98691 151.861 -4.09467
-11.3753 152.077 -3.65336
-4.99408 151.795 -4.32073
-9.96441 151.622 -4.64282
-11.9326 149.17 -5.79924
-6.70162 149.909 -5.81381
-9.39158 151.592 -4.87876
-7.32967 148.765 -6.45417
-10.1521 147.995 -6.70763
-8.01575 148.942 -6.46806
-9.53514 148.594 -6.56046
-10.7506 149.711 -6.05507
-10.6573 149.227 -6.39881
