ply
format ascii 1.0
comment Created by Open3D
element vertex 1969
property double x
property double y
property double z
end_header
-11.8222 121.128 10.4685
-8.93968 133.054 -5.70608
-5.95424 101.591 11.8962
3.16521 84.8215 3.27898
-12.6739 123.701 10.6911
-8.03905 128.866 -4.44383
-5.16134 99.4157 11.8531
-2.20567 93.084 9.79634
-6.64207 104.242 11.6761
-12.0449 123.608 9.508
-15.4368 139.697 5.03627
-0.329637 106.468 -4.97709
-12.1406 122.102 11.0569
-16.2879 134.864 11.0206
-0.379413 106.704 -4.92334
1.60867 84.6027 7.67234
-5.14493 99.7666 11.9476
4.78379 83.8516 0.705027
-2.73674 111.36 -2.77584
-15.7596 139.742 6.15229
-14.5043 139.65 3.3405
-5.02693 119.282 -3.31901
5.17022 79.116 3.83075
-5.31985 120.569 -3.39389
-12.7598 125.861 10.3133
-6.30281 104.151 11.9402
-13.5362 129.448 9.44005
-0.28553 89.8752 8.82142
-6.19909 123.605 -3.39297
1.96804 94.5856 -0.150755
1.60642 99.8339 -3.39997
-14.3881 140.163 3.42365
-4.95428 100.322 12.1387
-16.0958 137.31 9.78195
-14.6632 131.745 10.7299
-12.2028 123.378 11.4306
-10.6647 121.122 9.53657
-10.2936 136.942 -3.74832
-14.599 131.738 10.7222
3.71757 89.7221 -0.11274
-9.1659 135.064 -4.86919
-3.49599 96.9198 11.5008
-2.33135 94.8364 10.3506
-9.99072 136.418 -3.86664
-15.9929 136.744 10.3234
-3.45749 114.54 -2.20618
-15.6424 134.52 11.3214
-13.2301 129.193 9.80353
-2.22222 111.683 -2.75313
-9.21444 135.387 -4.61422
2.99654 83.7393 6.73772
1.86796 99.7267 -3.0346
-5.79793 123.6 -3.38122
-8.14663 114.166 9.81744
3.54886 91.1564 -0.0820825
6.28167 77.8982 3.79017
-15.7373 139.053 8.5041
4.32216 87.2998 1.13952
-6.02571 104.764 12.208
-3.8051 116.43 -2.14314
-8.08706 134.07 -5.72884
4.32456 88.1789 0.622459
2.30998 95.4867 -0.266335
4.84961 82.5317 3.85343
-9.93365 118.845 10.7323
-11.2388 139.138 -2.04194
-9.8202 137.301 -3.98576
-8.24785 114.782 10.0199
-14.6077 132.799 11.1424
-7.97835 113.172 10.7121
4.26862 82.8973 5.19205
-6.63623 107.256 12.1958
2.03788 97.9448 -1.01446
1.80026 86.4767 8.57354
-10.7358 122.995 10.0014
-6.94462 129.245 -3.85496
-12.7521 129.16 10.1673
-12.4109 140.932 0.148669
-10.9067 124.32 9.58834
2.46228 96.444 -0.506047
2.1547 102.739 -4.66899
6.38682 78.9139 4.24682
-11.8007 124.876 11.7046
-6.24906 107.072 12.4397
-15.1286 140.984 7.08022
-3.17167 97.9776 12.2348
0.0874169 91.4181 9.61176
-14.8394 134.377 11.6357
-2.02327 95.7522 11.2919
2.47579 99.3481 -2.18477
-7.09804 110.507 11.9872
-9.36653 138.243 -4.29072
-14.4691 133.847 11.3951
3.36477 94.3961 -0.301996
2.73173 96.7333 -0.559956
2.41543 101.341 -3.4152
1.57422 88.0174 9.07062
-9.78248 121.271 10.215
6.01786 82.8018 2.67805
5.97273 85.0515 1.04883
2.51841 100.695 -2.87114
2.45762 102.762 -4.34094
3.8743 93.559 -0.437977
5.13313 84.4501 3.70516
-7.25868 112.464 11.4564
-10.5923 124.742 9.81886
-12.4182 130.425 9.73704
-9.30914 119.798 10.7531
-6.50165 108.815 12.6705
-13.045 141.128 3.01932
-11.7164 140.124 0.650092
-10.2174 125.203 8.81417
-10.685 141.275 -2.58706
-7.59065 115.161 10.5067
1.54645 106.307 -4.35041
5.48298 82.8444 4.69006
-5.91874 107.425 12.7252
-3.75814 119.213 -1.60495
-5.68729 126.03 -2.32912
-3.99781 121.258 -2.45719
-12.2793 131.592 9.29565
-10.1079 140.474 -2.84148
-4.39629 103.325 12.9462
-10.2746 124.394 10.5291
5.61927 88.11 0.999772
-1.01184 95.3756 11.2474
-3.47394 100.825 12.8886
-7.84097 137.299 -5.07842
-12.4064 141.346 2.68594
-14.7417 138.643 10.4084
-11.9961 131.639 9.34629
6.78172 83.7685 2.02145
-6.4998 132.122 -4.07334
-6.49358 110.905 12.5805
-13.3008 142.547 4.039
-5.88031 129.105 -3.15825
-13.0453 142.404 3.5445
-3.27889 119.004 -1.38752
0.753837 110.091 -4.01695
5.37131 83.3066 5.96126
-4.07703 122.885 -2.44981
-6.45672 132.222 -4.05805
-14.6632 138.991 10.2666
-9.49542 126.081 8.1001
1.06936 109.493 -4.14485
-7.33667 115.507 11.2439
-3.61769 120.319 -1.37248
-12.0005 142.867 1.00739
-6.38334 132.554 -4.1681
3.67709 85.5162 8.72112
1.45933 90.6402 10.0066
6.36702 82.9823 4.33605
-3.57059 120.767 -1.46632
-4.01541 123.28 -2.28293
-11.7827 141.198 2.32291
6.71578 82.9241 3.80308
-3.10857 119.43 -1.29037
-5.77748 109.465 12.9314
-0.986075 114.512 -2.48458
-3.52026 120.912 -1.43154
-0.424801 95.1286 11.4055
-10.7732 144.151 -2.26839
-3.31428 101.763 13.1452
5.74444 91.7345 -0.646879
3.75841 97.8334 -0.664822
-1.98107 116.457 -1.47968
-11.1408 128.437 11.0825
-11.1488 144.716 -1.55807
-7.27259 137.754 -5.32234
0.383941 93.2195 11.3292
-0.727945 114.54 -2.64983
-0.0381231 113.688 -3.31684
-6.09763 111.514 12.9057
-13.221 143.334 4.9862
-3.3899 102.794 13.3079
-11.5729 132.3 9.74543
6.52974 86.6439 2.26997
2.5426 106.806 -3.99659
-8.71937 141.449 -4.22985
-8.52879 124.407 8.70498
-9.89573 127.057 9.90015
-11.2937 131.961 9.44113
-10.0394 126.902 10.4482
-10.8113 145.128 -1.95453
-8.62434 121.928 11.0363
-1.61651 98.4407 12.7418
-11.4097 145.516 -0.752689
-13.9802 138.91 10.5954
-4.67433 126.2 -1.68167
-8.37273 124.604 8.41728
6.40552 90.5269 -0.15862
-10.6182 145.129 -2.25485
6.59244 83.2644 5.17582
-10.0489 125.873 11.5608
-3.88598 105.005 13.2058
7.68151 86.0567 0.497567
-9.97611 144.626 -3.16821
-8.47023 141.779 -4.46435
-9.83774 126.117 11.1841
-2.52806 119.465 -1.07036
-5.90431 134.164 -4.51956
-10.602 129.966 10.059
7.6658 82.1019 3.97547
-2.31372 119.004 -1.02478
4.09541 99.4739 -0.963164
-9.66699 127.746 9.81341
6.54379 91.5811 -0.545731
-6.62548 115.049 12.6405
6.98698 84.843 3.85475
-12.7873 143.702 4.97658
-2.98557 121.327 -0.903729
3.94828 104.519 -4.2003
-10.0096 127.938 10.851
-8.05227 121.4 11.3584
6.24297 83.8132 6.67226
7.01257 85.9375 3.20397
4.01744 103.491 -3.38757
7.94155 84.0592 2.57343
-10.9654 132.492 9.89792
-13.664 141.345 9.44831
4.10305 102.745 -2.7549
-8.08194 126.71 7.69983
8.19206 81.9596 3.9929
0.50708 95.0358 12.1574
-12.0393 134.237 11.42
-4.42056 108.708 13.2315
-9.89832 130.424 9.38496
-11.2993 143.787 2.29815
-7.52534 125.226 7.85906
-5.00087 110.533 13.3886
-2.27471 102.316 13.3253
-11.4965 143.535 3.17255
7.28941 89.8238 0.390993
-11.7299 145.714 2.08945
-5.47393 134.59 -4.09005
-8.77415 144.694 -3.97977
9.46936 78.3858 4.43191
-8.99959 129.019 9.04109
-5.06581 131.6 -2.37059
3.12537 108.336 -3.69884
-11.8419 146.598 2.11779
-7.26986 125.774 7.72307
-9.19136 129.959 9.07121
-10.4177 132.553 9.98155
-7.67723 122.696 11.1649
8.53046 82.3761 4.10904
7.76451 86.4422 2.80015
8.32725 84.9549 2.68617
6.77327 94.6036 -1.16621
-5.65242 136.574 -4.19944
-0.133586 97.6675 13.1881
-1.66948 102.304 13.2687
-2.74155 123.423 -0.725907
4.7951 102.345 -2.15066
9.6706 78.604 4.84921
-11.8426 145.48 3.84434
8.30861 83.4655 4.3187
9.01044 86.2738 0.438387
-4.10411 109.7 13.4321
-7.29084 126.555 7.84086
-3.53149 107.996 13.4267
-7.98486 127.001 9.33752
8.04715 86.8357 2.5642
-13.0558 143.234 8.79468
6.08431 97.5818 -1.11028
-5.11069 113.728 13.0869
3.97433 107.761 -3.69898
-3.74938 109.723 13.2523
2.79604 91.5713 11.9587
9.3912 85.933 0.713521
7.57077 93.4998 -0.769191
-1.273 120.441 -0.73602
-6.98374 122.761 11.1608
-3.32969 126.795 -0.648447
-0.127086 118.466 -1.76072
2.17142 93.2192 12.5572
-3.48357 127.87 -0.934951
6.10642 99.1892 -1.3186
6.88264 96.8811 -1.33875
-5.99455 118.477 12.5595
-0.58326 101.053 13.3447
1.45598 95.1772 13.175
-2.78532 108.228 13.0909
-12.0675 139.541 10.7505
-4.71678 134.388 -2.77741
7.43195 84.4912 7.4076
10.1648 83.8777 1.44469
-11.9333 139.656 10.7531
9.01976 83.7419 4.72025
-10.9236 136.528 11.1324
-4.85993 136.632 -3.34743
-1.16805 121.736 -0.357477
-0.872694 103.958 12.9312
10.2088 80.809 4.6026
7.33045 84.9659 8.23954
10.2902 80.7085 4.69301
-0.610999 121.081 -0.859294
7.64339 97.328 -1.81615
-12.0334 143.82 8.77597
-1.32146 122.702 -0.262369
1.43698 117.6 -2.82431
4.42481 89.8952 11.8169
-9.91293 149.839 -0.869361
-1.33887 106.471 12.6618
-11.9985 144.442 8.37348
-5.00035 117.053 13.1238
-6.23487 127.169 8.1575
5.32221 107.39 -3.95882
-4.31643 134.971 -2.51797
9.1408 87.143 2.88602
6.26295 101.91 -1.79783
-5.84478 123.045 10.6013
1.88495 96.4907 13.0678
1.87467 96.6475 13.0701
-11.8549 144.442 8.42902
7.78716 97.6698 -1.72528
6.19541 103.268 -2.27955
11.3042 78.2896 5.19664
-5.25979 140.879 -4.18315
-7.71603 147.654 -3.57597
9.84108 83.8374 4.50711
-0.919099 106.499 12.4705
-8.84442 133.445 10.3619
8.44633 84.8147 7.29556
-7.45559 130.808 9.24834
-3.06279 113.79 12.1238
-6.82758 128.985 9.22308
1.78735 118.056 -2.80199
-8.75082 149.495 -2.17387
-3.69193 133.423 -1.64655
-5.87303 143.293 -4.15855
8.30192 95.7512 -0.73193
-3.82845 115.529 12.7825
9.31505 91.083 0.631371
-11.452 143.978 8.89397
4.4943 90.7969 12.4823
1.43936 119.127 -2.42808
-4.66995 138.826 -3.26904
10.7493 81.9273 4.63079
2.75659 115.989 -2.93847
-11.3671 143.705 9.11511
7.18967 101.77 -2.30948
0.147838 121.582 -0.986447
-10.3503 149.711 2.1328
-5.22066 123.149 10.7148
-7.85743 149.015 -3.21283
8.11521 97.9273 -1.26943
-9.20571 150.469 -0.931238
-1.22757 109.125 12.4639
-2.15379 112.49 12.1209
11.1857 81.2521 4.73898
-4.13009 137.784 -2.92098
-2.2597 128.743 -0.28949
4.91906 110.696 -3.26817
9.92899 88.1156 2.52847
-9.96403 150.706 1.04816
6.78564 104.477 -2.70052
-10.7523 141.892 9.92961
3.30225 95.5782 12.6935
-7.38139 132.025 9.69462
0.0430498 106.77 11.8554
7.08729 103.5 -2.29608
5.89415 108.897 -3.62652
1.24945 120.663 -1.73638
-0.31303 123.691 -0.32373
-5.01124 122.381 11.9712
-4.98597 123.766 10.8418
-10.6145 147.438 5.79665
-3.47296 135.381 -1.74374
-5.28252 128.522 8.02
-4.07681 138.798 -2.82157
-2.05682 113.903 11.8992
-9.79874 150.574 1.6621
11.7237 80.2902 5.35099
-10.5804 143.174 9.42978
-3.50813 117.734 12.5024
1.43862 120.785 -1.70469
9.47947 85.1037 7.08706
-5.53218 144.88 -3.8534
3.37102 96.6175 12.7152
-3.29423 117.508 12.2679
-4.08331 139.214 -2.79653
-5.62626 145.376 -3.88356
-1.023 110.817 12.3145
-3.57256 118.297 12.5894
-4.02031 139.452 -2.78525
-8.97954 151.294 -0.214675
-9.56719 150.74 1.65995
10.0819 91.4624 1.22018
4.38839 93.8287 13.0796
-0.226168 109.534 11.8621
-0.47603 110.161 12.0095
5.59885 91.3641 12.2697
-1.7783 115.027 11.5789
3.06936 98.8237 12.7384
8.8488 97.8567 -0.237334
4.05569 114.866 -1.98644
-9.99212 145.046 7.9786
9.13415 96.3854 0.419428
5.60542 111.154 -2.68132
-9.5138 149.373 3.5028
8.2528 87.2075 9.80061
0.567333 108.627 11.4275
-9.43951 140.796 10.1752
11.7669 83.5638 4.3932
10.3964 85.019 6.54802
10.6807 84.8283 6.14336
-1.95586 116.71 11.4257
-8.29563 138.38 9.70079
8.92263 99.6932 -1.01159
-0.81901 127.853 0.206434
-4.23166 122.506 12.5683
-9.42832 148.383 4.71534
3.32922 117.457 -1.53352
2.37638 104.152 11.2502
9.55024 95.525 0.972861
10.0446 93.8256 1.15152
1.37137 107.442 11.2216
-8.85271 151.875 0.847642
-8.9352 150.857 1.98757
-4.24548 125.357 10.9141
-5.00988 146.072 -3.49065
0.351421 110.693 11.4724
-8.00754 151.71 -0.683198
8.11616 105.777 -3.12298
-8.64452 141.43 9.12212
-5.0859 146.647 -3.45769
3.69566 117.05 -1.24094
-5.07783 131.755 8.26097
9.9544 94.9479 1.22865
-0.97632 115.389 11.3411
7.27632 90.2516 11.4605
-6.32442 134.665 9.17179
-6.48652 137.89 7.08351
-7.23331 139.197 7.84685
-8.98305 148.335 4.89736
-3.05599 139.195 -1.98442
3.44242 118.938 -1.57723
12.8565 82.6343 4.4015
5.92536 94.0155 12.0518
-6.98768 151.415 -2.08685
5.85356 111.568 -1.49528
-6.6925 139.161 7.03657
1.90792 108.108 11.0741
-1.45014 133.038 -0.443897
5.26505 113.324 -1.01342
1.3236 110.008 11.0264
7.35435 108.651 -2.28096
-8.57983 146.522 6.17106
11.5611 85.1861 6.16979
-8.18208 142.237 8.68797
12.7396 84.1175 4.36276
1.00335 111.253 11.1525
-6.65927 140.123 6.84719
-6.64308 140.125 6.83369
-0.473717 130.011 0.0313088
7.21861 93.7001 10.1199
-7.34625 152.092 -0.842287
5.49398 96.3212 12.2813
-3.09708 140.74 -2.0123
-2.99739 140.351 -1.91601
12.8829 84.6107 3.96151
-6.06669 139.137 6.53153
-3.2599 126.858 9.47241
9.84152 98.8062 0.265396
5.449 113.623 -0.789968
-8.30662 143.693 8.54269
10.0917 101.521 -2.33373
-6.51674 141.085 6.37238
12.8559 86.189 3.2188
-0.0549113 129.413 0.189264
-2.86003 125.95 9.66478
-5.64483 138.754 6.29739
8.37681 106.466 -1.87838
-0.901492 132.768 -0.247722
4.85053 99.2395 12.3262
-2.56862 139.56 -1.55565
12.7542 83.7725 5.57416
0.153643 115.143 11.1398
13.4466 81.0898 6.08498
0.521599 127.616 0.504281
0.844962 126.821 0.372171
8.73499 89.4214 10.8539
-7.91068 148.963 3.98024
6.16789 112.049 -0.727209
-7.89524 148.569 4.27796
-5.47672 138.816 6.17951
-3.39994 130.774 7.53789
-7.45468 145.197 5.94089
10.8678 94.5689 1.86193
8.31631 92.8491 9.36964
4.10527 118.915 -0.976607
8.57833 89.7875 11.2155
0.988565 113.044 11.1988
10.2859 101.856 -2.21603
-2.76249 127.182 9.16926
-3.33111 133.398 5.81911
-3.24202 143.338 -2.18613
11.5277 85.7059 7.7191
-5.80801 141.183 5.66165
7.73814 108.764 -1.2851
-4.82289 137.445 6.25782
-3.76536 133.671 6.70192
-0.477867 117.563 11.5865
-3.99454 136.123 5.45117
10.3214 86.9495 9.79486
-4.99526 149.897 -2.845
8.8097 91.2081 10.1851
4.64878 102.823 11.033
-6.76284 145.404 4.98283
0.4959 129.227 0.321513
-1.68791 121.78 11.4021
12.395 90.3493 2.38857
0.271825 130.268 0.0859914
5.45971 98.8312 12.3802
4.77075 117.204 -0.368922
-6.88547 146.398 4.73152
1.71958 112.272 10.9274
-5.34748 141.284 5.08181
5.72397 98.3036 12.3493
7.07168 94.9806 11.7464
4.98761 116.628 -0.249437
-3.19073 132.849 6.59392
5.97741 113.772 -0.355966
-4.43229 137.93 5.60848
3.10621 123.397 -0.953079
-2.78179 131.409 6.89757
-2.11936 126.399 9.24439
-2.65229 141.995 -1.69262
13.9788 83.0129 4.87751
7.07596 95.0978 11.9139
-2.3124 127.806 8.78028
14.0806 81.496 6.00832
6.47769 97.0062 12.0574
-2.10225 123.833 11.5563
-3.45208 145.718 -2.38011
6.45597 97.1013 12.0688
2.88156 124.413 -0.75097
-3.86376 137.924 4.79241
1.35844 127.521 0.511541
-5.38402 143.022 4.48989
-4.01861 138.62 4.71227
13.8861 85.6744 3.51583
-3.10449 134.523 5.93799
9.20754 91.1293 10.5605
-1.17253 136.472 -0.170024
-2.85183 134.071 5.73504
13.539 86.5653 3.82502
8.59567 107.494 -0.656805
6.86524 96.7456 11.9977
-2.39438 132.277 6.321
-2.16332 130.236 7.4105
-0.88976 121.751 11.0618
-6.67552 151.232 1.95942
9.40733 91.1408 10.6433
8.32978 94.7687 10.3937
14.4319 82.3352 5.57911
10.395 91.3155 8.19035
-4.57264 142.795 3.79035
9.58688 105.64 -0.911595
-2.10519 132.394 6.06764
-2.52554 143.576 -1.63743
9.83308 90.7162 10.3645
-1.70594 129.045 7.93576
13.6177 87.894 3.60683
12.4214 87.6208 6.71671
-2.09222 133.35 5.75361
-1.66299 129.804 7.51751
1.96807 127.771 0.45572
6.25307 99.9941 12.0141
10.7985 102.822 -1.04749
2.42094 126.875 0.122104
13.0888 88.1154 5.02726
10.3727 92.6099 8.14364
5.70183 103.548 10.7799
1.49445 129.574 0.479024
-5.59665 147.446 3.43589
2.87066 112.502 10.7306
-1.23878 139.538 -0.591895
13.3809 87.9315 4.94783
-4.67587 152.159 -2.22859
1.54372 129.86 0.463942
9.12685 94.7078 9.99219
0.470983 119.699 11.0974
5.89379 117.429 0.122877
14.525 86.484 3.79761
0.123783 134.848 0.328139
6.68803 99.9794 11.9976
14.1143 87.0156 4.42866
14.1038 87.2179 4.34359
12.5029 89.3097 6.53221
-3.47391 140.946 4.23841
-1.14691 125.722 10.6345
14.3669 85.6405 5.02038
-2.85513 147.124 -1.9723
8.00646 96.6845 11.6916
11.6691 90.3791 8.01134
10.3399 105.307 -0.510823
7.12831 113.991 0.454033
-2.88535 147.802 -2.01587
4.25527 123.437 0.173854
0.548155 121.183 10.8329
11.3438 92.4838 7.55637
0.814383 133.725 0.5041
6.46077 116.24 0.716858
-0.858625 140.21 -0.479336
8.55589 96.6447 11.2186
11.6009 89.2466 9.77145
13.5131 90.8894 3.97467
5.94751 105.483 10.6301
-0.0125441 137.264 0.0721222
12.4448 90.4722 6.9864
-3.25999 150.026 -2.03392
-4.1325 146.483 2.83912
12.0423 89.0498 9.30487
9.37876 108.976 0.105813
-1.96903 145.545 -1.43601
12.0635 89.5416 9.02071
14.9164 85.2919 5.66493
15.5763 82.8021 6.04752
12.2705 96.9238 2.87658
15.566 79.1686 8.93133
2.31728 116.543 11.3725
-1.66105 135.536 6.05123
12.4286 99.8309 0.446243
5.22464 108.835 10.6833
7.64265 100.261 11.674
-0.968229 133.893 5.90569
12.7554 100.331 -0.569166
1.60062 119.054 11.4266
5.02651 109.742 10.6004
11.4025 93.8955 7.83636
11.094 105.024 -0.154105
-0.203891 128.14 8.80046
10.1578 96.0292 9.21515
4.51214 124.427 0.451513
-0.35088 131.77 6.34765
4.63226 123.975 0.546694
10.4575 106.907 0.0278038
4.75672 123.54 0.614571
13.2471 88.122 8.13212
-0.661862 130.856 7.91352
7.1118 103.738 10.6853
-0.505164 130.116 8.25752
12.3055 102.167 -0.389502
13.6587 89.882 6.21137
11.5409 104.393 -0.0961296
2.30243 131.674 0.709293
-0.999908 143.982 -1.01346
2.05887 118.555 11.6308
10.7042 96.3976 8.40973
13.1901 91.1048 6.74449
0.53238 138.206 0.104372
-1.37149 137.801 4.99901
12.5452 89.2384 9.81816
-0.896123 135.064 6.02816
7.0913 116.963 1.14083
12.9898 95.8422 3.61118
13.7891 85.0045 10.2208
-0.625394 134.465 5.97571
12.6746 89.7223 9.33409
-3.32024 152.763 -1.82078
1.04132 123.245 10.9211
12.4395 89.8273 9.89817
-1.56564 146.77 -1.26544
12.2225 93.5621 7.50132
13.6677 87.5598 8.87444
13.3 88.8513 8.75672
6.50383 107.192 10.6413
12.337 90.2723 9.9668
13.3276 100.55 -0.421425
14.1865 88.8476 6.72676
16.2654 81.3695 7.79181
-1.04217 137.162 5.4752
10.631 108.166 0.434181
0.798625 125.266 10.5752
3.28541 130.156 0.825121
9.69872 110.808 0.669607
12.9815 97.5933 3.20103
5.81852 110.084 10.5867
-0.75637 136.216 5.8575
12.2173 92.4823 9.17945
12.0335 90.6356 11.0749
-0.921781 137.498 5.30073
1.94292 121.666 10.9428
0.343428 129.219 8.91293
7.77839 116.226 1.32456
13.5343 89.1726 8.81755
0.505404 130.173 7.8346
12.4372 89.8989 10.9093
-1.98927 143.02 3.77021
13.3244 88.8436 9.65013
0.764939 139.755 -0.185857
-2.33193 151.267 -1.69278
0.900809 130.595 6.84332
7.59156 106.268 10.1406
0.713114 129.87 8.08838
11.77 93.027 10.5726
1.27461 138.462 0.11517
13.2797 90.6885 8.96004
16.6512 81.2207 8.32832
14.7735 88.8853 6.81367
-2.53617 152.47 -1.66615
5.71945 123.719 1.1794
3.74994 130.169 0.849537
1.07922 130.124 7.37033
-0.418805 145.445 -1.05416
15.0881 85.4861 8.91088
11.5496 97.7979 7.72944
6.15999 122.504 1.25013
13.0373 90.7878 9.7498
14.6339 85.5505 10.0554
7.95025 116.992 1.4912
16.6204 83.9879 6.65593
13.3966 91.4702 8.58619
-0.521314 138.228 5.20632
7.15025 107.899 10.6812
11.2932 107.975 0.714447
11.0789 99.5027 7.88988
7.3653 107.507 10.5111
-0.629402 146.872 -1.21328
4.38095 115.662 11.303
13.5989 91.2954 8.41704
0.131862 135.352 6.09188
13.3289 92.4382 8.24643
3.75721 117.406 11.6388
14.2509 84.8673 12.0998
7.61138 118.44 1.64533
14.055 101.089 -0.149869
0.572631 133.82 6.53112
3.16893 120.006 11.2599
15.008 87.9261 8.11937
17.0281 81.3223 8.52316
1.7159 139.048 -0.0158172
-0.940444 141.562 4.4229
14.4762 85.668 11.4038
1.96521 128.888 7.45048
14.8491 88.2495 8.59681
14.3242 85.0249 12.4165
11.5523 108.187 0.898561
3.36224 120.086 11.1591
6.92984 109.861 10.6921
7.88697 107.404 10.3674
11.954 93.8262 11.3115
17.0946 80.1188 9.92612
13.0202 96.1599 7.1006
-1.58812 151.804 -1.6126
1.90897 127.777 8.98708
11.0644 101.041 8.08509
-1.4919 151.741 -1.63824
13.9869 92.0033 8.20837
13.6454 94.1308 7.37405
0.667816 144.15 -0.78054
2.75204 136.025 0.698668
0.76615 143.942 -0.750643
-1.25451 151.275 -1.66744
14.6849 94.1165 5.09321
7.37446 120.857 1.74135
14.0576 92.3917 8.19394
15.1961 85.8559 10.6057
-0.462392 142.328 3.77706
15.0938 88.196 9.03788
14.309 96.5607 4.39928
16.8736 85.1402 7.32974
15.5281 85.6379 10.1936
14.8033 86.5873 11.185
14.7041 84.764 12.8683
6.79825 123.289 1.56417
14.158 93.4059 7.47057
3.10883 136.094 0.618273
14.9244 94.2728 5.19741
14.8482 101.223 -0.0724439
13.8851 92.6122 9.02363
8.59259 107.253 10.2366
8.86066 106.728 10.0549
14.0506 92.3342 8.948
14.9321 86.613 11.4283
9.03099 106.523 9.97867
7.37616 122.514 1.44594
14.8241 100.132 1.21282
-0.131249 149.357 -1.62054
0.987076 137.035 5.38814
10.5477 113.036 1.38124
13.7247 104.247 0.687801
1.59362 142.83 -0.557392
8.08114 108.708 10.7128
14.8916 84.6957 13.4479
14.6835 96.6889 4.55548
14.7225 99.1103 2.58883
15.2294 88.5256 9.72109
13.6494 91.1155 11.5153
15.1005 101.179 0.161714
5.1278 130.334 1.14216
5.092 130.506 1.09339
3.5244 136.034 0.515948
16.0767 85.9055 9.85929
12.7585 100.146 6.63322
0.721611 138.933 5.0228
7.92577 109.843 10.7243
8.05311 121.118 1.60729
-0.00451305 144.676 2.414
13.9602 104.337 0.706705
15.363 93.9491 5.51007
13.9099 94.391 8.73413
14.8277 97.1859 4.37895
15.7867 87.3697 9.83566
3.89408 135.729 0.444587
1.32606 137.587 5.13401
3.06286 126.988 9.4897
5.53278 117.041 11.4767
3.28977 138.923 -0.319882
4.7124 121.066 10.3163
2.42975 142.13 -0.700979
13.6604 98.6441 6.55896
14.228 104.427 0.674
3.4039 125.374 10.133
6.70347 114.361 10.9584
14.9827 89.9785 10.4947
5.05323 132.651 0.768208
1.57724 145.993 -1.32726
10.2153 116.713 0.993871
11.4387 103.102 8.75014
10.2968 115.712 1.62182
15.1381 92.8076 8.16942
1.62063 138.074 5.02798
15.0729 85.8311 13.8625
10.3888 117.28 0.435136
4.31986 136.158 0.145736
4.70446 134.894 0.25842
-0.456004 153.82 -2.23409
12.7792 96.9682 10.788
3.73216 128.464 7.72855
17.5656 86.0417 8.05871
15.9488 88.9847 9.61965
9.22234 108.432 10.4533
13.4681 93.0978 12.3406
13.1774 108.042 1.35014
15.2175 93.2766 8.10681
12.6739 96.9111 11.3695
15.5188 87.4219 12.0477
18.6122 82.0578 8.98399
5.05456 135.202 -0.230638
10.4395 118.698 -0.153414
13.0555 94.3532 12.7318
1.20607 149.552 -2.01298
13.8756 99.9883 6.59592
16.4934 85.7214 11.5559
3.22981 142.152 -0.954877
11.0258 117.547 -0.292574
15.52 99.4711 3.14085
18.7931 82.5728 8.61833
4.7578 136.893 -0.415226
12.6719 96.4159 12.4122
11.7555 112.998 1.6048
15.7939 84.7761 14.0858
6.9311 131.742 -1.53683
11.5112 113.677 1.68187
5.31355 135.668 -0.717444
18.7573 81.1115 9.95149
4.89628 136.808 -0.546334
4.61999 137.487 -0.413815
17.4891 88.0852 7.66265
1.17691 150.581 -2.33698
14.9159 91.3687 11.257
5.91545 133.465 -0.164964
1.07093 151.041 -2.35826
16.125 85.7426 12.908
3.08612 133.717 6.4632
3.08694 143.584 -1.23413
15.8599 87.6421 12.1635
4.95453 124.749 9.14694
13.8294 100.875 6.7172
14.2757 99.796 6.58453
3.08227 143.952 -1.28475
7.47573 131.228 -1.79546
13.8922 100.826 6.73376
14.998 91.6521 11.3592
2.69122 136.744 5.44713
7.46273 128.525 0.57095
10.511 107.316 9.97108
2.1274 143.705 1.57628
7.97748 129.119 -0.946878
2.06551 143.215 2.14744
8.65683 124.84 0.812376
11.5828 115.927 0.833754
15.5205 86.7137 14.36
5.00908 138.505 -1.10298
16.3012 102.351 0.270855
0.528832 153.656 -2.213
2.15938 143.3 2.01424
12.9798 98.277 11.4566
7.93021 114.44 10.8989
9.09897 126.587 -1.41777
2.62232 138.457 4.77816
9.2874 126.984 -2.12363
8.96087 127.145 -1.42437
3.90729 142.34 -1.24235
13.1975 98.35 11.0728
6.69029 119.662 9.9221
9.42384 126.861 -2.21441
9.35157 124.014 0.301723
7.30092 133.884 -2.53412
11.0835 119.72 -0.393135
11.5969 105.67 9.43451
16.5544 89.2 10.6253
7.77159 115.382 11.1036
5.36861 126.922 7.82816
18.1383 87.5181 8.22493
5.89007 124.798 8.30924
9.85369 123.109 0.198405
5.55639 140.047 -2.80838
12.5892 115.509 -0.360816
5.19685 127.723 7.76689
10.2389 123.498 -0.867885
3.71461 145.046 -2.15796
15.3816 95.3039 9.04902
14.31 108.291 1.44113
11.1269 120.427 -0.373081
10.0731 123.435 -0.194008
10.5704 125.058 -2.6528
4.85085 142.314 -2.49573
8.6568 113.719 10.8471
3.67086 145.786 -2.36644
4.61284 143.084 -2.42647
16.5724 102.13 1.10647
8.5367 131.339 -2.55397
12.7055 116.609 -0.944619
3.07126 147.977 -2.45112
13.4159 111.255 1.65976
16.7164 96.9832 4.9831
6.07261 125.425 8.18771
10.7464 122.554 -0.690229
12.8155 113.686 1.31949
19.7092 81.9812 9.75469
15.7879 92.1255 11.205
11.554 107.014 9.68278
10.6787 122.497 -0.348154
7.0918 138.299 -4.16034
16.1747 91.3047 11
15.4087 92.7672 11.7311
4.94447 129.474 7.9704
10.5866 109.496 10.1505
7.15971 138.306 -4.23274
3.52197 142.951 0.857374
11.2611 121.004 -0.393931
4.35643 145.116 -2.78805
20.2762 78.5978 11.4298
16.8164 102.435 1.01453
19.766 80.624 11.0798
9.47257 129.746 -2.83655
14.1717 103.971 6.19174
3.31503 139.006 4.69806
8.06451 116.256 11.1893
9.7881 111.778 10.5936
19.5487 84.0511 9.12792
12.1933 120.793 -2.09885
18.4412 89.0159 7.91657
13.0337 117.109 -1.14388
11.9928 107.264 9.1097
16.8968 87.8682 12.6101
16.8737 102.067 1.61619
10.163 128.648 -3.1491
13.9899 110.884 1.64698
18.9865 86.396 8.93054
13.4317 105.116 7.58396
7.57272 138.17 -4.30058
7.60787 120.09 9.83689
13.2352 114.239 0.981754
13.6039 105.087 7.295
3.92388 136.93 5.50649
13.56 105.209 7.35373
17.2431 88.4296 11.8424
8.10423 136.223 -3.78706
15.6816 93.2997 11.8926
10.4374 111.489 10.2077
14.1668 112.177 1.0102
16.2842 92.3779 11.6577
13.1843 120.566 -3.03661
16.6767 90.3012 12.4083
13.7169 117.708 -1.93647
16.5928 90.829 12.3088
14.6761 95.6464 13.1367
10.9009 128.501 -3.58766
10.5044 129.746 -3.59105
17.4268 103.759 0.270612
14.3027 114.129 -0.389337
6.54337 126.713 8.29625
4.49278 136.483 5.71388
13.654 108.516 5.7684
12.4175 108.905 8.43882
8.6244 117.454 10.9358
13.7792 118.583 -2.25109
12.2636 125.183 -3.76811
18.7351 91.9018 6.8733
6.33137 143.076 -3.5428
16.5839 106.052 0.988308
5.04494 134.432 6.46704
14.6794 113.824 -0.360779
2.6581 153.343 -2.52851
15.8326 97.659 9.6992
16.8057 87.4148 15.4312
15.1168 95.5549 13.0883
12.9694 123.692 -3.79621
5.60035 145.469 -3.22133
12.9143 110.98 6.44781
15.4197 98.825 10.0263
12.3277 111.189 7.72377
11.9777 112.272 7.7178
7.56552 124.113 8.9881
12.5686 110.788 7.48014
9.50613 134.529 -3.7984
14.4104 101.026 10.8139
13.8067 98.7802 14.0435
13.1367 112.177 5.21069
6.63039 128.491 8.12051
9.67108 116.37 10.4904
9.71656 134.63 -3.89126
11.6303 114.147 7.74116
18.925 83.3506 14.4599
11.607 129.777 -4.43132
6.1737 141.297 -0.404302
11.9297 128.902 -4.42006
15.3333 105.99 5.45111
19.6277 89.0311 8.58455
4.79344 140.088 4.09512
17.3247 105.861 0.977866
9.35598 136.987 -4.37996
12.6515 114.234 5.61295
16.8094 107.311 1.14229
10.5888 115.512 9.58995
8.51265 140.292 -4.86526
11.4224 130.852 -4.41052
18.4399 84.6471 15.0781
15.094 100.828 10.3982
5.07758 140.704 3.13902
3.66163 152.719 -2.87889
6.2627 141.979 -0.553461
14.6283 101.688 11.083
14.231 110.622 5.16725
19.3869 92.2639 7.25336
18.3381 103.069 1.33213
9.71953 136.907 -4.58202
9.9907 135.756 -4.32497
17.1662 91.0225 13.698
12.24 129.75 -4.89859
18.2577 99.5571 4.44575
7.94684 142.177 -4.30301
19.4618 92.263 7.32794
17.4652 89.6064 14.1905
17.7583 88.4254 14.4285
13.4796 113.624 4.95193
12.7763 128.488 -4.92917
12.7335 115.41 5.43304
20.4922 85.6941 10.221
18.5594 97.4868 5.6388
8.2784 141.862 -4.55053
7.17753 128.794 8.3407
5.91638 141.331 1.55264
10.6287 134.345 -4.21473
11.9771 115.604 7.35568
16.5029 94.8906 12.8304
16.9093 101.529 6.69551
16.3147 99.8266 9.47955
15.7802 116.827 -2.50216
15.4274 118.795 -2.93313
17.1643 100.544 7.27298
12.5496 117.199 5.27385
15.5635 118.388 -2.84988
11.0616 117.021 9.04546
5.07823 150.521 -2.90631
18.6865 84.9822 15.9787
16.6179 112.436 -0.556776
3.87673 153.685 -2.43417
19.4051 83.6198 15.3977
16.018 116.649 -2.40802
18.8748 97.8001 5.54994
14.5417 100.815 13.5525
16.1703 106.06 5.58084
10.787 135.488 -4.62808
6.59715 141.202 0.945585
18.6466 101.627 3.19118
16.5076 113.999 -1.3457
11.5575 116.953 8.238
5.77484 137.873 5.6953
11.8212 132.235 -4.33071
7.86983 144.407 -4.34717
16.7023 103.201 6.87977
13.9762 125.702 -4.2106
10.1052 119.737 9.77358
12.3645 118.445 5.43086
9.94716 120.078 9.9345
21.5776 83.8362 10.599
7.46857 129.575 8.46543
12.1437 117.702 6.62988
13.9874 126.268 -4.47311
18.0148 107.483 0.829983
6.29917 136.242 6.38908
11.0714 118.572 8.8787
14.1203 126.51 -4.60714
15.9126 102.39 10.0314
14.4601 113.19 5.05455
12.6322 118.838 5.06187
13.2954 117.392 4.62404
17.3832 111.64 -0.607912
22.1893 80.7296 12.149
19.1679 103.268 1.76144
16.1897 116.989 -1.80136
7.52539 141.756 -0.465592
6.96903 133.22 7.60578
17.1189 112.74 -0.583534
17.6611 109.836 0.405793
21.1523 86.0807 10.6964
11.8129 118.186 7.87506
16.8595 115.805 -2.3235
9.14951 124.76 9.17042
12.0057 118.992 6.87679
6.92996 139.768 2.73055
11.9955 119.264 6.71148
9.45069 142.725 -5.60552
11.3249 137.582 -5.99
16.1109 102.562 10.0414
16.9386 101.939 8.61009
11.8638 118.573 7.70995
7.48695 140.313 1.13599
19.4362 98.9679 5.00114
20.4609 91.1729 8.69474
11.534 118.991 8.23621
7.39041 140.048 1.67857
12.2758 133.326 -4.65648
7.77732 140.32 0.74472
17.2374 101.869 8.31448
5.81096 151.322 -3.13334
7.56435 147.373 -4.1673
14.9942 101.774 13.8378
21.4639 85.3766 11.3114
5.01701 153.287 -2.58075
14.0331 117.325 4.13164
15.3281 123.147 -3.51495
17.6003 101.714 7.9626
16.1725 102.923 10.4306
16.1087 119.676 -2.48123
13.5033 131.353 -5.35132
10.5885 122.269 8.75122
11.9912 136.747 -5.91493
10.4109 122.734 8.86122
19.7121 104.218 1.17337
11.9956 121.844 5.84517
18.3168 110.862 -0.645287
14.2549 117.353 3.97851
22.2567 83.8639 11.1421
20.7355 91.1938 9.07937
17.8926 101.7 7.66764
14.1117 117.953 4.01376
16.7559 125.056 -7.84272
13.202 120.106 4.57085
11.7221 121.206 7.27532
9.3635 144.608 -5.43763
17.1736 95.5534 14.4202
10.8583 140.842 -5.99926
17.5838 94.6288 14.2624
11.7878 121.719 6.88915
9.61184 126.088 8.71336
17.6197 123.513 -8.39069
6.1272 151.942 -3.20073
14.2315 118.171 3.91016
17.8225 114.737 -1.9592
8.06415 131.677 8.1129
17.42 95.114 14.4415
9.30248 145.153 -5.39762
18.1099 123.598 -9.53842
20.4322 93.8325 8.28714
16.8739 96.5122 14.7151
18.6933 110.83 -0.776204
10.2616 124.493 8.71715
16.2662 126.698 -7.31908
7.15667 149.822 -3.64841
16.5939 125.832 -7.38061
16.4596 118.672 -1.42974
12.6291 136.034 -5.87459
10.864 141.655 -6.04364
11.6915 122.039 7.38576
22.1428 84.8581 11.6356
19.4906 107.598 0.142861
18.2176 92.9124 14.7121
8.5546 139.902 0.988794
16.5394 127.67 -8.4701
12.1121 138.001 -5.9812
12.9871 134.903 -5.60732
13.7365 132.502 -5.4654
16.118 126.871 -6.63937
17.9626 124.571 -9.20447
14.3719 129.898 -4.77799
16.3062 103.718 11.2182
9.47319 127.793 8.72179
16.5532 128.105 -8.35766
18.3896 124.502 -9.90642
14.4531 119.041 3.83841
16.8523 124.804 -6.38934
16.0141 104.063 11.9103
23.2291 79.8912 13.6215
20.2709 103.797 1.98897
17.6286 126.679 -9.60154
13.8654 132.796 -5.39569
14.5587 119.024 3.76555
11.4325 123.209 7.96256
18.306 125.753 -10.3804
16.1211 128.466 -7.27161
14.6667 129.497 -4.59117
15.3011 129.449 -6.06769
20.5018 98.2859 6.01155
8.65224 141.567 0.419696
15.1614 125.962 -2.89372
12.9406 123.699 4.23011
9.34803 129.231 8.5436
16.6732 120.287 -1.91124
8.99338 139.68 1.25267
15.7672 127.812 -5.61358
14.6945 130.014 -4.67946
15.2127 126.013 -2.76042
21.7879 89.2887 10.3881
16.4089 99.0745 15.6655
13.8814 134.044 -5.68351
21.2626 93.17 8.75722
16.0439 129.19 -6.98107
21.2062 93.8586 8.39925
7.74618 142.582 2.38235
16.097 114.092 4.82073
15.9372 129.932 -7.19198
18.604 125.985 -10.4552
16.0474 122.585 -1.66917
16.0191 114.8 4.59128
16.2974 129.417 -7.53913
15.7019 122.839 -0.835944
16.7063 125.952 -5.6638
17.1589 110.732 5.22634
23.6987 80.7279 13.1423
18.254 106.063 6.33629
17.0777 125.049 -5.70707
20.7884 100.349 4.83555
17.1329 103.982 10.7592
17.9391 107.896 5.7742
18.9995 92.1286 15.6257
16.2254 104.61 12.4731
20.2628 85.8027 17.5956
14.5911 131.404 -4.5688
14.4096 132.161 -4.68797
8.29749 150.374 -4.28762
18.3206 124.453 -7.91409
16.7328 104.394 11.6371
8.69038 136.142 5.98358
14.6808 133.057 -5.92281
20.5626 85.2961 17.5464
11.0334 127.011 7.63404
17.1835 118.039 -0.00202677
14.5315 131.725 -4.36646
15.5557 127.832 -3.75232
21.3161 96.702 7.01029
15.9723 122.92 -0.739475
17.7325 96.2658 15.9838
19.0311 89.8397 17.9529
17.8576 109.222 5.56653
15.7436 104.21 14.5604
8.86534 135.608 6.48378
18.5011 105.403 7.13548
17.0538 125.83 -5.41737
8.5049 150.661 -4.41299
9.75723 131.266 7.83285
18.6851 124.848 -8.45498
17.894 115.729 0.601349
18.657 124.969 -8.44752
17.0444 125.981 -5.35511
22.4873 82.1709 16.1256
17.9415 109.309 5.73214
18.4366 106.478 6.77014
21.2006 100.489 4.92231
21.9496 93.5477 8.70933
17.1308 98.6789 16.2589
18.1613 104.059 9.62703
6.64916 153.813 -1.86329
9.2045 149.972 -4.94992
24.361 81.0583 12.92
16.3997 122.615 -0.626317
7.81899 145.318 2.08905
14.4816 131.95 -3.32853
17.5876 117.822 0.353372
14.438 132.023 -3.17973
8.07763 144.068 2.62887
9.83118 140.835 0.976847
19.67 122.665 -8.25601
9.97733 138.256 2.69607
24.0616 82.3671 12.8571
8.0188 152.19 -3.53936
19.2561 123.875 -8.17935
18.5152 128.036 -9.63813
21.8889 83.5924 17.1587
17.2918 120.238 -0.559577
10.5872 146.604 -5.17394
23.353 81.2984 15.5486
16.1743 128.246 -4.10635
18.5881 95.0447 16.2071
17.1188 100.547 15.4307
17.3024 126.142 -5.05442
21.4657 101.771 4.1105
18.4702 115.167 0.766073
13.4686 138.054 -5.20206
11.9244 142.376 -4.88943
9.58194 134.477 6.91697
16.7114 127.523 -4.60204
18.3116 108.618 6.50139
12.665 141.261 -5.59482
21.8866 97.1498 6.95922
17.9022 111.187 5.49972
9.03646 142.676 2.0115
18.1556 124.078 -5.09465
16.4744 127.981 -4.02678
15.6538 129.527 -3.17004
18.5429 115.045 1.28784
9.25274 141.748 2.57497
21.6864 102.293 3.82977
8.87479 143.206 2.40301
23.3261 86.2055 12.6177
6.67709 154.469 -1.00575
10.0819 140.674 1.72048
21.3303 106.233 1.84562
18.8808 122.435 -4.93948
17.5146 130.687 -8.09833
20.6863 124.172 -10.5035
11.423 131.157 6.28048
18.6122 123.472 -4.85852
18.2183 110.634 6.16346
16.159 128.629 -3.01916
17.8549 113.125 5.10412
19.0776 122.175 -4.914
12.587 128.89 5.34248
22.1031 84.3929 17.5848
21.1576 107.774 1.51528
17.8122 99.8451 15.7595
11.6898 130.641 6.26447
17.23 119.82 1.51686
8.73254 144.45 2.5277
13.3804 129.426 3.20532
9.86412 140.996 2.5883
6.36934 155.202 -0.13499
16.0377 121.258 3.37094
22.9142 82.7344 17.147
10.4502 139.257 2.62148
10.3791 135.525 5.73131
17.2147 122.274 -0.194022
21.1199 108.192 1.51631
21.9217 103.669 3.14887
12.6567 129.147 5.34081
10.5121 139.565 2.38112
23.2126 89.2816 11.4723
16.7226 104.679 14.9326
15.417 130.813 -2.43428
18.5611 116.548 1.24466
21.5339 106.51 2.01455
19.1417 114.85 1.24537
13.1805 129.373 4.15644
14.217 128.264 2.55271
19.0705 122.619 -4.61559
18.8337 129.306 -9.27503
17.5136 119.306 1.75796
16.7837 125.735 -1.5329
10.2591 149.441 -4.46988
21.7287 105.783 2.39702
16.5217 106.223 14.5096
16.4558 127.465 -1.99547
17.4075 120.077 1.52782
22.8042 95.0103 8.30235
18.6186 105.32 10.2532
15.1553 134.061 -4.0003
20.5613 88.9841 18.4719
9.05431 151.658 -3.15353
24.681 82.5933 13.6692
16.7109 119.176 4.03368
22.026 104.111 3.15604
22.2705 101.117 4.95131
11.4094 139.089 1.15586
18.082 113.216 5.51015
17.4482 105.958 12.7452
19.3368 114.777 1.33369
15.5626 130.007 -1.56342
11.58 138.297 1.46693
10.8517 136.72 4.46369
10.0687 150.203 -4.2314
22.2799 84.8478 17.8471
14.7582 133.194 -2.08861
18.5918 105.548 10.4434
13.5173 130.748 2.83491
15.5372 133.187 -3.78723
17.4372 127.435 -3.80908
22.7928 97.1905 7.11641
18.1044 118.004 2.12761
14.323 129.208 2.39803
21.6598 123.514 -10.6595
18.569 110.747 6.83982
13.0921 129.989 4.86947
8.3595 153.213 -2.02669
12.8922 130.129 5.28689
13.0818 142.384 -4.70737
12.6043 143.656 -4.54135
23.2065 94.339 8.81786
9.513 145.819 1.19932
18.4085 98.8742 16.7538
17.4679 132.383 -7.26958
15.5654 133.546 -3.62276
23.1175 95.1138 8.46651
19.9737 92.6058 18.0038
17.0126 133.173 -6.7344
15.6293 137.009 -6.41876
16.4554 129.354 -2.34604
12.2289 135.222 3.18474
11.963 137.804 1.81632
15.479 130.932 -1.18384
16.4311 121.942 3.61543
18.6712 125.047 -4.1767
13.7248 131.59 2.52693
18.2477 106.133 11.7066
23.5947 91.258 10.6288
17.9665 118.52 2.75798
21.9032 86.8155 18.2792
18.0058 115.532 5.11388
20.5721 90.4216 18.6887
15.0621 133.071 -1.58801
19.1018 107.661 8.76384
16.5605 129.423 -2.20456
22.6888 102.104 4.57244
23.1445 97.0194 7.47201
11.2629 138.611 3.26303
12.6515 144.161 -4.39617
18.5449 112.361 6.51425
11.3039 147.216 -3.50537
23.977 82.2343 17.1641
15.1104 133.494 -1.76723
18.7422 130.885 -8.34393
12.3018 137.343 2.02696
19.0333 97.2717 17.3811
14.4599 130.673 2.1635
19.9812 122.136 -4.33576
10.0548 145.631 0.974862
12.4562 138.475 0.878437
23.4394 95.2117 8.6384
13.492 133.44 2.44348
22.12 106.533 2.94414
8.0524 154.134 -0.729094
16.2382 124.037 3.30798
18.5159 100.708 16.1633
16.1802 124.379 3.19378
16.4744 127.983 -0.329157
21.0355 111.105 2.07506
16.8171 128.992 -1.86568
20.5209 113.886 1.12953
15.7428 130.495 -0.451255
22.8985 101.996 4.87183
17.7549 127.882 -2.99883
17.5182 107.58 13.5627
14.8567 135.685 -2.10787
14.7305 139.554 -4.82678
21.6337 126.383 -10.9762
15.4615 136.603 -4.22978
15.7201 130.895 -0.370088
13.374 141.453 -3.02819
18.6234 119.072 1.99807
9.92162 146.899 1.02766
18.2298 122.454 0.386802
11.5784 142.324 0.710319
11.787 135.057 5.9826
18.1783 116.605 5.20511
9.31532 148.647 1.27148
11.8919 135.332 5.5803
14.8214 136.483 -2.30913
13.4747 132.993 3.65531
14.3847 139.942 -3.96371
16.6972 127.614 0.187575
16.1069 133.411 -2.93726
18.9001 116.895 3.34565
15.2627 137.34 -3.93533
8.09312 154.421 -0.156229
11.0629 143.969 0.941045
19.0887 116.032 3.73854
20.824 91.5252 18.8672
18.8872 131.568 -7.89822
18.7582 112.947 7.02117
17.3105 127.644 -1.04099
23.1628 85.26 18.2414
19.0976 100.034 16.4258
15.4184 136.963 -3.63239
9.0653 153.378 -1.27592
26.1731 80.1459 15.2892
17.8009 133.603 -6.55477
18.9907 111.467 7.98332
8.38566 152.035 1.57224
11.2387 144.044 1.02758
14.7266 140.263 -4.33703
14.9181 139.387 -4.02236
15.5401 134.913 -1.99058
22.6366 106.005 3.72153
15.327 137.085 -3.15789
19.2612 107.429 10.8404
25.3895 84.3465 14.3027
21.1111 91.6229 18.9208
17.627 120.327 4.76035
13.7607 137.015 0.94713
17.5323 120.969 4.53481
11.8707 147.666 -2.84912
18.383 116.933 5.7066
25.5905 83.7315 14.5618
18.7746 114.315 6.87851
23.3851 85.7035 18.322
14.2765 134.307 1.98012
16.16 129.87 0.966469
18.7122 125.544 -1.73254
16.0194 131.15 0.317878
18.2938 133.26 -6.75827
16.3513 129.969 0.472787
12.2427 138.179 3.8688
16.6794 130.214 -0.429548
16.8282 137.523 -6.48511
9.19274 150.43 1.69322
15.1869 138.239 -3.07026
17.9413 106.226 15.4697
23.8966 97.7087 7.91135
18.5893 132.918 -6.95831
13.097 144.571 -2.95502
18.6346 115.689 6.49801
12.4047 145.614 -2.02247
18.6204 115.901 6.47733
17.3177 131.181 -2.27736
23.0029 124.117 -10.2763
15.9325 135.305 -2.14335
19.1512 116.844 4.69567
19.4351 119.861 1.65289
20.5491 122.595 -3.10851
16.171 129.644 1.93884
16.0743 134.979 -1.96554
16.2281 136.841 -3.77813
23.8208 100.57 6.5319
20.4026 95.7047 18.5795
19.1124 108.004 12.0262
10.3237 148.391 1.4044
21.3466 113.419 2.48361
19.0811 113.117 8.1962
24.5616 93.7858 10.3082
13.9436 138.24 0.829162
20.1679 97.6227 17.8389
17.3787 132.065 -2.47337
19.2415 108.136 11.9571
18.2767 135.305 -7.04535
16.9858 130.77 -0.385362
18.3441 125.653 0.402575
25.0236 83.0257 17.8774
14.0902 141.748 -1.97584
17.5097 123.301 4.31795
17.9489 129.692 -1.70281
18.0448 127.73 -0.370334
17.5855 126.704 1.55589
17.7482 122.357 4.71381
19.9487 118.404 2.56834
20.1132 99.1284 17.2962
23.5335 104.113 5.22387
17.3681 127.374 1.76769
26.7952 81.4101 15.3045
21.6702 112.599 3.15146
19.554 109.085 11.0207
19.9084 124.911 -2.22562
15.7479 140.747 -4.67605
16.2675 131.021 1.73395
17.736 107.995 16.3308
10.3216 149.297 1.7681
20.8524 114.882 3.61401
17.1059 128.299 2.12272
23.0834 88.9718 18.729
10.1087 153.209 -0.631521
18.9068 116.241 7.3444
10.0898 153.268 -0.615233
21.168 114.62 3.22213
18.5246 119.094 6.03574
21.8415 121.385 -3.61991
20.2158 99.6836 17.3351
20.2272 118.203 2.78892
16.551 139.943 -5.45264
19.5019 110.022 11.0117
21.4618 121.56 -2.72605
19.0164 115.214 8.11436
11.339 146.939 1.60276
16.9253 133.597 -1.2847
27.0941 81.3223 15.4083
10.8533 148.344 1.73976
16.7425 137.221 -3.57517
21.3545 114.538 3.22086
17.8697 108.073 16.733
24.0158 102.703 6.3283
20.663 124.518 -2.70463
22.0003 113.184 3.02809
23.7352 104.605 5.61453
23.8082 87.9097 18.5485
18.5048 111.107 13.0851
19.0833 105.076 16.4403
17.9951 132.598 -2.53317
19.7902 124.908 -0.773264
18.7804 118.066 7.01774
16.3785 132.167 1.71524
13.8036 140.161 1.61622
25.0836 94.3773 10.5654
9.37849 153.8 1.51616
19.0793 115.325 8.55481
24.0966 102.694 6.46581
18.9195 117.288 7.44026
18.2879 131.328 -2.05695
18.2962 111.4 13.5823
20.4176 99.9821 17.4836
17.3102 134.971 -2.48914
15.8356 141.495 -4.0688
17.1576 127.73 3.61109
26.124 87.1086 14.0845
10.0691 153.991 0.0298116
20.1846 124.705 -1.14767
26.2776 86.3944 14.3424
25.6147 90.3139 12.8533
16.7674 140.535 -5.37411
25.2804 93.0078 11.5693
14.1135 143.877 -1.52987
20.1429 117.383 4.86432
9.82214 152.881 1.71254
18.0174 115.445 11.5182
19.2932 109.207 13.3908
17.7906 115.776 11.8403
22.4466 129.151 -9.73362
16.9299 140.49 -5.41027
15.5261 136.32 1.2355
21.1988 123.779 -2.41674
18.9005 109.357 14.4459
18.5399 113.274 12.2361
18.7091 114.072 11.253
27.8203 80.6804 15.6687
22.8564 109.05 5.41253
20.3846 101.141 17.5555
17.1615 128.397 3.89057
17.7415 113.218 14.4191
20.6268 100.323 17.6599
18.7296 137.752 -7.13746
10.6233 150.483 2.26357
15.8201 135.667 1.49644
17.733 114.532 13.5168
17.4932 139.785 -5.64204
19.6427 135.396 -7.28791
18.2261 109.02 16.8404
23.8013 105.753 6.08811
17.6007 117.003 12.1018
15.9462 135.89 1.2547
17.3773 127.846 4.1457
23.4611 90.5491 18.8765
26.797 81.9205 17.6934
20.2947 122.332 1.60337
17.6052 116.356 12.7326
18.6876 119.887 7.37712
10.1357 154.366 0.794012
22.0089 94.4937 19.3813
13.7511 141.487 2.2942
20.1456 101.931 18.0469
25.5179 93.9823 11.4472
10.7705 151.046 2.05454
19.1118 129.233 -0.743256
23.739 106.565 6.04202
18.7373 119.212 8.09686
19.3331 137.245 -7.23033
18.1234 111.019 16.2824
18.5184 118.069 9.85305
18.5783 130.004 0.357421
21.7509 123.611 -2.18404
23.7471 91.0685 18.6756
17.2905 118.29 12.7684
22.8807 112.697 3.79551
18.2741 110.759 16.346
17.1311 119.802 12.0262
19.9281 103.903 17.8568
17.6152 116.345 13.7836
23.0716 121.433 -3.24969
21.5631 131.788 -7.75764
26.0768 85.3867 17.8653
20.082 126.552 -0.0898299
27.8983 82.8278 15.5197
26.1705 90.9179 13.3492
24.644 102.052 8.27142
15.7139 142.821 -2.29522
21.1553 132.654 -7.31139
13.1291 149.725 -1.47967
22.5193 130.572 -8.90014
15.3775 138.263 2.1621
16.3684 143.312 -4.16547
13.2593 149.567 -1.61079
24.9376 100.475 8.97802
13.251 144 2.81095
18.3437 127.831 3.33575
18.5395 132.598 -0.67354
23.4225 110.021 5.39608
18.1764 120.366 9.83219
17.6177 128.346 4.92858
23.9943 91.6378 18.5807
11.1632 152.698 1.3782
25.5049 96.4742 11.2232
15.8331 132.76 5.93712
15.6924 137.99 2.20519
16.6519 124.337 10.664
27.8003 83.0509 16.5176
25.0173 100.653 9.39923
20.0175 137.136 -7.25019
15.6678 132.308 6.99547
12.364 147.404 3.07231
15.7359 131.553 7.44506
24.1917 105.628 7.56549
16.1012 132.486 5.85899
16.9743 132.876 3.46876
15.5242 133.112 6.80084
24.3746 104.392 8.16924
15.5896 132.246 7.40316
18.8422 132.048 -0.178501
15.6429 134.658 5.47545
18.8146 126.945 3.99951
22.1635 97.3536 19.2233
17.8785 128.065 5.42681
21.062 124.213 0.889577
27.415 87.7982 14.2689
17.1593 131.579 4.52902
27.6004 87.1217 14.4558
16.6788 130.542 6.65335
22.2553 123.557 -1.20068
20.466 104.3 18.2507
18.5421 113.118 16.0736
23.8724 129.451 -9.43145
13.1983 145.385 3.67604
16.6305 127.099 9.85413
17.9174 125.011 8.49894
12.0015 153.043 0.666228
20.7044 136.61 -7.21698
12.1172 150.09 2.74612
17.5752 125.538 8.96512
23.2432 95.281 19.178
21.4634 101.87 18.3293
23.3089 130.797 -8.74319
22.3862 115.74 5.28888
12.9144 146.558 3.78341
17.1958 126.622 9.25543
18.8496 140.622 -5.65208
17.8168 125.911 8.36008
15.938 129.283 10.2124
23.2347 131.107 -8.66478
29.1194 81.808 15.9475
17.8211 126.219 8.15481
18.0687 142.013 -4.82059
23.0707 122.367 -1.36579
17.4637 130.232 5.91371
18.0766 117.165 14.7028
25.367 100.558 10.3101
17.5949 128.691 6.83953
26.0425 97.2724 11.2939
15.6995 132.69 8.26623
26.3651 87.2592 18.41
24.5398 127.995 -9.1482
23.7689 113.103 4.3973
12.79 147.784 3.45774
28.1532 86.987 14.4487
24.2907 93.732 18.4098
21.4094 124.629 1.07186
22.0019 116.027 6.47887
28.4867 85.921 14.6798
15.6414 136.962 5.38471
21.6497 134.476 -6.99365
17.0943 129.054 8.24017
18.593 114.955 15.7376
18.2194 117.522 14.6756
26.0737 98.1444 11.1039
21.9772 101.147 18.5772
19.4656 129.906 2.06043
15.6064 137.036 5.71493
23.2467 122.819 -1.40118
12.7876 152.686 0.185147
21.4803 135.623 -7.06623
20.747 125.747 2.43988
21.1781 136.587 -7.09473
22.5529 115.79 5.97439
22.0451 117.205 6.11422
23.5878 121.929 -1.26219
27.8289 84.2217 18.214
13.5021 146.027 4.03262
16.3098 130.661 9.37542
26.2643 88.9801 18.2784
19.4348 129.095 3.16155
23.0154 98.1172 18.9748
23.353 97.4826 18.7065
20.2863 126.558 3.2592
26.3595 123.919 -9.18319
14.5209 143.209 4.04254
14.0183 144.753 4.05068
24.9029 106.783 7.81165
21.0785 105.586 17.9201
27.7743 85.3487 17.8749
21.5422 136.148 -7.02275
24.9577 107.189 7.62097
14.3409 144.032 4.14704
16.1404 133.501 8.13343
23.2 122.786 -0.337024
19.8035 130.157 2.03166
21.2401 105.661 17.8389
23.836 113.461 5.51869
20.1626 126.518 4.07195
19.5956 130.103 2.68145
28.0405 84.728 18.095
22.4801 133.61 -6.88893
13.5025 148.025 3.29275
19.8729 127.892 3.8581
23.2029 122.709 0.0912215
23.5454 98.0398 18.6341
22.0885 103.966 17.4737
20.1873 126.524 4.33281
25.0085 108.404 7.03216
28.0178 85.5713 17.8296
16.6823 129.985 10.1345
19.6889 128.404 4.20466
28.2805 90.5276 13.3745
16.3881 139.776 3.20342
24.8518 129.674 -9.08943
19.5553 130.321 3.08121
22.1548 123.325 2.35791
19.2423 114.747 16.1502
22.6122 117.562 5.8977
22.6004 103.017 17.3454
15.188 142.673 4.18468
25.4229 105.722 8.7637
20.4264 125.557 5.16932
17.357 145.32 -2.98409
28.9859 85.7827 15.9411
22.0089 123.543 3.0414
24.394 97.1274 18.1256
25.8024 104.292 9.30346
16.3323 135.775 7.33391
28.8216 88.9111 14.2578
28.9024 86.1973 16.1958
21.6023 106.654 17.6617
24.3071 131.8 -8.48953
23.2366 133.517 -7.23348
15.5656 149.284 -1.21918
15.6101 149.321 -1.28961
29.2928 83.6296 17.5742
16.391 147.635 -1.75962
28.8249 85.5976 17.1913
23.1298 102.861 17.3324
25.6529 94.6486 17.7899
15.1694 150.402 -0.86353
23.222 102.439 17.5165
24.5985 97.5799 18.039
22.736 117.577 6.81137
22.1927 123.459 3.50976
19.864 114.774 15.9577
18.2685 127.981 9.43728
22.3745 118.739 6.91152
24.5776 112.858 6.26342
23.8465 122.101 0.791519
27.1169 99.0651 11.064
21.514 124.566 4.48352
14.1517 150.437 1.80016
20.34 113.37 16.1174
22.8505 117.804 6.64199
26.9823 91.3462 17.5227
21.7658 124.734 3.83397
17.2095 134.142 7.36263
21.7591 120.125 7.50012
25.2204 110.526 6.79249
28.1467 88.0433 17.441
22.6698 123.954 2.41445
26.4676 102.843 9.91058
28.4553 92.6871 13.1426
17.423 131.918 8.75556
23.6583 122.371 1.33334
15.4041 150.534 -1.01266
17.8264 126.353 12.165
26.1938 104.297 9.47137
21.6607 108.814 16.7938
21.0098 111.384 16.397
15.7954 150.324 -1.49705
28.308 88.7942 16.8519
23.2865 121.456 3.26521
17.9266 133.622 6.54135
23.8586 100.916 18.0134
17.8895 130.293 9.29906
21.3727 125.488 4.76249
14.499 149.173 2.6677
27.7187 90.7613 16.8888
22.0325 121.145 6.67004
27.6337 98.1371 11.347
20.7018 113.847 15.6204
21.9658 121.304 6.75234
18.597 145.239 -3.95146
25.4217 96.7282 17.8548
22.9478 135.882 -6.8643
21.9655 125.032 4.01572
20.854 113.705 15.5739
23.3298 123.625 1.87265
28.2893 89.9417 16.514
23.1323 105.017 17.0796
23.5504 123.148 1.93866
16.5145 140.601 5.08995
23.3379 122.431 3.06682
21.679 139.426 -6.27754
18.3598 125.417 12.6965
28.1935 95.0944 13.1264
23.5454 122.6 2.85563
22.2577 124.958 4.09166
26.1852 107.489 8.40529
20.9325 129.644 3.60913
24.6827 123.748 -0.730958
25.123 132.156 -8.35273
19.9503 127.933 7.35516
28.0298 91.8267 16.3583
28.135 91.6372 16.2593
24.0501 122.879 1.60907
21.7447 111.419 16.1164
25.4196 111.077 7.60348
19.2409 122.214 13.7227
21.8696 125.913 4.61647
21.4562 113.677 15.2527
28.256 92.8016 15.3775
18.7978 133.74 5.8867
19.0375 131.377 7.20895
25.5883 98.5016 17.3505
22.3972 126.409 3.10323
22.2094 125.804 4.03063
23.0216 106.968 16.931
25.4603 99.5686 16.9498
25.0849 113.094 7.24694
15.8845 143.775 5.19427
16.8697 149.5 -1.64342
22.0156 139.226 -5.88945
25.6402 131.35 -8.37104
23.5675 122.561 3.50806
23.0357 121.325 5.7553
21.4604 122.355 8.73839
17.3321 149.067 -2.28536
15.6588 144.676 5.19633
19.002 125.767 12.0884
20.5146 130.277 4.96406
19.5762 132.168 5.73725
20.3789 143.423 -5.00356
19.5343 145.312 -4.42855
24.5852 102.764 16.9059
20.3137 131.617 4.50472
27.9089 95 15.0886
24.4095 103.195 17.0602
20.3292 118.745 14.6349
15.5046 146.658 4.29076
28.0302 97.9066 12.5845
25.736 109.798 8.77248
20.5607 117.585 15.0498
21.7261 140.602 -5.7475
27.9685 95.4861 14.7279
26.8718 96.4266 16.6334
21.5293 114.937 14.8914
23.5159 123.487 3.57461
24.0987 115.691 8.29665
27.0298 96.8624 16.0964
17.6171 148.957 -2.16584
26.7292 106.795 9.15337
21.1439 131.177 3.38791
28.061 126.02 -9.09822
21.9628 128.802 3.32467
20.3455 129.467 6.7156
22.7501 125.957 3.80644
22.1642 128.794 3.02807
