ply
format ascii 1.0
comment Created by Open3D
element vertex 1807
property double x
property double y
property double z
end_header
-41.174 100.493 20.9403
-30.364 97.8025 -0.670522
6.04587 142.214 -5.87414
0.981617 135.928 -5.16834
-4.04998 140.914 9.65514
-1.85245 142.976 8.5688
-16.687 129.125 16.1036
9.16157 147.595 -4.01323
-37.635 92.9359 5.86003
-31.2796 114.26 22.1196
-43.74 96.0259 20.123
-17.4081 109.63 -7.10438
-44.7846 92.589 17.5702
-22.3998 105.335 -4.04363
-18.096 108.667 -7.08922
-24.8766 121.052 20.0728
-43.3009 91.1441 13.3814
-0.834328 133.666 -4.47961
-21.8607 105.533 -4.45202
4.46482 147.609 4.34857
-15.4985 111.679 -7.36935
-18.0093 127.884 17.3975
-44.9553 92.1141 17.6727
8.6919 145.939 -4.79297
-15.0819 130.452 15.7499
-0.265406 143.994 7.87845
-43.6892 95.8918 20.3461
-36.7811 103.871 18.8578
-19.7021 126.186 18.261
-18.6635 107.755 -6.81022
-7.52677 122.562 -6.80646
-44.1336 91.0599 15.1963
-38.1357 102.525 19.6775
-5.93398 125.599 -5.47513
-35.9452 93.307 4.35982
-15.3395 129.868 15.8426
-19.6837 106.669 -6.16684
-13.6523 114.068 -6.97754
-26.7145 118.531 20.7875
1.52604 144.761 6.34334
-26.2845 101.269 -1.71481
-4.07389 128.853 -4.28147
-31.6673 96.0029 0.74351
-43.9486 90.7898 14.8919
-37.7157 102.744 19.5416
9.2952 146.563 -4.36193
-43.3582 90.5502 13.6888
9.41908 147.355 -3.53882
-0.362143 133.286 -4.81848
-33.4672 108.57 19.8268
-32.9588 95.0068 1.83232
2.54924 145.32 5.63632
-43.2574 90.4442 13.5529
-1.09477 132.274 -4.70079
-33.821 107.497 19.2059
-2.12 141.795 9.08495
-31.0329 96.0877 0.0851533
0.302231 143.554 7.35674
-27.7242 99.2713 -1.33654
0.479214 143.579 7.12416
-15.0011 129.803 15.831
-2.43389 130.773 -4.12505
-28.1861 116.407 21.2111
-2.84872 130.059 -3.96488
-38.5459 101.928 20.7123
2.76327 144.902 5.42718
9.63977 147.981 -2.25646
-43.5178 95.4491 21.0886
-6.50631 123.065 -6.42602
-3.16709 129.454 -3.97072
-18.6053 106.689 -6.65562
-43.568 95.3375 21.13
-26.1747 118.202 20.7302
-36.8996 92.0016 5.7437
-37.2143 91.7673 6.01147
2.08508 135.171 -5.40794
-36.0128 92.3917 4.81323
-9.63527 118.181 -7.08483
-44.5154 93.5414 20.7263
-32.9698 108.845 20.6281
9.87269 148.073 -1.9426
5.39147 146.725 3.93139
-1.54832 141.48 9.13698
9.11631 150.446 2.56123
-13.1135 130.886 15.4645
-0.417753 131.57 -5.05554
-43.3563 95.2983 21.5458
-39.7721 89.5111 8.17962
-36.4471 103.282 20.0403
-36.7588 102.882 20.0685
-12.7918 113.213 -7.31072
-40.5256 88.792 8.72587
-38.937 89.8412 7.39293
-42.2055 88.9135 11.7638
5.81508 138.553 -6.48721
-25.8424 117.765 20.6826
9.19357 144.319 -4.79978
-43.3566 89.3981 14.4868
-41.3937 99.191 23.5965
-41.5904 88.5853 10.5097
-12.1295 131.679 15.3772
9.25469 150.105 2.61743
-18.8318 105.51 -6.37522
-7.6794 119.889 -6.99837
-4.0975 126.434 -4.75369
-39.2285 101.13 22.6407
-12.6713 130.961 15.5554
-11.4448 132.341 15.264
-39.2883 89.0831 7.60912
-17.3352 126.598 18.0629
-35.9699 91.3614 4.97592
-1.6363 140.671 9.43841
-44.267 93.4803 21.713
3.08853 135.074 -5.59827
-33.4388 92.7368 2.52455
-33.7964 92.4414 2.82705
-6.18506 136.367 11.7991
-14.6862 109.886 -7.3198
-7.40004 135.584 12.8985
-44.0062 89.3496 16.2478
-10.9596 132.517 15.0831
-1.88948 129.377 -4.2014
-8.72303 134.501 13.8282
-33.7249 92.4183 2.79356
-34.1057 105.708 20.2535
-37.158 89.8191 5.3109
-39.5309 88.5256 7.72671
6.21126 138.144 -6.70658
10.0147 145.398 -3.912
-42.3618 97.7421 24.2573
-30.5697 94.5487 0.396677
-0.654299 140.608 8.31582
-35.389 90.9381 4.11657
-39.0683 88.4188 7.16414
-39.8561 100.251 23.5271
-35.4281 90.8581 4.20446
-21.8603 102.662 -3.76633
7.31649 147.12 3.2669
-39.8549 100.2 23.5998
-13.8608 128.97 16.1232
-41.5715 98.4657 24.3374
-16.1649 107.272 -7.39108
-17.6964 105.728 -6.72853
-42.2955 87.3767 11.6241
11.2265 151.029 1.8411
-0.399538 130.173 -4.88386
11.8133 151.171 1.0994
-5.56115 121.695 -6.84231
-42.4453 96.6009 23.716
-38.8165 87.9209 6.63256
-38.3249 88.3843 6.39697
0.301897 130.536 -5.40193
6.49873 145.875 3.59171
-2.92961 138.106 9.71811
7.05797 138.178 -6.99482
0.822264 130.872 -5.64849
-10.3308 132.157 14.8315
-20.8801 102.938 -4.32101
10.3733 145.184 -3.6167
-12.4373 130.202 15.9615
-15.697 107.317 -7.44825
-25.1792 98.8073 -2.10208
-31.3 93.2418 1.19337
-2.16014 127.929 -4.10233
-39.0418 86.9779 6.38187
-39.855 86.6769 7.45961
-30.1416 94.0046 0.354757
-37.5643 88.141 5.51847
-34.289 90.5317 3.06306
-10.4032 113.832 -7.7757
1.66133 131.595 -5.63686
-19.7667 122.583 19.1457
-0.915167 139.064 8.20529
-34.1045 104.742 20.9014
2.86618 142.107 5.78428
-37.3749 88.0545 5.33104
-42.5197 87.4391 13.2554
-25.1941 116.492 20.7711
-5.84775 135.085 11.6473
-25.0302 116.579 20.7024
-24.1202 99.2569 -2.75098
8.23244 139.474 -6.43901
-15.2298 107.296 -7.48577
8.62168 140.781 -5.32465
-38.175 87.0791 5.75305
6.66657 136.816 -7.00179
-4.13901 136.471 10.8545
-20.5581 121.543 19.701
-25.1853 98.1695 -2.05245
-1.03262 128.425 -4.51487
-5.05962 121.181 -6.86914
-34.7431 89.7406 3.503
-28.781 112.676 22.5792
11.9811 150.094 1.15002
3.36035 142.039 5.53332
-0.918977 128.327 -4.56893
10.2163 143.404 -4.28815
12.0738 150.202 1.19224
-22.5867 100.153 -3.58616
0.46218 139.206 6.9337
-35.2932 89.4381 4.36587
-31.3143 92.3342 1.33572
3.19846 141.728 5.5901
-12.0542 110.626 -7.92804
-1.2777 137.788 8.25193
-4.14882 122.843 -5.77495
6.77072 144.845 3.63045
5.50449 143.554 4.1618
-37.6444 86.7946 5.31056
-29.1403 93.4842 -0.571909
1.47117 130.226 -5.75993
11.0066 149.857 3.02916
-31.3262 92.0128 1.32468
-31.7869 108.559 23.0685
-29.355 111.727 23.0181
-4.31829 122.173 -6.00612
-18.7188 122.757 19.0539
-39.5313 99.3498 24.623
-14.4256 127.177 17.4769
-23.4507 117.655 20.6802
-42.7512 94.9855 24.5839
-30.4354 92.3625 0.559093
-16.5298 105.055 -6.82374
8.2117 146.054 3.28897
-3.19353 124.156 -5.13777
10.903 144.204 -3.5608
-30.91 91.9738 0.951595
-20.0493 102.308 -4.2895
-20.633 101.649 -4.10866
-1.07447 127.346 -4.58279
-16.4219 105.04 -6.84442
-6.18493 133.609 12.03
-17.7267 123.426 18.8631
-26.8793 94.9623 -1.68626
-42.9163 93.563 23.6534
-37.1618 86.423 4.9129
-40.4077 98.0048 25.0553
6.09093 134.774 -6.88638
3.23118 131.242 -6.36997
10.8634 143.314 -3.97619
4.05621 141.366 5.05435
-39.1388 99.2265 24.74
12.1082 149.196 1.47835
10.0788 141.978 -4.22628
-16.8446 124.123 18.6449
-31.7851 90.8274 1.73861
5.03307 133.51 -6.40211
3.24975 131.096 -6.42708
-30.4747 109.961 23.7849
-29.5284 92.2029 -0.270643
-14.0916 126.856 17.5791
-19.8649 120.939 19.8618
2.73278 139.636 5.44157
-7.4139 116.141 -7.09946
-20.2268 101.044 -4.54242
1.56807 128.983 -5.94601
-20.819 119.814 20.2819
9.78961 141.111 -4.41899
9.72541 140.915 -4.50039
-13.5661 107.322 -7.6541
-35.4712 102.199 22.8797
-35.3466 87.3975 3.95463
10.8338 142.775 -3.93853
-42.37 95.135 25.7862
11.008 143.152 -3.46084
11.6313 145.574 -1.42775
-23.7527 115.978 20.8717
-32.7149 104.787 21.8761
-20.7737 119.469 20.31
-10.3711 129.456 15.3894
-4.94525 118.445 -7.67101
5.90473 142.172 4.0558
-42.4426 94.342 25.2107
-35.2219 87.0554 3.80574
1.39101 137.695 6.07219
-22.8469 97.987 -3.23251
-35.2502 86.8398 3.75153
-36.8336 85.3753 4.59236
-23.2172 116.407 20.8808
-4.62131 133.613 11.2586
-22.0455 98.5063 -3.67764
-32.0066 106.502 23.3186
-2.50706 135.123 9.73199
1.33373 137.463 6.2312
-23.4023 116.031 20.9123
-1.32521 135.187 7.91511
-42.845 92.8193 24.4163
1.26267 127.803 -5.78155
6.78906 142.882 3.99955
-22.1614 98.2159 -3.58472
-6.01675 132.125 12.0889
-29.5058 109.923 23.6549
-29.6975 90.9071 -0.0200196
-21.04 99.0689 -4.30326
-9.63451 129.497 14.9461
-5.34266 117.201 -7.74403
-15.675 124.162 18.5123
-0.0191879 125.424 -6.27739
-22.1027 98.0916 -3.57321
10.8519 141.873 -3.78944
1.80527 137.295 5.73183
-26.0973 94.0158 -1.87061
7.04249 142.995 4.16279
-4.21573 133.385 11.0503
-32.321 88.6412 1.88943
10.9874 142.371 -3.24199
-34.3792 102.625 23.1157
-32.4113 104.664 22.3809
-16.0244 123.545 18.6201
-37.1324 84.6217 5.03348
2.09132 128.128 -6.11378
-2.45956 134.013 9.04388
-13.0359 106.763 -7.55434
6.62137 142.319 4.25643
-16.2954 123.146 18.6962
2.89348 138.2 5.35892
-1.63143 134.28 8.06026
-3.40295 119.644 -7.46057
-38.1305 84.2424 6.44303
11.8209 145.256 -0.67735
5.26265 131.577 -6.90002
-6.9139 130.954 12.8738
-14.5086 105.111 -6.99293
-25.3301 94.4444 -2.17259
10.9495 147.718 4.02613
-4.77198 132.48 11.3122
-34.0009 103.002 23.3788
-37.6604 99.4144 25.068
-22.7143 97.139 -3.03968
-17.0484 122.129 19.076
6.86091 142.421 4.39708
-37.4592 84.2 5.57894
-26.8004 92.8951 -1.35892
-32.5892 87.8381 2.04286
-1.19862 134.181 7.68742
-2.83415 121.424 -5.64711
-17.6324 101.738 -5.5707
-32.0393 105.289 23.2575
-26.2905 93.2883 -1.61679
-8.55723 129.181 13.8781
-27.4196 92.0881 -1.21073
-38.255 98.1548 24.7695
-3.25943 132.804 9.54065
-0.797979 134.371 7.40165
-8.42727 129.184 13.7387
-23.9875 95.6006 -2.47911
-23.277 96.3725 -2.70044
1.94238 127.023 -6.48315
9.66268 145.913 4.38538
0.0845118 135.21 7.02849
-4.83621 131.982 11.2934
-4.0649 132.364 10.504
0.470215 135.681 7.06202
-4.18264 132.296 10.6431
1.63633 126.191 -6.8499
11.52 143.805 -1.19398
-12.6515 126.03 17.1325
3.07421 137.708 5.41049
8.65574 144.63 4.78049
13.5334 149.134 2.2563
0.445588 135.264 6.8378
12.322 146.493 1.00488
5.02571 139.709 4.7522
-32.6611 87.3322 2.1591
-5.27437 116.152 -7.57743
1.28234 125.112 -7.25489
8.9065 135.812 -6.57853
12.8699 148.958 3.40232
-18.8928 99.9484 -4.98398
9.15935 145.08 4.76352
8.85047 135.517 -6.81051
10.9961 141.826 -2.39921
-18.2066 100.82 -4.96879
-33.9895 85.9058 2.81011
-28.228 90.8143 -0.662416
6.31055 131.798 -7.11586
-16.0455 122.427 18.7815
-25.614 93.2492 -1.94515
4.13275 128.654 -7.35959
-22.6836 115.309 21.0537
-32.3451 87.3074 1.98741
-23.9746 113.658 21.1991
-21.1811 116.713 20.3623
-34.7348 101.678 24.228
-6.94297 113.853 -7.28859
-41.4469 94.6124 26.6519
-9.54633 109.493 -8.36942
-2.36393 120.183 -6.96413
0.820311 124.038 -7.447
-1.58573 122.139 -5.78034
-22.7341 115.122 21.0611
-26.749 111.298 23.0032
-0.0217397 123.192 -7.07194
-29.4271 108.641 24.1696
-37.8846 97.8699 24.8653
-2.99048 118.657 -7.6901
11.6092 147.527 4.21321
-36.2624 100.226 25.1923
9.49891 137.486 -4.89472
-32.3586 87.0274 2.03695
4.65109 128.747 -7.65813
-26.828 91.7038 -1.35077
-27.099 110.785 23.3176
10.327 139.492 -3.51674
-12.0859 106.266 -7.59478
1.89428 124.748 -7.80257
-20.2773 97.6814 -4.61158
-25.0335 112.367 22.0599
1.78349 135.418 5.95643
-13.1814 124.481 17.4488
-27.9553 109.61 23.5993
-41.0216 93.8671 25.7587
-24.1052 113.058 21.4989
-1.06607 132.674 7.50723
6.28096 130.281 -7.86724
-24.5468 93.4131 -2.46104
8.96712 144.279 5.3612
-32.1125 103.86 23.5876
-12.9057 124.449 17.2135
12.598 146.104 1.56032
-33.4725 102.882 24.7524
-10.766 125.84 15.561
-5.63523 128.999 10.9406
0.673501 122.951 -7.30536
-41.0784 93.5046 25.9578
-15.1751 102.573 -6.29923
-4.8546 129.32 10.2487
6.38161 140.332 5.23917
-19.3527 117.536 19.8916
12.8366 145.96 1.51229
-31.6957 104.457 24.1866
-15.3942 121.816 18.6536
-31.2934 86.981 1.47412
-4.32277 129.53 9.79551
12.9035 145.954 1.50189
-37.9693 96.8065 25.2356
-39.7075 94.7208 25.5762
-4.00692 129.621 9.5233
11.9739 147.017 4.56452
5.10117 138.316 5.16303
-27.5046 90.1626 -0.710868
12.4578 145.041 1.27713
-21.2744 115.325 20.6464
10.4845 139.292 -2.59513
-25.4 91.8824 -1.98568
-5.13402 128.517 10.2815
-5.93201 127.914 10.9129
11.6019 142.017 -0.754489
2.18544 123.63 -8.07045
-29.0232 107.873 24.7012
-33.5935 84.2692 2.56552
-35.6052 99.7787 25.5999
-3.42543 116.209 -7.92399
-37.1849 97.1504 25.0291
-19.3552 116.727 19.7492
-16.6767 100.151 -5.72638
14.3259 147.583 1.99687
-24.8276 111.518 22.5422
6.80909 140.319 5.60108
14.1224 147.794 2.71323
-10.7937 105.984 -8.10879
-16.2676 120.054 18.9886
6.73729 129.473 -7.90391
-4.24883 114.884 -7.80746
-11.8246 123.557 16.0627
-4.05801 128.521 9.23668
-24.4604 111.66 22.3978
-29.3894 107.328 25.2529
13.2247 147.588 4.30562
-16.1742 119.82 18.8998
-39.3663 94.2059 25.7038
-37.1227 96.7418 25.15
1.08331 122.049 -7.31316
-40.7418 93.9259 27.7452
-9.70551 124.147 13.6115
-33.3756 101.81 25.415
2.88819 134.962 6.15829
-12.9941 103.377 -6.94011
-17.2063 118.482 19.3242
-12.5798 122.385 16.4609
9.12385 132.837 -6.79756
-30.6324 105.277 25.4584
7.0468 129.218 -7.81056
-19.1886 115.851 19.6509
-32.5701 84.2159 2.23071
-21.1779 94.8269 -3.5767
7.56142 140.856 6.20039
-7.07911 110.234 -7.79358
-8.43619 108.092 -8.20028
-12.2413 103.737 -7.26775
-12.04 122.349 15.9814
10.6442 137.57 -3.00658
7.79669 130.201 -7.49523
3.53081 123.824 -8.34485
-33.2269 101.467 25.4706
-13.7069 102.056 -6.71231
-28.5507 107.225 24.9431
-16.6444 98.5727 -6.09984
5.56474 126.237 -8.56828
-29.002 106.558 24.9066
5.15042 125.676 -8.56397
12.4245 142.908 0.987163
-14.918 119.763 18.0261
-25.4161 90.1635 -1.67967
10.7576 137.748 -2.4885
-19.6181 114.865 19.9189
-31.8931 102.825 25.4387
7.8108 140.901 6.58568
3.62833 123.446 -8.41413
-27.3947 107.814 24.1997
4.55705 136.347 6.35921
1.91373 132.951 6.66443
-30.6327 104.4 25.4926
1.79232 132.812 6.71714
3.26524 134.523 6.41907
10.5163 143.938 6.12616
-5.32512 111.443 -8.22113
-13.1691 120.552 16.6308
-9.80614 122.234 13.0932
-8.31414 107.334 -8.2455
-20.5246 113.934 20.7289
3.14423 134.27 6.55119
-13.1628 101.726 -6.99572
14.8958 146.615 2.5073
14.0297 144.607 1.50735
-34.8947 98.5156 25.8111
-19.6893 94.724 -4.52875
-28.3938 86.6887 0.0566543
-40.0789 93.0158 27.8142
-12.3383 120.371 15.637
-24.9902 89.6674 -1.79889
-14.8721 118.622 17.8848
-39.5548 92.5031 26.5573
-14.1772 100.138 -6.61841
1.54756 131.869 6.99818
-9.02395 121.813 12.1471
3.24682 133.85 6.67796
-24.4349 89.9992 -2.05797
-2.12076 128.021 8.45043
1.47147 131.67 7.04561
-23.7819 110.181 22.5066
-10.2026 120.729 12.9861
-27.5242 86.9943 -0.452875
-1.13557 117.055 -6.8774
-29.0131 104.991 25.0625
9.04571 141.518 7.11731
-27.9424 86.2249 -0.371124
13.6809 146.21 5.27173
-14.6521 118.17 17.6526
-9.14389 104.848 -8.47534
-19.1367 94.5402 -4.63679
-21.082 112.439 21.3106
-31.4847 102.475 26.313
15.5828 145.87 1.76128
-25.2656 108.262 23.2144
-9.71163 104.125 -8.28167
-20.603 112.7 21.0069
5.2461 124.051 -8.27058
0.419446 129.951 7.52457
-21.1548 112.076 21.4158
-30.4386 83.5643 1.01292
9.99001 132.147 -5.75991
-18.4205 94.9079 -4.86512
-29.43 84.3361 0.355303
-30.6836 103.035 26.2158
-39.1634 92.244 27.0359
-25.6947 107.303 23.3698
-35.4237 96.0005 25.5011
-15.7119 116.443 18.169
-25.9745 106.822 23.3682
1.43232 119.697 -6.58584
14.0431 141.602 -0.143417
-13.4066 117.341 15.5706
5.52111 123.805 -8.16846
-0.957018 116.162 -6.89318
-16.6849 115.635 18.9966
-16.6736 96.0821 -5.72063
-23.586 109.011 22.3426
-15.7655 116.041 18.0631
14.5559 145.912 4.67625
-18.5229 113.59 19.6416
-12.4415 100.313 -7.39886
11.2846 142.882 6.48301
8.69748 130.936 -4.25935
7.81921 127.763 -6.76872
6.81816 138.103 8.0283
14.3938 141.748 -0.140167
13.4326 140.244 -0.377292
4.99292 135.745 8.19747
10.1967 134.239 -2.45338
9.30172 130.494 -5.65539
-5.9073 122.998 10.5662
2.97117 120.196 -7.96637
14.6845 145.771 4.63294
-29.0207 103.877 25.4258
9.80842 141.297 7.25698
8.61835 140.277 7.98364
2.21771 119.655 -7.30057
-12.054 117.545 14.1462
-21.6234 90.9832 -3.29723
-15.261 115.706 17.3523
13.0103 144.553 6.12794
-22.3575 90.0824 -3.06578
9.25229 131.169 -4.44458
-8.53863 104.267 -8.41322
-4.68228 109.735 -7.91805
-25.4581 105.782 22.2168
-1.76273 113.545 -7.90833
8.07244 128.466 -5.61495
-0.0342141 128.406 8.00372
16.0697 145.279 2.16567
-27.7717 84.5509 -0.651837
-13.5777 116.148 15.3714
-10.8603 118.177 13.3738
-25.1071 87.2529 -1.69066
-3.9091 124.53 9.78905
8.84415 130.052 -4.75593
10.321 141.388 7.1606
10.9943 141.921 6.76484
4.55524 121.951 -7.57617
-31.596 100.539 26.3732
5.51452 123.56 -7.15332
10.6713 134.289 -2.24831
11.1037 135.871 -0.956115
-30.9927 101.209 26.2662
-19.0119 112.077 19.8067
3.21172 119.707 -8.04116
-15.9524 95.7139 -6.0128
-33.3529 97.384 25.6325
-1.78875 112.829 -8.07334
-13.7542 115.341 15.3136
-18.2371 112.651 19.5147
-10.9685 117.496 13.3941
-17.1684 94.4689 -5.26328
-25.8153 104.847 22.5305
10.7359 141.441 7.13305
-9.76984 101.984 -8.12296
2.24858 118.997 -6.8504
-21.7456 108.179 19.9986
7.78535 129.221 -3.22228
10.9017 134.206 -2.16429
-31.4048 100.305 26.4599
-10.1366 101.429 -8.01932
10.9332 133.859 -2.55045
1.48713 129.41 7.8668
-7.34626 104.718 -8.41087
1.7276 129.659 7.84669
6.50821 128.164 -2.10321
1.73224 118.429 -6.28632
-23.6679 87.724 -2.24941
6.19865 124.736 -5.72675
14.2456 138.915 -1.3559
-25.4616 104.615 22.3797
7.21827 128.684 -2.28389
-33.4419 96.6256 25.8123
-16.9087 112.905 18.552
-7.00251 104.804 -8.38846
13.002 137.085 -1.30934
-30.1326 100.66 25.4373
-6.82159 105.055 -8.3588
6.9552 127.359 -3.36012
2.88699 118.818 -7.27742
14.9177 139.813 -1.01848
10.2703 131.544 -3.63557
8.1612 127.886 -4.63031
9.74426 131.81 -2.32907
3.21991 118.913 -7.564
-17.8754 111.213 18.3252
9.25702 129.098 -4.84898
-10.9016 116.456 13.2905
10.4131 130.816 -4.50447
5.14765 122.907 -5.53266
-9.73011 101.015 -8.08958
12.4068 135.341 -1.97437
-7.56021 119.484 11.6882
14.8141 138.655 -1.81166
16.1591 145.041 4.00174
16.7007 144.521 2.43002
4.61016 121.032 -6.87134
-17.3177 111.389 17.9599
-3.42692 123.523 9.88428
-27.3311 102.793 24.0175
-17.7426 110.745 17.9289
-18.6224 109.654 18.0765
-20.3455 108.074 19.0174
-16.3378 112.335 17.6716
2.93483 118.28 -7.34557
5.23957 122.705 -5.63172
14.1178 137.38 -2.02569
15.7941 141.845 0.796933
10.6599 131.555 -3.48615
7.25005 125.502 -5.38463
-11.2918 98.9301 -7.69378
-3.68385 123.073 10.0509
10.0791 130.151 -4.20428
-27.7498 102.368 24.5435
-0.362067 126.324 8.62259
-35.8988 92.5907 25.9616
9.28364 128.403 -4.95061
-26.1155 84.0617 -1.26382
-11.9562 97.947 -7.57601
-2.73696 123.84 9.66727
12.6421 133.946 -3.49764
10.7093 132.857 -1.60166
6.77171 136.129 9.19907
-26.7356 83.5066 -0.808982
-12.7254 96.9544 -7.39336
0.353341 115.637 -5.82065
5.81919 123.869 -4.60455
15.2508 139.488 -0.747339
-7.78156 118.751 11.9082
16.9957 144.007 2.09382
-16.6978 92.8577 -5.65475
16.6752 144.602 3.48621
13.9407 135.957 -2.82548
-0.858627 112.637 -7.34565
7.99171 125.921 -5.44869
-18.0182 109.299 17.4762
-1.79566 124.458 9.3025
11.5768 132.911 -2.57329
-11.7713 97.7605 -7.60267
11.0299 131.275 -3.68777
2.36529 117.167 -6.904
7.322 136.327 9.00812
-25.1794 84.4095 -1.79081
-27.9221 101.719 24.7858
-26.0688 83.6663 -1.16389
10.8027 128.73 -6.35019
8.35032 126.123 -5.48203
5.731 123.317 -4.56983
-13.5918 95.5875 -7.02258
12.5455 132.208 -4.7764
9.9797 127.627 -6.19946
-3.25323 122.825 10.0704
-24.0552 85.1236 -2.51122
5.89842 125.561 -1.8746
5.52621 134.205 9.80191
9.36628 127.375 -5.32017
-15.6784 93.3549 -6.07942
11.3278 129.037 -6.44985
-31.3231 97.8444 26.0976
12.6684 132.416 -4.34104
5.90712 123.131 -4.65409
-27.1227 101.752 24.0673
-29.3272 99.5263 25.0484
-25.7765 102.511 22.8534
-33.4414 94.8817 26.1746
-35.8528 91.3503 25.7921
-26.4949 101.919 23.4211
-1.51692 110.909 -7.36248
5.50815 133.711 9.66334
4.14972 118.668 -7.06572
-20.4402 88.2593 -4.01093
14.0488 134.631 -3.53349
-16.9088 91.7081 -5.57333
-10.2649 115.419 13.25
5.52329 133.57 9.61616
-22.5537 86.0564 -3.03887
6.83018 125.134 -3.20055
-1.08765 111.215 -7.43764
3.0719 116.636 -7.54587
1.74685 127.708 8.7046
-7.80022 101.635 -8.1507
-1.45466 110.766 -7.29337
-36.5893 91.1348 27.2371
-7.88394 101.482 -8.13502
13.7166 132.819 -4.88934
9.43936 126.518 -5.64064
-2.18412 109.92 -6.99435
-23.0758 104.275 21.221
-21.057 105.697 19.6657
-24.3162 84.1563 -2.08761
7.9104 125.796 -3.80801
-25.8922 82.8493 -0.993492
-29.8132 98.6243 25.5981
-7.32071 117.864 11.989
7.22237 135.023 9.22324
-32.2224 95.71 26.2394
-36.0686 90.9488 26.749
-15.6985 92.1899 -6.06881
2.2402 115.578 -6.73976
10.936 130.309 -2.76589
8.93293 126.937 -3.63656
4.02482 131.573 10.5333
0.89243 114.219 -6.10023
16.4923 143.574 4.79232
-20.2617 87.4211 -4.11088
-18.7832 88.8477 -4.79212
8.38361 135.143 7.99088
14.1466 141.986 6.92114
-21.3976 104.877 19.9844
-1.67283 123.023 9.7525
5.81936 124.663 -0.797668
-26.5238 81.4797 -0.827351
11.1961 138.436 7.56172
-7.93099 116.668 12.3709
-3.9878 120.615 10.7298
7.78044 126.84 -1.20037
13.8693 132.411 -4.38265
11.4841 127.993 -5.89677
9.04943 127.021 -2.96863
11.1619 126.849 -6.70623
9.41861 126.153 -4.6218
13.6197 131.965 -4.35042
7.15825 126.957 0.290461
-3.4538 107.368 -6.55673
4.51001 119.983 -4.00364
6.88029 126.98 0.868989
13.6646 131.935 -4.27186
7.79557 125.368 -2.63358
7.64278 134.357 9.04327
-11.5403 95.7226 -7.41603
5.32358 132.245 10.3494
17.7306 142.249 2.13955
-20.003 86.87 -4.1732
8.02639 124.742 -3.56412
-21.8335 103.797 20.3624
5.08684 119.178 -5.62477
-14.1843 110.226 15.5867
-25.9518 100.847 23.606
-11.5566 112.601 14.225
15.0544 142.047 6.55597
9.20271 126.59 -3.11381
-19.3514 87.4362 -4.3893
9.71482 125.07 -5.81894
-10.9008 96.132 -7.57308
-16.7023 89.8115 -5.6685
2.42333 127.239 9.42391
-12.2441 111.733 14.5991
-11.608 95.2394 -7.33984
-7.83095 99.8992 -7.80765
-24.6689 101.241 22.3424
17.6547 141.297 1.64808
11.3614 126.65 -6.21443
12.4336 138.798 7.53769
9.86631 128.589 -0.989111
-11.9909 111.681 14.5712
-10.3194 113.314 13.8216
-25.7096 80.8155 -1.31652
14.0354 131.888 -3.77471
-0.327442 123.47 9.86582
-7.96164 99.3663 -7.71649
5.90497 132.002 10.2226
11.6712 137.507 7.45626
14.7446 132.824 -3.59632
18.0933 142.353 2.84558
-14.3029 109.453 15.9239
9.17508 128.058 -0.160874
-20.5057 85.4627 -3.93999
7.82239 123.52 -3.59759
7.08595 122.798 -3.25043
5.38863 124.714 2.06611
-3.51959 106.094 -6.39815
-2.12016 121.243 10.4422
-18.0744 106.082 18.2086
3.05466 127.804 10.0499
8.67287 126.046 -1.65372
6.18269 131.872 9.98973
-24.4777 81.9658 -1.39438
-29.2844 96.8812 25.6132
5.79764 131.673 10.431
-4.93793 103.629 -6.9102
13.1182 130.228 -3.72527
5.85556 125.403 2.43912
-23.2211 82.8871 -2.22106
-29.6549 96.4576 25.8168
-35.2114 90.3863 27.5549
7.22147 131.942 8.50611
-16.9672 88.5772 -5.49612
-25.6364 100.027 23.6543
-17.1719 88.3822 -5.34237
18.0657 141.617 2.53747
16.5892 141.898 5.40904
8.40691 124.297 -3.0374
-8.3916 114.612 13.1493
6.05033 124.747 1.60666
-11.4415 94.349 -7.27857
-4.60187 118.293 11.5114
4.5228 130.034 10.9857
-4.66005 118.183 11.5594
-15.8415 89.327 -6.0024
7.8954 132.23 8.22996
-33.6064 90.5611 25.6574
9.45003 127.628 -0.125178
9.87985 124.197 -5.17028
3.63994 116.718 -4.07909
13.8526 139.181 7.11758
18.2498 141.718 2.91292
5.65501 120.357 -2.82715
-18.3542 86.8961 -4.60626
-12.4414 92.8718 -7.00791
3.71284 116.85 -3.87071
9.4473 123.86 -4.66309
-13.4262 109.394 15.673
6.74179 122.855 -1.31421
-16.3355 88.5171 -5.80056
0.661195 123.92 10.3531
-24.6445 99.9131 22.7099
15.7249 140.981 6.57145
-21.2087 102.495 20.247
8.67154 122.98 -4.25626
6.50346 122.825 -0.749373
17.0541 137.441 -0.0460648
-31.5332 93.1921 26.1024
-20.8112 102.695 20.0481
3.27389 127.428 10.6903
-25.7318 99.2873 24.0988
-20.0067 84.7447 -3.96356
4.80562 129.744 11.0897
-14.1693 108.557 16.3567
15.72 133.334 -2.73787
-24.5491 80.3254 -1.71498
12.1881 136.382 7.24888
11.6861 127.157 -3.57143
-18.5374 86.0867 -4.49758
-11.0298 111.112 14.577
-29.8577 94.9614 25.9558
-16.8584 105.915 17.943
10.728 133.714 6.55553
3.57766 128.224 11.732
14.453 138.817 6.86036
11.5447 123.28 -7.73407
11.8487 135.403 7.15993
-0.759041 108.208 -5.93177
-5.20567 101.353 -7.063
12.0753 125.356 -5.82097
3.63764 128.043 11.8698
-31.2821 92.4504 25.9431
9.89344 122.229 -5.89293
-17.9962 104.399 18.6446
-13.4236 90.4708 -6.69957
-8.45884 113.197 13.6809
-0.37144 108.511 -5.88722
-5.74328 100.203 -7.19704
8.62458 129.503 5.64116
5.7997 129.86 10.8632
8.14707 122.044 -2.90194
8.94575 130.494 6.55086
-2.69971 104.852 -6.2217
-12.8809 108.644 15.8386
0.643012 122.875 11.0336
-21.5505 100.99 20.8162
5.65465 129.666 11.1691
3.85853 113.699 -5.94973
-13.7075 107.92 16.4138
-5.52925 115.708 12.469
12.2367 125.348 -5.31492
8.48006 129.497 6.30685
17.2456 140.164 5.13099
0.22536 108.813 -5.74599
3.80496 115.381 -3.46659
-4.34758 101.963 -6.66174
-2.41111 104.927 -6.17519
6.467 123.521 2.41156
7.7845 129.755 8.13148
0.884369 122.961 11.1974
6.56081 124.855 4.03141
12.2978 125.446 -4.8731
14.3549 137.224 6.58808
9.76807 121.702 -5.28217
15.6548 132.138 -2.01462
8.23813 121.738 -2.62823
12.2525 125.625 -4.48675
-6.03692 114.893 12.8207
-13.012 108.036 16.0799
-19.13 83.7492 -4.1566
-16.3607 86.5505 -5.28258
15.2401 131.337 -1.93574
12.1684 126.868 -2.38055
2.56165 125.279 11.8364
16.6349 133.709 -1.25611
-3.54093 117.136 11.9089
-12.1841 90.9423 -6.62885
8.38458 121.547 -2.61695
9.74738 130.433 6.34453
6.81838 120.539 -1.12425
6.73381 123.755 3.09789
4.15819 116.093 -2.22073
9.54476 129.577 5.7686
-5.71025 99.1291 -6.88822
12.0656 126.413 -2.34515
5.60646 127.813 10.4513
-12.1879 90.6345 -6.54244
6.49386 119.563 -1.43486
-20.0242 82.4851 -3.55015
-28.3481 94.0587 25.2065
5.53446 127.556 10.3863
13.7518 128.117 -2.74252
-13.5175 88.8494 -6.36263
13.4684 127.837 -2.58492
17.1999 139.206 5.51984
9.6967 121.56 -4.0892
17.6092 135.803 0.575018
4.16323 115.337 -2.58492
6.77295 128.606 9.82421
-2.53205 117.683 11.7532
8.06476 128.936 8.12215
17.9274 136.509 1.10661
6.51294 128.033 9.76603
9.65425 119.908 -5.76766
12.2987 122.741 -6.59562
4.16861 116.133 -1.19613
-19.6225 101.17 20.0609
8.91418 127.08 4.82862
16.7531 133.086 -0.758578
1.96814 109.532 -5.58947
-16.5411 85.0156 -5.28146
-22.9876 78.4669 -2.6832
6.85869 127.663 9.19812
-19.4481 101.121 20.0373
-30.1042 91.0745 25.4043
-20.3284 81.455 -3.21461
-6.60594 97.1912 -6.46721
-8.40932 111.234 14.3661
8.59553 127.42 6.13953
-7.81048 95.3708 -6.70024
-6.14078 97.7525 -6.49808
12.1233 123.861 -4.29691
11.7747 123.742 -3.76241
-10.9906 91.2062 -6.42869
-2.3145 117.257 11.9381
11.7889 120.146 -8.17468
-0.285403 119.965 11.9868
-22.0907 79.2015 -2.70624
-26.5875 93.7246 23.3128
11.9944 131.841 6.44336
9.90371 128.299 5.53136
-29.9527 90.4705 25.0008
11.3835 119.609 -7.90268
-30.8819 89.299 25.1138
8.67029 122.024 -0.25613
-1.43711 104.083 -5.78511
15.3046 129.95 -1.31256
7.87261 127.86 8.59636
11.2838 123.283 -2.95359
9.31571 122.801 -0.0637995
7.157 119.661 -0.348317
18.5393 138.722 4.56151
12.4827 122.265 -5.98064
0.5988 121.025 12.5279
-0.304681 105.636 -5.41352
7.76391 122.127 1.8412
-26.1148 93.6155 22.9996
-18.4595 101.27 19.7613
18.9747 138.527 3.70233
-0.891968 118.584 12.0739
3.42947 110.828 -5.03114
11.4232 123.58 -2.36428
17.0113 133.342 0.605669
-25.2294 94.3459 22.5978
8.26229 127.597 8.14919
18.0184 138.153 5.07316
10.9286 118.439 -7.89315
10.5399 118.222 -7.47734
16.7632 132.729 0.402472
7.99374 120.97 0.332
-9.89465 91.81 -6.34366
-3.87163 114.859 12.6896
-19.7708 99.8625 20.5972
18.9939 138.272 3.89224
8.88184 122.331 0.844426
0.240461 105.995 -5.2357
-13.6112 86.9504 -5.94554
-22.6478 97.5997 22.8425
12.426 121.777 -5.7562
-12.1212 106.518 16.4024
3.43851 110.277 -5.082
9.48779 119.551 -3.55411
4.56657 125.602 12.4147
7.71836 122.168 2.7605
9.22633 126.872 6.23107
16.5006 132.051 0.52673
7.80545 120.958 1.19445
-21.2502 98.5331 21.8822
16.2463 131.433 0.221822
9.94857 120.128 -3.43971
-24.8875 93.8735 22.2014
8.119 126.077 7.25434
16.223 131.438 0.457996
-23.529 96.5177 23.4181
-27.9877 91.8173 24.9994
7.57899 119.754 0.335938
8.05063 120.799 0.875523
15.6519 129.947 -0.324494
11.0844 122.346 -2.17812
8.66841 120.499 -0.393038
-23.4936 96.1891 23.1684
-28.091 91.2238 24.6747
-21.177 98.3334 22.025
12.2132 124.091 -1.72468
-4.12025 113.971 13.0698
8.72861 125.837 6.39533
-20.9676 78.7062 -3.08126
12.3176 122.18 -4.25755
19.001 137.957 4.4274
3.68917 110.128 -4.88371
-6.24329 111.732 13.9477
-23.5915 95.4954 22.7057
-19.9969 79.8687 -3.10784
-7.35968 94.2808 -6.12883
-4.17993 113.75 13.1724
14.6352 133.567 6.49022
3.25292 109.25 -5.0137
15.874 130.965 1.18046
1.23136 106.651 -4.83901
2.68828 122.936 13.3095
9.29898 121.885 0.82002
10.9173 128.539 6.53459
10.8866 121.709 -2.01167
-22.2448 97.2142 23.0305
-5.70479 111.979 13.8024
14.2622 126.98 -0.907541
-5.22494 97.0477 -5.88017
7.51205 118.994 0.405028
-17.4148 100.946 19.7078
9.2431 121.712 1.01892
-27.674 90.7758 24.228
1.91271 121.79 13.525
9.51223 125.05 4.82803
-22.652 96.4047 22.896
17.9034 136.903 5.67513
10.9644 128.189 6.50805
4.47008 111.125 -4.10636
-19.0185 99.4704 20.8543
16.5989 135.796 6.69191
16.8514 135.956 6.50008
8.77332 121.55 1.95971
9.89041 118.469 -3.74651
12.4304 123.197 -2.02275
17.3155 135.993 6.02288
8.78759 123.424 4.55206
-4.15583 98.0653 -5.68193
-18.0571 80.8416 -3.97813
-27.4862 90.3461 23.9794
-0.651253 102.951 -5.29048
-7.11909 93.7639 -5.99506
16.6721 135.444 6.5982
-5.11509 96.6014 -5.68792
16.0084 130.269 1.27103
-26.7582 91.2101 24.1715
10.7626 120.538 -2.03014
-15.398 82.7922 -5.50445
-22.3063 95.1651 21.9018
-23.69 93.113 21.6665
-3.30034 113.624 13.2902
-18.9307 79.49 -3.489
-4.13623 112.709 13.6098
-16.1088 81.9905 -5.03989
-28.9202 88.8354 25.3108
10.8233 120.09 -2.09186
-20.537 97.6971 22.5639
11.4196 128.145 7.15254
7.66928 124.242 8.5627
-12.6594 104.159 17.4897
4.22302 110.206 -3.36099
14.6663 132.082 6.84378
13.2458 130.016 6.64188
-9.1051 107.476 15.8786
10.1389 117.847 -3.47889
8.86985 124.122 6.63715
-29.0554 88.7136 25.9268
17.0702 131.217 1.85454
7.70205 124.066 8.67994
-0.295138 102.536 -4.99039
-21.3089 95.9454 22.1544
-13.2193 84.9137 -5.40919
6.3347 116.177 1.17277
-28.2424 88.3033 24.3024
9.15666 122.093 3.97351
9.11746 122.375 4.40135
-4.57086 111.616 13.993
-8.50601 107.687 15.7037
9.17746 121.962 3.9134
10.6911 126.002 6.52172
-23.8956 91.8601 21.723
9.68055 123.153 4.66196
-15.4353 101.136 19.2328
-0.788419 116.124 13.5187
17.2025 130.89 1.92096
13.5599 123.161 -1.70489
15.4288 127.491 0.644293
0.674513 103.575 -4.69119
18.2208 133.241 3.23878
10.7859 117.628 -3.96164
7.63237 117.65 1.43079
-9.70743 88.6817 -5.89702
9.59594 119.123 0.059502
-25.8593 90.5712 23.8155
-26.9874 88.9507 23.7749
14.3882 124.269 -1.34362
-28.3559 87.9383 24.8656
-12.1989 85.5294 -5.39779
4.0018 109.402 -2.5279
7.77436 123.203 8.59402
15.0142 126.254 0.238688
17.9704 134.151 5.24069
9.13924 121.258 3.86259
7.98285 123.146 8.24474
-17.7176 79.0901 -3.96852
9.37941 122.482 5.20223
14.6609 130.768 6.83369
10.64 118.303 -2.11731
10.2104 124.108 5.98879
9.31111 120.472 2.94401
-6.116 93.3408 -5.30402
-21.8309 93.7162 21.7128
4.83662 110.897 -1.54387
-18.9834 77.3222 -3.67199
-28.6092 87.7619 25.9413
9.12675 120.143 3.36364
-15.2583 100.381 19.5348
-2.90482 97.8373 -4.44074
17.8739 133.25 5.29947
-15.8922 80.0461 -4.97793
10.2176 118.067 -0.937545
7.4194 122.19 9.02687
3.09988 106.429 -3.60482
8.61614 121.831 6.69211
8.5432 118.443 2.60302
15.5058 125.163 -0.634049
3.50701 120.859 14.1808
10.3946 123.123 5.45206
17.0177 128.155 0.662137
17.1344 128.285 0.668246
7.93967 120.981 7.07031
0.316381 116.553 14.3574
-3.38914 96.6801 -4.50636
-16.8137 98.8284 20.8806
18.5769 131.502 2.48281
10.7968 123.917 6.02563
-19.7683 95.3711 21.5629
9.36862 118.455 1.57792
13.1436 127.781 7.00575
18.7046 133.434 4.80433
6.55702 122.534 11.5419
7.17676 119.442 6.61267
6.89019 115.83 2.55398
7.1213 119.404 6.78766
7.07894 119.218 6.70152
5.09208 110.435 -0.948943
-19.643 94.9377 21.3989
-14.2752 81.1818 -5.05244
2.30161 104.433 -3.61299
10.8258 117.381 -1.6198
9.29814 117.906 1.78189
1.71717 117.935 14.6303
8.59282 118.169 3.33539
-6.06986 92.0135 -4.93581
6.17634 115.087 3.63876
15.0297 122.772 -1.58073
12.9559 127.07 7.37588
8.60814 118.7 4.20316
-2.73436 111.772 14.6159
-18.5078 96.3493 21.7639
18.965 132.569 4.33155
10.7057 122.012 4.9827
15.1877 122.779 -1.54434
-5.60168 92.4548 -4.78574
7.62643 117.187 4.22821
-12.1796 102.192 18.7011
11.832 117.118 -2.94005
-17.1611 77.1811 -4.1128
2.93772 105.058 -2.68957
6.51087 118.244 8.01529
6.39356 121.307 12.1274
18.796 131.574 4.19803
14.6341 121.366 -1.65734
10.9036 117.707 0.0295524
4.8858 120.403 13.6283
0.465488 100.641 -3.9146
10.6196 121.238 5.03608
15.5966 122.625 -1.4828
-3.08619 95.6879 -4.01207
0.95299 116.115 15.0682
-3.96353 94.1438 -4.41143
-2.07343 97.254 -3.63371
10.9642 116.859 -0.829636
-7.36501 106.13 16.553
-14.3071 79.9367 -4.84895
5.78662 111.812 1.67397
6.8178 117.253 6.83014
17.2043 125.101 -0.685716
5.33836 113.464 4.67649
18.9315 130.44 3.2282
16.0638 123.005 -1.30944
10.6596 120.898 5.20618
-14.6059 79.2417 -4.83383
3.24556 106.121 -0.953125
17.0798 124.611 -0.829893
4.92279 119.827 13.6926
11.0497 117.571 0.536284
-10.689 84.0494 -5.0197
-15.1451 78.1271 -4.94962
-25.995 86.6258 24.1371
6.97624 115.338 4.83336
-13.7003 80.2253 -4.68665
4.34157 119.131 14.0832
6.87691 117.378 7.6083
-10.4623 84.2428 -5.03765
6.6005 120.337 11.8548
-9.57884 103.635 18.0636
13.6477 126.457 7.7801
12.8326 124.584 6.89242
19.1398 129.275 2.18931
-15.1912 77.8155 -4.93823
-16.6585 76.4306 -4.19565
15.7753 126.973 5.01056
15.9793 121.984 -1.51863
-9.45719 103.587 18.1557
6.90644 117.569 8.4138
-22.7493 88.5642 21.8426
5.68162 112.77 4.46932
-23.2431 88.2024 22.3156
-8.41102 86.5826 -4.73558
7.00066 117.299 8.15412
10.604 118.863 4.06465
-1.66516 111.555 15.5782
-13.9455 99.0203 20.5093
15.1633 127.099 6.93307
-2.91292 109.807 15.619
4.58738 118.453 13.9967
-11.0588 101.79 19.3386
16.7894 126.805 3.99205
-14.9265 77.4442 -4.86837
5.73372 113.018 5.27172
-13.9885 78.768 -4.70706
6.66136 119.333 11.7587
-0.603079 98.043 -2.87923
1.30219 115.119 15.5189
1.30621 100.871 -2.50056
4.64175 107.76 0.721137
15.3639 125.425 5.02699
-3.84135 92.7216 -3.90201
15.22 125.72 5.67429
6.09764 111.487 3.07267
-7.3184 87.6579 -4.41236
4.26844 107.209 1.0747
-24.8 86.3966 23.8548
12.4459 121.916 5.93563
11.723 117.199 1.19112
5.79351 113.154 6.13344
14.8082 119.429 -1.12252
-1.87304 95.4542 -3.22647
-25.9849 85.7421 25.2546
3.04619 104.266 -0.293499
-0.343764 112.441 15.8524
-24.2321 86.5675 23.4551
-20.6949 89.0312 20.6891
-24.3812 86.4248 23.6787
-21.1321 88.4833 20.8803
5.99982 118.298 12.8178
6.20245 109.669 1.55877
-1.7236 110.493 16.0262
-10.7396 101.332 19.6871
6.8934 114.638 6.84897
3.63765 106.237 1.80264
5.34465 117.612 13.3631
-8.43213 103.393 18.7098
14.0593 124.67 7.77441
1.84608 101.405 -1.03288
18.6678 125.136 0.658835
5.73381 117.65 13.0366
17.5636 123.252 0.19672
-14.1557 77.0261 -4.70653
-4.85044 90.0704 -3.83978
1.08485 99.0248 -2.44005
-18.6433 91.3054 21.1099
7.53917 116.343 8.59089
4.08741 116.058 14.1108
-12.6695 79.0583 -4.37742
3.94188 115.901 14.2336
-19.9546 89.0069 20.5511
7.60631 115.651 7.89594
5.35286 108.21 2.51819
-11.871 99.4915 20.5937
17.3648 122.143 -0.0655878
5.13684 107.914 2.60839
7.67352 116.028 8.70532
3.13518 115.055 15.1865
-23.8762 85.9865 24.0392
-11.2421 99.9512 20.4247
-2.19217 93.5106 -2.97668
-10.0355 101.123 19.938
4.02366 106.344 2.87233
12.7219 120.735 6.58321
-3.85297 90.7057 -3.38893
6.13222 109.189 3.24713
-9.49553 82.4123 -4.24791
18.4616 123.999 1.2091
12.5593 115.616 0.633785
-2.99207 91.9842 -2.96727
-24.5093 85.1031 24.6911
-1.78458 93.739 -2.74929
-10.2805 81.1663 -4.24445
17.0984 120.209 -1.02681
1.17064 98.1148 -2.06111
-16.5521 92.7991 21.1984
3.90152 105.683 2.97727
-10.4976 80.7785 -4.13184
6.8487 110.391 4.08275
17.3468 120.794 -0.452865
2.72014 102.794 1.52002
18.4089 124.474 2.50565
-6.31773 104.186 18.5959
6.43906 116.036 12.0578
-3.40294 106.953 17.2564
3.72076 104.861 2.76518
15.3984 123.3 6.45094
18.4174 123.408 1.62609
6.83193 109.951 4.27727
3.75055 104.717 2.86202
-0.163316 110.38 16.6481
7.5407 114.739 9.24215
-4.44822 105.683 18.0256
-6.6469 103.344 18.8557
15.9836 122.89 5.51221
6.14142 114.98 12.2134
-15.6989 92.7803 21.0306
17.331 119.469 -0.882166
14.5329 122.348 7.54115
7.35194 114.602 9.87508
6.94106 115.011 11.2445
-9.47475 100.081 20.1988
-4.27124 88.6205 -3.08867
1.60784 98.0763 -1.037
-21.3049 85.8375 22.1677
-7.73406 83.6702 -3.46749
12.9254 118.326 5.51061
-7.28283 84.2723 -3.43147
6.96869 112.012 7.63266
14.5906 122.067 7.49288
-10.2836 99.0144 20.4513
-20.7788 86.0309 21.7431
17.6992 120.244 0.0929442
-3.69275 105.634 17.7402
17.274 122.728 3.99908
13.0024 117.798 5.04122
-0.267485 109.359 16.8847
13.2397 117.621 4.56791
-8.05689 100.872 19.4904
6.06081 108.25 5.04935
4.47808 105.885 4.79247
-6.66766 84.6322 -3.24806
-3.75816 105.169 17.8295
7.62889 113 8.70976
13.3434 119.534 7.33256
-16.4504 89.7549 19.9634
2.43521 100.494 1.81435
-19.7985 86.0808 21.2083
18.7259 122.34 2.06097
-6.70941 84.2617 -3.16268
-9.67151 98.8192 20.3716
-21.5905 84.8049 22.7701
4.31826 111.928 13.3915
6.88235 113.704 11.3428
13.7287 117.052 4.02263
-19.0548 86.4716 20.763
3.18054 101.905 2.78976
-21.2214 84.9707 22.5661
4.5633 105.363 4.83965
17.3348 122.002 4.38464
-17.7917 87.5065 20.0717
-0.551022 93.7137 -1.17873
-15.7589 90.1875 20.0426
2.29393 111.127 16.0663
-12.5368 76.3122 -2.91054
0.0363184 108.822 17.0492
6.49528 108.546 5.8959
4.56489 105.066 4.7654
-22.1579 83.807 22.9956
-12.8668 94.0448 20.3012
-21.7881 84.1005 22.7986
-1.87354 106.468 17.4805
-7.17952 100.674 19.1533
-14.3869 91.6242 19.9907
15.9875 120.853 5.75252
-13.6368 92.5075 19.9978
-9.93429 97.7278 20.3857
16.403 120.482 4.84922
2.48908 99.2217 1.56927
13.3593 117.485 6.42335
-9.91485 78.6961 -3.36309
4.54575 104.172 4.48757
4.48376 103.904 4.40553
16.1677 119.997 5.06239
4.51903 103.826 4.49963
-8.73281 98.2609 19.9394
3.67244 101.815 3.50471
-0.91682 106.653 17.3812
3.3723 109.836 14.1783
2.72919 109.783 15.2225
-1.83675 105.628 17.6889
-10.056 96.4039 19.9186
-9.55212 96.9845 19.8684
-21.1725 83.4016 22.3067
7.38971 110.802 8.86604
-14.7278 89.3907 19.1379
16.7584 120.323 5.18538
-15.395 88.1958 18.9401
-14.1749 89.9238 19.0925
2.85933 109.425 15.0693
13.7824 117.944 7.46336
-8.28919 97.993 19.7587
-10.0995 95.3188 19.4619
-20.3338 83.4859 21.771
2.69423 98.6198 2.11311
-17.0115 86.204 19.8411
-12.3313 91.7596 18.9931
-0.408709 106.395 17.4433
7.24108 109.993 9.16017
-1.96842 89.0361 -1.56495
-0.465979 92.1185 -0.180023
-16.8514 85.7189 19.6529
3.35127 108.475 14.4262
-7.51371 98.1097 19.6712
4.63216 102.653 4.95356
-1.27707 104.684 17.5406
-0.417889 105.681 17.4425
-9.42106 77.899 -2.41578
-7.34802 97.9855 19.5942
-16.0814 85.9785 19.1475
-0.179974 92.4666 0.639963
-9.74874 94.1326 18.9652
-1.55696 89.1907 -1.06184
-18.649 83.3308 20.4913
-16.1136 85.6481 19.154
18.6346 120.617 4.77891
-8.39043 95.8404 19.0629
4.57969 108.017 12.6223
-2.30414 102.566 17.4257
5.57043 105.584 7.992
-1.13478 104.027 17.3489
-2.87389 87.0925 -1.10621
-1.9385 102.863 17.3431
0.592316 93.5214 1.27552
15.6016 117.976 6.87932
-0.00565735 92.6424 1.1741
-7.89168 96.279 19.1011
-4.36825 100.545 18.5918
0.311791 93.0899 1.27005
-8.80463 94.8214 18.9198
4.05014 107.666 13.4839
3.12512 98.3507 3.27476
-3.29254 101.397 17.972
6.74967 108.034 9.45696
6.06014 108.762 11.5485
19.2659 120.188 3.80712
-5.28573 98.7937 18.226
-12.7589 89.0685 18.8455
-9.9559 76.3082 -1.83687
-4.51496 84.1003 -1.13477
16.9557 118.671 6.37174
-8.19532 78.6605 -1.72044
3.15379 97.4704 2.95106
4.45586 107.123 12.9746
19.0691 119.329 3.8152
-1.72906 88.3617 -0.24381
-5.22091 83.0789 -1.0144
-1.3005 89.1461 0.141579
-17.9969 82.4476 19.9562
-12.3908 89.0091 18.8315
-3.73256 84.8998 -0.94031
-6.49448 96.994 19.1353
-6.12962 81.1136 -1.46938
-14.473 86.0342 18.9825
-2.89154 100.568 17.8445
-12.3848 88.6099 18.7974
-2.03588 101.22 17.4232
-3.12586 100.064 17.9724
-6.34256 96.5319 18.964
6.02561 105.499 9.57698
-3.21449 99.3694 17.6981
2.65756 95.6645 3.12011
-2.45569 86.6478 0.41107
0.632114 103.634 16.7652
1.25492 93.2796 2.6382
5.52784 106.039 11.6166
-7.06924 94.7662 18.7276
3.26638 96.5366 3.52254
6.14541 105.509 10.1652
3.46819 105.114 14.2354
0.389892 102.954 16.7593
1.9421 104.143 15.8302
-2.67459 85.6989 0.354051
0.73612 92.0729 2.78263
-1.42294 100.611 17.2507
0.288073 91.2229 2.65243
-5.4072 81.4244 -0.127858
3.78566 97.7331 5.003
6.22092 105.322 10.4942
5.38527 101.383 7.02159
-5.85718 80.5465 -0.172219
-1.40341 100.137 17.2197
2.37364 94.5376 3.76602
-16.2524 81.8872 19.3284
0.777218 91.7319 3.07249
-13.603 85.1112 18.9963
3.33769 104.009 14.3939
5.19336 102.694 9.74277
-15.0472 83.1815 19.287
-0.726025 100.39 16.9379
-12.4514 86.1596 18.8171
-2.07004 85.9341 1.04406
3.78541 96.6447 4.77372
3.89267 103.42 13.2218
-11.9003 86.6987 18.7489
-1.90404 98.0604 16.6715
-0.434266 88.7617 2.45493
3.2672 103.137 14.4367
5.37105 103.22 11.0093
-5.25016 80.5555 0.494063
-3.2709 83.3577 0.797731
-1.42432 98.3516 16.671
-5.44807 80.0278 0.443978
1.20472 91.4648 3.69521
5.15941 100.05 8.02517
-6.46596 78.2656 0.107926
-4.94315 94.8269 18.5413
-3.74624 95.8073 17.8022
-0.0811705 88.8608 2.912
5.05616 100.414 8.86951
-0.102912 88.7967 2.89457
-15.1132 81.2887 18.8287
-13.4387 83.4116 18.9347
2.11546 92.7802 4.56226
-9.38644 88.41 18.4742
1.62393 91.5926 4.13388
0.599286 99.1806 15.5729
4.96737 100.134 9.52973
4.5365 100.735 11.3668
0.558629 89.2642 3.65036
0.505479 98.6982 15.708
-10.5957 85.9464 18.5557
-11.803 84.3374 18.5635
-14.1209 81.0856 18.491
-4.49326 93.7027 18.3311
4.45446 99.5442 10.71
4.46069 99.4639 10.6968
4.31598 100.987 13.0605
-0.517054 86.2699 2.66492
3.87343 100.772 13.7238
-6.51034 76.3792 0.390145
-9.27479 86.8454 18.3331
-11.4637 83.8134 18.3551
4.19601 99.2648 11.4784
-11.8014 83.3438 18.4281
-2.63348 82.5838 1.98804
4.98191 98.671 9.50994
-6.22973 90.4837 18.2064
-1.84217 83.5009 1.96832
2.82173 99.8016 14.7519
-3.02469 94.1473 17.5542
-4.05798 79.7539 1.30318
-0.473293 96.5091 16.5022
-5.39769 91.1282 18.0214
4.00537 99.182 12.5034
-0.871194 95.912 16.638
-1.50031 95.1577 16.8473
-12.713 81.3599 18.354
0.258854 96.8961 16.1358
0.676829 97.2195 15.9184
3.80632 99.3371 13.3702
2.35789 91.1192 5.52044
-4.42641 78.8773 1.57617
0.331767 96.6744 16.089
-1.56042 83.9499 3.20831
-5.60363 90.0167 17.8746
-2.37483 93.8448 17.2934
3.56764 99.3042 14.1783
2.1725 90.5652 5.47932
-3.62238 92.3494 17.6581
-9.10799 85.209 17.8924
2.30535 98.1287 14.989
1.1596 88.4899 4.75427
4.32932 98.1401 11.7296
2.76357 98.197 14.4824
-6.61359 74.8884 0.912143
-3.19283 80.1979 2.04544
4.73185 95.8556 8.57896
-0.632202 85.2245 4.26653
-0.277495 85.6375 4.43496
-1.92148 82.3171 3.01428
-4.136 90.5838 17.4313
-2.11458 81.7817 2.99831
-1.85326 82.9727 4.45168
4.63185 96.5856 10.7314
3.63928 96.8731 12.9759
4.26358 97.1323 12.3633
-0.283847 85.2517 5.08032
-2.52947 80.7228 3.23982
3.00266 90.8654 6.88689
1.3115 95.3925 15.5205
-5.35837 87.769 17.2194
2.69873 90.2117 6.7421
-3.213 90.6306 17.2648
3.47357 91.6764 7.32976
-2.52304 80.8301 3.77453
1.0786 94.9274 15.6061
2.21285 89.2459 6.59296
-5.05379 75.5824 1.90355
4.25314 93.2527 8.5503
-5.50463 74.8069 1.68484
-2.46988 81.1746 4.61945
-1.09421 92.4777 16.6756
0.68565 93.5771 15.1177
2.91041 95.385 13.7052
-11.7583 79.277 18.1117
1.32004 87.3247 6.63428
-5.59021 86.136 16.823
1.0063 93.2366 14.7747
2.24673 94.4153 14.2973
-6.80263 84.1913 16.7355
2.04068 88.6927 7.69181
-1.59599 90.8067 16.6891
0.222769 92.1747 15.5578
-1.42197 90.7613 16.5852
-7.50576 82.4715 16.6123
4.08846 93.7257 11.4607
0.578123 85.6356 7.17788
3.88398 91.8461 9.51789
-2.67935 78.7921 4.25609
3.87839 91.7444 9.79607
1.84815 88.1198 8.97534
-10.1417 78.6675 17.4192
-6.96916 81.9261 16.2908
4.17843 92.4016 10.7603
2.90084 92.0908 12.621
-0.782767 82.7343 7.02491
-1.82611 79.8407 5.22434
0.429137 90.7011 15.337
-0.440507 83.6275 7.93709
-6.10767 82.4073 16.0124
2.34087 88.6282 9.68539
-5.53165 82.4642 15.8366
-3.42519 76.0469 4.19441
1.02984 90.1959 14.5928
4.12433 91.5592 11.1309
2.51044 88.4722 9.98686
0.798696 89.9436 14.9
-8.65622 78.7822 16.8084
1.48581 86.6611 9.9226
-7.43376 79.81 16.357
1.89143 89.6879 13.1198
0.766881 89.4358 14.8633
-1.18651 87.5407 15.8876
2.71601 88.308 10.3194
0.830111 85.4173 9.88914
-3.2943 75.5421 4.41106
-2.1677 77.6619 5.37776
0.832134 84.6993 9.38002
1.36011 88.9759 13.9335
2.36641 89.0805 12.467
-4.57465 82.2038 15.5696
0.0209722 81.2696 6.7484
3.52947 89.3766 11.1714
-0.424057 87.2013 15.365
0.559969 87.7486 14.6468
-0.439335 86.9251 15.314
1.41275 88.2278 13.8389
1.27418 85.0333 10.245
-2.31901 84.5237 15.7921
-0.757793 86.243 15.3614
-3.54843 82.1108 15.0097
-2.7872 75.1409 5.00327
-6.09569 79.2708 16.0365
2.15086 86.1715 10.894
-2.20102 76.0725 5.61256
0.00728625 79.7414 6.66573
0.68043 86.1457 13.7643
-0.756784 84.5839 14.7517
-0.873189 84.2779 14.6209
2.04142 86.1412 12.2021
-0.289073 82.4806 11.5754
-6.07275 78.0765 15.7997
2.09337 85.9147 11.9648
0.724461 83.9772 11.8381
2.69977 86.2303 11.3934
-0.834079 82.7991 13.284
-2.05784 82.3096 14.986
-3.66081 80.2482 15.1588
-1.22448 82.6685 14.2226
1.3246 83.2525 11.135
-4.90275 77.7479 15.0294
2.09336 82.1481 9.02956
1.78011 81.3488 8.69424
-1.99265 80.6959 14.4073
-0.827775 80.6308 12.6038
-0.973423 80.881 13.5737
1.51417 80.1163 8.54685
-2.96293 78.9024 14.8837
1.67105 80.0634 8.77525
-1.54459 79.1392 13.1217
0.60074 80.3681 11.1545
-0.201864 79.6436 11.7631
0.555929 77.2169 7.67193
-2.76472 78.2272 14.6177
1.14466 79.9782 10.8168
1.96756 79.5125 9.96001
-2.32971 76.819 14.1131
0.476913 76.0707 8.42754
0.538123 75.9651 8.55295
0.42954 75.7302 8.61246
1.29847 78.6593 10.9446
0.928777 76.2676 8.70138
0.971159 78.2758 11.3983
-0.655247 76.7206 12.8977
0.215296 76.2635 12.4725
