ply
format ascii 1.0
comment Created by Open3D
element vertex 1761
property double x
property double y
property double z
end_header
16.1047 113.198 -16.5658
-8.20358 123.825 -9.12192
24.7502 107.919 -17.0839
-18.7348 120.826 4.58044
5.20863 118.988 -14.5051
-12.8688 118.986 1.88969
14.6083 104.742 -3.31712
-12.6625 118.898 1.94629
11.7033 105.141 -1.17029
26.2815 106.429 -16.149
-0.81734 109.758 3.84396
-16.4678 125.079 -3.02273
-13.8588 119.082 2.9294
31.0784 102.694 -15.2238
8.13991 106.542 0.282832
-19.7994 123.903 1.7462
-3.82986 121.44 -9.3063
37.5057 96.2516 -12.1256
18.4704 112.17 -16.7508
-13.2049 125.497 -6.33747
-12.2138 126.359 -8.39489
-21.1759 122.113 5.5835
-14.8086 124.327 -3.1366
-16.9935 120.345 4.32053
30.5171 103.387 -15.4096
23.208 98.3442 -1.84928
-16.4526 119.684 4.7603
-14.8636 120.308 2.46368
33.9967 99.8398 -13.6517
0.802133 109.534 3.12296
-12.8927 125.77 -6.71994
-18.7049 118.899 8.00204
-18.6683 126.239 -2.10463
-16.261 119.021 5.68841
-2.58947 110.771 4.64809
-6.37709 123.193 -8.99657
7.44137 107.095 0.64199
1.20164 109.657 2.78705
-13.3045 125.578 -5.94765
26.0434 95.9007 -0.797615
0.625144 119.701 -10.4864
25.4904 107.62 -16.3477
-13.1829 119.593 2.26444
41.2471 90.8028 -7.4673
-12.3222 119.11 2.23346
18.5193 112.637 -16.7893
16.4579 113.992 -16.7089
12.7288 105.297 -1.33824
-13.2268 124.129 -3.69642
0.158995 109.983 3.63608
-7.34499 124.309 -9.25153
-17.3264 126.746 -3.55457
18.5699 112.743 -16.7964
14.3035 105.487 -2.91332
40.253 90.576 -5.90803
-13.5517 119.714 2.78616
33.8394 100.599 -13.7949
-13.7246 125.521 -4.95545
40.1424 92.9266 -8.94282
9.09381 117.279 -14.2292
34.8333 99.7392 -13.4184
24.6333 97.2255 -0.646617
-13.2745 119.987 2.40936
-11.894 127.442 -9.06372
-6.38786 123.86 -9.04807
12.3761 105.743 -1.11528
32.2466 93.9419 -2.89292
21.2132 111.633 -17.2059
-10.7536 126.601 -8.8033
-16.1097 120.961 3.8424
29.3652 105.023 -15.4378
41.5492 90.8149 -6.91445
12.5083 116.568 -16.0045
-17.4816 127.075 -3.25255
20.0642 112.273 -16.9019
33.8155 101.03 -13.859
21.25 111.748 -17.2007
2.04742 110.344 2.20246
-13.7187 125.486 -4.30702
38.7556 95.4033 -10.4602
6.41014 119.483 -14.2526
-18.1808 127.113 -2.40885
9.91411 117.294 -14.3626
32.204 94.2138 -2.78201
1.78056 120.51 -11.3674
12.9404 105.914 -1.39022
36.4357 98.0072 -11.7579
6.89278 119.183 -14.0946
-0.0373629 120.601 -9.759
-15.5425 126.683 -4.06739
-15.6876 127.03 -4.37661
-10.4923 118.637 2.46715
-2.58464 122.061 -9.3455
29.6964 105.099 -15.2481
41.2827 90.6314 -5.84112
19.0263 113.326 -16.8282
-7.89484 125.85 -9.64017
-19.1992 120.52 7.93384
4.6489 109.676 1.24179
34.3891 100.97 -13.7002
-19.7555 124.281 3.31805
-6.02127 114.301 4.61352
-7.84734 115.653 4.42925
41.598 90.7003 -6.06531
-0.723453 120.911 -9.25006
18.9539 104.828 -4.9578
39.792 94.0373 -8.96149
5.66849 120.34 -14.1638
-9.46553 126.956 -9.53443
-14.8769 120.008 4.95821
6.68001 108.667 1.04191
-12.794 125.04 -3.76181
1.34159 120.786 -10.6995
-15.3735 121.155 3.95916
21.8883 102.07 -3.56015
-10.2939 127.828 -9.80706
26.2713 96.9726 -0.491321
40.3725 91.2282 -5.3498
17.5295 114.85 -17.0475
41.7177 91.079 -6.27986
-14.5562 125.746 -2.91866
14.4176 106.795 -3.07337
12.6517 106.528 -1.09336
38.8111 92.0943 -4.9238
29.7957 105.384 -14.9928
-19.4142 124.579 3.24035
-1.14389 111.825 4.24679
28.7923 96.4189 -1.67274
15.8645 116.246 -17.2015
41.6188 91.4995 -6.48209
-13.7232 126.036 -3.80411
7.2862 119.43 -13.7501
39.39 91.9328 -5.0353
36.8008 98.2466 -11.3278
-9.46759 127.869 -10.1293
8.08244 119.005 -13.812
-7.84885 116.023 4.73974
17.1385 115.483 -17.1332
19.1906 113.947 -16.8754
24.6687 98.5937 -0.674355
-12.503 121.268 1.84437
3.68447 121.479 -13.0228
40.5504 93.3585 -7.75722
17.1066 107.04 -5.29237
26.8357 97.0814 -0.413306
14.5135 117.187 -16.8801
35.2102 93.5492 -3.1185
19.9435 113.669 -16.82
20.1963 104.696 -4.71198
-9.22303 128.121 -10.231
-11.0488 119.889 2.76835
-12.4744 121.307 2.11188
14.506 117.345 -16.8592
15.4018 108.106 -4.96886
-11.5731 120.249 2.79475
21.796 102.986 -3.68449
19.3859 114.19 -16.894
35.3982 100.631 -12.7105
22.245 112.666 -17.3322
4.82923 121.485 -13.6585
-18.5068 125.594 1.95077
-7.57035 116.289 4.84778
40.6383 93.487 -7.47915
-9.69723 128.678 -10.2462
27.5502 97.2295 -0.734363
-6.80613 115.607 5.14242
40.0975 94.3657 -8.1198
21.2893 103.793 -4.03219
16.6189 116.54 -17.2832
-10.7126 128.592 -9.0871
1.59267 121.684 -10.6562
10.5077 107.963 0.148963
32.6087 95.198 -2.3076
40.393 93.9924 -7.70114
15.1023 117.337 -16.8551
-6.83441 126.386 -9.4115
17.2302 107.606 -5.33286
-10.6745 119.886 3.08553
-12.7963 121.26 3.1233
10.6465 118.971 -14.9443
-1.52526 112.939 4.39816
7.83006 109.335 0.880389
6.77241 120.58 -13.568
8.75003 119.722 -14.1722
40.8643 92.6975 -6.05021
0.605568 112.605 3.10462
12.8018 118.385 -15.8937
14.6605 108.608 -4.11447
-11.3549 120.765 2.80396
18.64 106.787 -5.14791
-14.8625 128.124 -4.11288
-18.4739 126.136 1.93865
-13.2344 127.022 -4.0051
39.5371 95.6756 -8.71368
21.4689 104.203 -3.97163
-9.83152 119.45 3.48869
34.1961 102.644 -13.2898
26.6122 108.744 -14.7238
38.401 97.7332 -10.2575
13.4539 118.587 -16.268
25.9619 109.59 -15.2245
38.6034 97.239 -9.6931
-5.13892 125.818 -9.30928
-3.18699 113.871 5.44864
4.39315 111.759 1.54238
-2.94402 124.344 -9.08752
15.1743 109.306 -4.82349
39.9434 95.2286 -7.86622
3.83702 122.476 -12.5669
-13.4875 127.02 -3.10422
-10.4737 129.757 -9.58687
40.4446 94.1897 -6.82363
23.676 101.761 -2.03028
31.2351 105.454 -13.9449
-16.7195 120.775 8.45472
34.1184 103.007 -13.1607
-10.5835 120.383 3.46047
-13.496 126.639 -2.46164
-17.7325 128.016 -0.494867
3.87717 122.603 -12.5498
25.9676 109.967 -15.1531
15.6211 109.394 -4.9583
16.7413 117.268 -16.7853
23.578 102.23 -2.2731
-12.535 128.546 -5.68673
-17.4465 128.893 -1.69237
23.3709 102.688 -2.60308
6.09056 111.329 1.19593
13.1379 119.201 -16.0078
-18.3234 127.101 1.67123
-12.1418 121.683 3.54215
-12.7058 121.133 4.87094
14.2024 109.566 -3.60722
-11.823 121.54 3.63798
-2.53156 124.568 -8.87107
-8.74668 119.32 4.00571
-3.02591 114.584 5.35915
-10.4653 129.802 -8.75654
36.7868 100.372 -11.0535
21.3864 114.955 -17.1437
39.4596 93.8233 -4.37689
-18.2918 127.399 1.80388
-5.54494 126.923 -9.06943
10.9651 120.257 -14.8605
34.7446 102.926 -12.5625
-12.8619 128.529 -4.58267
12.362 109.051 -0.638595
-5.99842 117.051 5.04102
-12.9364 122.06 4.44415
-4.74733 115.87 5.57137
-13.7354 121.14 6.52591
11.1696 109.372 0.196471
25.9057 100.019 -0.278227
30.8338 106.294 -13.2517
27.0243 109.382 -14.0458
8.40088 110.73 0.976934
-15.7686 121.358 8.3149
3.4458 113.133 2.24565
-4.64882 116.124 5.54719
7.57029 121.654 -13.0965
-18.3237 127.661 2.12537
-1.4959 124.356 -8.56629
24.334 102.171 -1.4372
24.2368 102.36 -1.59745
14.5804 110.915 -4.58024
3.34627 113.292 2.33924
29.6865 98.2216 -0.741844
2.85963 113.636 2.44705
33.8937 104.218 -12.6927
-14.5689 129.515 -3.48741
2.85486 113.704 2.47457
-12.6429 122.406 4.56913
-11.1931 121.62 4.3511
-2.85617 125.537 -8.52158
-12.6727 121.666 5.73763
11.4513 120.754 -14.851
18.4174 109.136 -5.17901
28.5678 99.3196 -0.814662
-18.0228 128.415 1.43604
26.3123 110.839 -14.5552
-3.13778 115.637 5.62261
-11.0133 121.652 4.52375
-3.50252 126.163 -8.47189
-16.6041 122.581 8.38653
-12.3973 122.546 4.73022
12.9113 110.153 -1.11691
-11.3018 130.039 -6.44202
39.2395 95.8063 -5.08365
6.80525 123.02 -13.0729
-0.993675 115.841 3.87631
17.7962 110.083 -5.21631
23.4335 104.719 -2.93417
26.4886 110.995 -14.2997
14.0479 120.135 -15.5342
13.0006 110.536 -1.37836
24.2094 103.665 -2.08407
-10.0153 122.638 2.91349
30.8079 107.037 -12.6262
25.4067 112.376 -15.0558
6.17004 112.861 1.72955
0.976197 124.183 -9.08049
-12.6442 128.729 -2.8828
37.2652 101.1 -10.1198
-7.9807 120.113 4.75186
-0.98715 116.241 3.84813
24.5676 103.383 -1.59966
23.0323 115.497 -16.8283
31.1976 98.7183 -1.10584
-10.2326 122.931 3.15456
14.8287 112.133 -4.6519
-12.0393 122.095 6.01536
1.19822 124.47 -9.22351
13.1054 111.162 -1.70857
-12.3697 128.562 -2.52935
-15.3568 131.06 -3.19275
-14.233 123.337 6.41008
2.83188 124.326 -10.3626
-7.38399 130.511 -9.60154
12.0537 121.555 -14.8628
24.2885 114.328 -15.9051
22.5154 106.613 -3.68976
-17.1077 130.839 -1.092
19.9816 109.065 -4.75514
13.7107 112.084 -3.19678
3.91876 114.263 2.76014
-0.962584 125.485 -8.20564
22.1857 107.15 -3.90038
-3.74669 117.206 5.78103
-17.6577 130.787 -0.248677
-7.74706 131.235 -9.81537
26.5939 111.627 -13.9739
26.7153 111.479 -13.8524
33.4549 98.2197 -1.70229
-4.74002 128.222 -8.33314
-17.4181 131.071 -0.758549
24.0941 114.768 -15.934
-15.492 123.967 7.31924
-17.0216 124.19 8.41621
-2.15294 117.182 4.66909
-12.5535 122.991 6.12596
32.2227 98.9538 -1.38254
-18.9112 126.147 7.62019
22.7337 106.864 -3.60055
37.7163 99.2881 -6.73681
-14.1703 130.941 -3.23679
-0.940826 125.777 -8.11303
1.13674 115.78 3.77647
-10.0179 123.531 3.23339
17.3305 119.339 -15.6672
13.1345 112.137 -1.90643
-9.15196 123.521 2.64683
13.5811 121.398 -14.9898
38.1367 98.5329 -5.80219
-18.231 125.403 8.34966
33.6383 105.909 -11.8104
-7.76716 122.202 3.35949
37.0629 102.089 -9.60488
-4.70484 128.718 -8.34824
19.2767 119.1 -16.8485
11.5784 122.318 -14.2737
-12.6946 129.937 -2.74327
14.8807 120.733 -15.0576
7.98111 113.195 1.59823
1.11458 125.448 -8.99161
-1.4896 126.429 -7.94572
-10.2115 122.506 5.38982
7.84478 123.707 -12.589
17.4657 112.064 -5.23032
7.10059 124.261 -12.6072
-7.7378 131.994 -9.77857
-8.54196 132.473 -9.69001
32.9056 99.3366 -1.64583
4.94373 114.62 2.71865
24.1807 105.784 -2.54581
21.826 108.516 -4.15772
36.1743 97.7317 -2.31249
-13.0991 130.771 -3.08336
-11.4697 123.31 5.69989
19.9503 119.028 -16.877
32.7551 99.5299 -1.64465
34.6716 98.5852 -2.02868
13.8679 113.803 -4.02225
24.3518 115.032 -15.2034
-16.9357 132.142 -1.30903
-3.21424 128.057 -8.08816
-5.38465 129.894 -8.6075
27.3016 111.454 -12.8027
37.2169 100.235 -6.29431
25.7605 113.335 -13.8809
11.3699 112.333 0.572643
37.4597 98.8043 -4.3914
8.77131 123.54 -12.3819
-18.714 127.908 6.56538
10.5228 112.594 1.14204
-17.5397 125.77 8.45674
37.3261 100.665 -6.74005
-15.7969 125.847 6.80806
34.5376 105.768 -11.0898
-18.028 128.934 4.70475
36.2917 103.616 -9.6963
20.4411 119.388 -16.9914
37.2237 98.1047 -2.89445
15.928 120.903 -14.9377
26.4466 112.774 -13.2654
-1.81875 127.467 -7.84976
23.9934 106.867 -2.88395
34.9008 99.0936 -2.07117
-11.8961 131.494 -4.13686
18.3411 120.136 -15.9111
14.8372 114.311 -4.67539
25.8107 113.853 -13.9841
-12.2939 131.358 -3.5181
-4.85907 119.665 5.83466
-17.4736 131.916 0.477805
25.4871 104.913 -1.30274
-8.35255 133.206 -9.53201
-12.919 131.555 -3.12254
-14.4361 125.807 6.17087
25.1216 105.698 -1.83137
-17.5641 126.381 8.41791
-18.0072 129.097 5.1274
-14.2127 125.925 6.08798
-8.12058 133.472 -9.77914
25.9247 114.069 -13.9252
17.9622 121.466 -16.8587
21.7283 118.966 -16.7999
26.6956 112.841 -12.86
34.6491 105.977 -10.6282
26.3899 103.743 -0.0269413
-3.33767 129.251 -8.11091
27.5362 112.088 -12.4245
23.274 108.418 -3.49053
34.7908 105.884 -10.4203
15.6984 121.747 -14.8541
0.0187134 118.594 3.80055
6.79859 114.976 2.65658
25.5617 105.57 -1.30276
4.37649 116.112 3.41062
19.6878 121.212 -17.3576
29.5411 102.229 -0.159302
-4.71779 130.794 -8.36179
16.9117 121.949 -15.7882
-8.65324 124.489 3.88806
-3.55903 129.857 -8.07399
17.3553 114.014 -5.19202
5.30796 115.985 3.09837
-12.3302 132.489 -3.59137
17.1143 122.316 -16.2703
5.58752 126.494 -11.552
19.977 121.107 -17.1455
28.9665 102.881 -0.21732
-5.92056 124.116 2.21253
12.753 115.151 -2.36884
34.277 106.861 -10.376
37.0341 100.923 -4.64808
-16.9141 127.38 7.89644
12.2308 123.715 -13.4728
-15.1268 127.119 6.63954
7.72281 115.045 2.57168
14.9517 115.68 -4.78464
28.2976 103.556 -0.185267
22.6948 118.929 -16.2164
-9.61692 124.309 5.69251
-10.8248 133.221 -5.46361
-12.3647 132.876 -3.56808
-4.82442 131.368 -8.27733
36.8115 103.45 -7.57292
26.0593 105.638 -0.762476
-11.5369 133.17 -4.49608
17.2368 123.11 -16.7183
34.4634 106.866 -9.93279
-16.1468 127.888 7.08378
-9.23794 134.201 -7.76775
-5.24847 132.182 -8.32941
34.3803 107.136 -9.78794
-16.125 133.219 0.16992
35.0668 106.331 -9.21898
36.8898 101.968 -4.87065
26.2606 115.526 -13.8728
27.2043 113.921 -12.496
15.1822 123.447 -14.6558
-13.1451 133.377 -2.63088
36.5028 102.937 -5.73164
-9.91514 124.633 6.51522
36.4892 103.625 -6.63222
-13.7101 133.064 -1.61496
11.9178 115.705 -0.952065
36.1878 104.663 -7.73052
1.3649 119.49 3.45965
4.44382 117.841 2.95649
17.2261 115.331 -5.17099
26.9869 105.073 0.102848
13.1642 117.036 -3.67789
-6.17195 133.504 -8.7234
-0.533963 120.469 4.13651
-6.73716 134.143 -8.90612
6.05242 127.38 -11.1423
-12.8092 127.085 6.36598
17.0784 115.823 -5.15226
-13.1172 134.232 -3.08684
-5.53801 133.034 -8.30473
15.3005 116.965 -5.04103
13.4971 117.41 -4.00356
1.03637 120.208 3.44883
-16.6923 132.552 2.58815
33.6438 108.36 -9.69787
20.3229 120.874 -14.8132
-12.3107 133.332 -2.36741
32.7731 109.589 -10.5393
2.60179 128.272 -8.88084
-7.52275 126.456 2.80266
16.4851 116.429 -5.16436
13.6278 117.555 -4.09153
15.5182 124.173 -14.8762
4.18037 118.58 3.09592
36.0891 103.489 -5.05762
-16.6118 132.638 2.625
14.1084 124.583 -14.1352
7.83014 117.065 1.97831
25.2637 117.492 -14.3085
14.9287 125.301 -15.6168
-6.15568 134.2 -8.72803
8.76011 116.463 2.18592
14.7864 125.238 -15.1571
11.2836 125.34 -12.0988
-5.1583 133.275 -8.09294
-16.1058 133.08 2.30373
29.4347 112.533 -10.6948
11.4432 117.204 -0.751403
-17.6014 132.546 4.48694
-15.4612 133.892 0.709404
32.8748 109.728 -9.80215
29.534 105.046 -0.271978
14.612 118.161 -4.76252
27.3024 106.369 -0.0468943
11.8331 126.119 -13.169
10.5305 116.414 1.36289
-15.4184 133.93 0.847625
24.0996 118.927 -14.3109
20.9416 120.93 -14.1793
35.9803 104.483 -5.09246
25.7196 117.723 -13.9827
-6.51798 135.252 -8.85407
-11.0962 127.043 6.58509
9.55061 116.851 2.0334
12.6882 127.091 -14.8879
-10.9054 127.061 6.55537
-12.0531 127.935 6.39501
9.89779 116.842 1.81025
-4.82715 125.812 2.86034
30.4602 104.895 -0.356216
-12.0729 135.062 -3.25999
-16.3223 133.146 3.26626
34.1159 108.094 -7.98608
32.2577 103.9 -0.484967
-7.13346 126.577 4.03574
-10.4453 136.175 -6.12706
1.45757 129.608 -7.87474
11.0634 117.588 -0.0455615
-10.4909 127.083 6.4462
-5.61618 134.826 -8.57075
23.9922 111.3 -3.04424
-1.91772 131.325 -7.08865
7.83438 127.624 -10.8344
18.2533 116.607 -5.05003
35.7077 103.767 -3.17301
-15.9501 129.754 7.9234
-11.794 135.157 -3.22629
11.7258 127.467 -13.8271
-11.7284 134.824 -2.67044
-8.1993 136.478 -8.06638
-4.00776 125.099 3.80542
32.3355 111.145 -9.87086
-3.04445 124.519 3.81162
11.8059 119.047 -2.05482
-3.44945 124.698 4.04926
11.3319 126.873 -12.2812
12.3527 128.028 -14.7552
23.9307 119.247 -13.165
-13.6833 135.163 -0.940976
26.4614 117.866 -13.5245
-16.1751 133.602 3.47543
-16.8729 133.229 4.64064
19.2307 116.434 -4.89778
-11.9628 135.026 -2.16919
33.462 104.299 -1.08231
11.5496 128.064 -13.8341
27.9352 116.12 -12.2581
-17.2204 132.325 6.37888
35.7059 104.634 -3.48248
27.25 117.167 -13.0245
-4.39893 134.185 -7.73266
1.89209 130.258 -7.98115
9.93559 127.304 -11.1685
23.9524 119.343 -12.9083
-10.3229 128.373 5.85988
19.6998 116.301 -4.73684
25.6195 118.592 -13.2465
32.3918 104.841 -0.473763
6.69722 120.35 1.50466
-5.99336 136.205 -8.68288
20.5623 115.668 -4.47188
-4.78676 127.132 2.77606
2.05935 121.956 3.70584
21.6058 121.248 -13.0228
23.7213 112.652 -3.09437
11.7956 119.911 -2.21535
18.555 117.535 -4.99423
0.0956684 131.059 -6.85482
11.081 128.186 -12.7843
24.144 112.391 -2.89213
-4.00998 134.255 -7.41454
35.7759 105.557 -3.94935
-2.55349 125.512 3.35581
23.6322 119.613 -12.2538
34.8415 105.571 -3.03266
0.60131 131.083 -7.05525
14.9225 120.094 -4.81946
32.6191 111.532 -9.07444
1.9854 130.912 -7.93591
23.5245 119.703 -12.0242
24.5274 112.206 -2.62182
-16.0918 134.406 3.68406
23.7767 119.647 -12.0458
-11.6549 135.791 -2.10892
9.00442 119.493 1.6536
24.1421 119.556 -12.1114
8.67001 119.792 1.58673
-0.94252 124.953 3.21374
11.1202 120.242 -1.23318
21.1969 121.864 -12.554
-8.98943 137.7 -6.9376
19.546 124.334 -14.3905
20.5601 116.424 -4.41237
-13.6598 136.047 -0.374078
20.4686 116.53 -4.43742
-14.7844 135.072 2.06383
10.6789 128.449 -11.903
6.59922 129.82 -10.065
12.6299 129.402 -14.9013
10.1638 119.291 1.37036
-2.17002 126.212 3.07856
18.8818 125.687 -15.2511
-16.87 133.621 6.25404
5.68062 122.101 1.72152
12.4068 129.607 -14.6851
27.3496 109.699 -0.828907
17.2943 119.441 -5.10166
19.2644 118.003 -4.87924
10.5578 129.423 -12.6778
11.5818 129.794 -14.1094
35.1989 106.559 -3.49439
13.1858 129.778 -15.383
10.8129 120.786 -0.86539
6.80156 130.033 -9.94145
35.0198 106.608 -3.2837
12.2413 129.936 -14.6188
2.36122 131.698 -8.0794
19.1901 125.55 -14.8519
29.4761 115.622 -10.5129
11.4395 130.094 -14.0554
-3.49122 127.63 2.96809
24.1676 113.585 -2.7748
18.3813 119.014 -4.97225
32.2508 112.46 -8.42114
-1.48998 126.653 2.71559
12.2167 121.846 -3.02063
-10.5826 130.348 5.94893
10.0875 129.241 -11.2337
10.172 120.546 0.67662
11.7023 121.708 -2.2545
34.5479 107.907 -3.94855
33.0856 106.706 -0.968999
24.9691 112.78 -1.96423
21.6851 116.433 -3.95978
34.3953 108.68 -4.80888
27.2949 110.265 -0.534916
8.37021 121.141 1.68054
-6.63548 138.346 -8.32968
-5.41576 137.318 -8.01604
9.6777 129.37 -10.7599
-16.4324 132.928 8.03337
34.2774 108.733 -4.61435
10.3096 121.134 0.0538031
13.6844 130.293 -15.5394
6.02266 130.979 -9.53669
11.3275 121.794 -1.7061
7.64482 130.26 -9.80503
-3.46109 135.611 -7.09483
24.4397 113.832 -2.41818
-13.744 136.62 0.889759
11.5734 122.139 -2.08685
15.6762 121.593 -5.04073
33.9964 108.72 -3.9417
1.0136 132.667 -6.87031
33.1449 112.148 -7.76006
9.76752 130.622 -11.9499
27.9872 118.087 -11.2171
-13.4097 131.602 7.72139
34.0126 108.425 -3.36395
9.2207 129.915 -10.3712
29.2877 108.639 0.70849
-0.136439 133.387 -6.55506
-15.824 135.47 4.82934
20.1971 123.955 -11.9681
-0.73046 127.358 2.35542
20.2184 123.874 -11.8349
4.48187 124.21 2.00999
18.0874 127.936 -15.4209
30.8574 108.133 0.282243
-5.45619 129.758 3.47591
25.4343 112.83 -1.24067
17.8714 128.181 -15.4837
29.672 116.545 -10.1633
-9.76385 139.417 -5.84764
7.86489 122.573 1.50823
18.0871 127.982 -15.1875
20.7341 125.981 -14.7967
25.7757 119.324 -10.1928
14.9632 130.711 -15.8726
5.3455 124.966 0.78111
-8.04969 130.121 5.84643
18.0736 120.73 -4.89894
-2.02034 128.792 2.24735
-5.2541 130.126 3.35328
22.357 122.999 -11.8428
2.42341 133.081 -7.62333
-13.5948 132.06 8.29879
-12.2219 137.533 -0.391029
25.3091 113.505 -1.35939
-15.469 136.89 3.45214
19.4376 119.784 -4.65258
22.3043 123.348 -12.041
18.558 126.636 -13.156
30.1115 109.072 0.530182
-11.3672 139.503 -3.70832
21.1224 126.667 -15.4657
-12.7135 137.519 0.2943
33.3976 109.739 -3.2623
-8.30726 130.399 6.14632
17.0699 129.415 -15.4839
-11.4625 138.052 -1.42719
21.7807 124.857 -13.3573
-9.63232 131.026 6.64639
22.3552 124.288 -13.0756
26.1848 119.258 -9.55814
-2.2901 129.62 1.99833
4.0928 125.461 1.98898
3.31922 126.265 1.59245
27.1732 118.84 -9.78533
7.45168 131.612 -9.46266
5.86817 125.13 0.887838
28.8139 110.199 0.687218
-10.096 131.382 6.87784
20.7971 119.093 -4.20082
23.4725 116.45 -2.98291
8.32966 131.733 -10.2656
8.15517 131.824 -10.1459
17.0449 129.566 -15.0706
1.59411 133.759 -6.82729
6.24483 132.256 -8.88822
-15.7361 137.386 3.98141
22.4522 124.544 -12.9013
32.5286 113.582 -6.93965
-3.24601 137.083 -6.78829
31.6689 114.593 -7.42664
30.2925 116.872 -9.30478
-2.6637 130.538 1.77831
32.574 109.513 -1.23861
11.3802 123.354 -1.04042
23.5327 125.888 -15.5106
-1.64575 129.645 2.1402
33.6235 112.405 -6.11322
20.1646 127.198 -14.2538
23.3196 124.106 -12.854
31.9533 109.427 -0.482176
-6.49328 131.272 4.33131
-1.23615 135.461 -6.1388
22.946 126.868 -16.2221
-15.6793 137.13 4.68172
23.4425 126.427 -16.0484
23.501 126.374 -16.0263
19.4421 120.669 -4.48352
-11.4492 140.216 -3.36285
33.1317 113.214 -6.63151
22.7438 127.271 -16.5389
32.9171 111.714 -4.35423
20.9472 125.314 -12.1819
-2.12934 130.528 1.59184
31.36 109.621 0.000838409
17.117 128.936 -13.6023
8.94913 132.687 -11.3464
25.9794 113.357 -0.184279
-6.83342 131.191 5.04216
23.5214 127.138 -16.8823
-3.87245 131.143 2.44092
16.7021 130.782 -15.6928
-4.26176 138.168 -6.83115
21.4645 126.104 -13.5459
-2.36342 136.726 -6.54575
1.04771 129.115 0.892803
1.27117 134.265 -6.38735
19.8365 128.239 -14.9247
4.7025 126.737 0.88766
9.06422 123.179 1.83602
-11.1361 139.259 -1.96399
-15.6358 137.059 5.14367
-2.96573 131.276 1.66398
-1.68997 136.2 -6.24357
6.68484 132.972 -9.37749
-11.4593 138.738 -0.845317
-2.04493 130.879 1.4527
8.93373 123.336 1.88849
-11.035 140.714 -3.90521
20.0884 128.402 -15.1685
-15.5163 138.06 3.82765
32.7664 110.737 -2.35403
23.4543 124.319 -12.5625
17.0374 129.666 -13.8781
14.0221 132.618 -15.1779
-0.167945 129.352 2.19066
24.1773 116.561 -2.27551
7.30294 133.201 -9.83543
17.1664 129.34 -13.4381
16.01 131.82 -15.7544
-0.0091266 135.309 -6.01791
-2.96515 131.799 1.5056
19.1733 121.572 -4.48306
-0.689547 130.076 1.86231
4.10982 133.843 -7.65585
12.2141 124.564 -2.21683
-10.3893 141.131 -4.50519
17.1441 129.552 -13.5283
9.70912 123.755 1.18919
-3.31993 131.894 1.84545
19.4203 128.771 -14.4471
33.1719 113.241 -5.53927
21.6926 119.583 -3.7614
-2.95079 132.175 1.2862
-11.8993 140.835 -2.48132
11.7531 124.366 -1.25873
31.0044 116.599 -7.89747
11.8198 124.493 -1.33176
11.8968 133.647 -13.9448
1.87271 129.445 0.91915
16.0929 124.346 -4.95409
-8.72083 141.417 -5.92123
12.2088 133.645 -14.1154
-0.136895 130.83 1.01978
-13.4744 139.055 1.80497
-14.6602 138.835 3.22216
-1.69889 137.285 -6.31674
31.2436 111.41 -0.580609
-11.7363 141.079 -2.41659
-8.63335 141.685 -6.03683
-10.7914 141.756 -4.17921
33.0966 114.02 -5.73768
-13.6345 139.193 2.01796
23.7452 125.418 -12.8724
-3.81064 132.733 2.07217
-2.65635 132.624 1.22657
24.6138 124.88 -12.8137
4.17863 134.441 -7.38765
-12.1525 133.523 8.69688
-14.0941 134.944 8.51078
25.3031 115.84 -0.907564
-10.9165 141.929 -3.89095
7.26928 125.983 1.65388
32.4874 113.716 -4.33072
26.0803 122.146 -10.0952
21.5078 127.587 -13.4034
-1.35288 137.39 -6.16477
-12.9184 134.181 8.74029
4.66356 134.594 -7.71666
15.1258 133.371 -15.5142
-4.07777 132.985 2.47378
15.1319 125.79 -5.01991
28.3247 119.062 -7.71582
23.7323 125.673 -12.6206
32.0485 113.874 -3.88571
27.6609 113.231 0.9874
-11.5232 140.728 -1.30448
-0.0754711 136.48 -5.77517
-9.84825 133.066 7.83604
20.4548 128.704 -13.5218
-9.6932 142.471 -5.09464
20.8899 128.405 -13.4633
-13.592 139.857 2.05124
17.1103 124.687 -4.90783
29.6173 112.277 0.883254
18.8297 130.387 -14.2334
8.89416 125.407 1.63119
23.8762 124.951 -11.3033
18.981 123.346 -4.5798
30.2491 118.403 -7.99367
31.6621 113.775 -2.90678
-12.4127 139.987 0.998312
1.3387 130.996 0.921015
32.6388 115.017 -5.45038
-2.68654 138.923 -6.29887
-6.15872 141.636 -6.81508
14.8849 126.379 -4.90274
14.4681 134.249 -15.304
4.8305 128.377 1.5044
-3.78201 133.883 1.74638
-14.8639 139.803 3.6509
15.63 126.032 -5.01954
27.9328 113.522 1.05055
-4.96858 134.04 2.66164
-14.8652 137.233 7.2443
-11.1358 133.853 8.53417
32.5258 115.133 -5.2437
-9.9045 142.857 -4.9038
30.313 118.423 -7.747
-7.17529 142.515 -6.84888
-9.81862 133.579 7.84172
-10.1372 142.859 -4.59735
22.0037 120.949 -3.58763
14.4924 126.759 -4.73253
22.0112 126.423 -11.0434
25.6339 116.112 -0.136601
3.60333 135.488 -6.80151
-11.0471 134.035 8.50489
-13.3728 140.415 1.85566
32.2536 115.616 -5.31618
7.39157 135.89 -10.6369
7.5659 126.794 1.73005
9.61742 125.836 1.2265
21.5142 127.009 -11.1614
-6.05742 141.939 -6.6654
-9.53094 133.846 7.69437
7.04519 135.964 -10.2152
-14.7505 138.019 6.71143
-8.44108 134.19 6.37794
19.7728 131.113 -14.9461
5.10581 135.986 -8.33351
-11.6296 141.426 -0.646521
2.17839 131.35 0.722587
-6.35933 133.653 5.29339
-5.8876 134.693 3.51794
2.73445 136.271 -6.44277
-7.18949 134.011 5.71247
-13.9181 136.633 8.28534
-14.749 139.89 4.6211
24.5493 129.782 -17.0519
-7.03554 134.092 5.65015
-9.67811 134.348 7.79851
5.95969 136.484 -9.24836
27.0305 115.03 1.15852
22.2001 126.848 -10.6785
28.3016 114.33 1.03246
-11.2844 142.328 -1.53794
2.92624 131.491 0.490007
-14.8497 139.189 6.01596
-12.4123 141.059 1.29688
31.6188 115.372 -3.24866
-10.2158 143.646 -4.0814
10.1504 136.03 -12.0309
10.7519 126.664 0.317973
21.3053 131.319 -15.6304
-8.56921 143.837 -5.75625
20.35 128.496 -10.8572
31.6742 115.677 -3.49343
11.311 136.047 -12.9899
26.7033 115.614 1.16021
18.2809 125.487 -4.75349
28.743 114.429 0.973514
29.7607 119.384 -6.7541
18.644 130.829 -12.393
18.0001 125.778 -4.80729
23.3856 119.621 -1.21875
9.19315 126.884 1.68125
30.4879 115.344 -1.723
17.9936 131.401 -12.4305
14.5663 135.549 -14.9708
26.7186 115.769 1.22083
21.222 128.058 -10.6374
5.46408 137.122 -8.82091
21.6843 128.111 -11.1242
-6.27093 135.65 3.84176
25.1343 117.508 0.351118
-11.5165 135.773 8.45952
13.362 128.579 -4.19189
14.2477 135.714 -14.7885
28.0813 121.086 -7.20408
28.9356 114.603 0.947343
24.9718 125.571 -10.5057
-12.225 141.482 1.34284
-6.6228 134.772 5.54268
31.6585 116.408 -3.89548
17.7479 126.284 -4.86867
-12.0234 136.283 8.39889
23.981 126.089 -9.96209
-2.86657 135.859 1.01336
-10.6123 144.059 -3.1853
4.80015 130.66 1.27373
31.3717 116.605 -3.44329
21.7264 128.552 -11.1271
-11.1949 141.957 0.390242
10.9121 127.746 -0.0497259
-7.11776 144.207 -6.32223
18.3049 131.257 -11.5351
21.1083 129.398 -11.4966
24.8724 130.675 -16.6312
26.2896 124.847 -9.90128
7.08425 128.94 1.88727
21.3988 129.188 -11.3982
13.16 128.907 -3.52552
7.07174 138.152 -10.6576
14.5634 128.799 -4.58719
31.2877 118.288 -5.28509
-0.388901 139.278 -5.41846
31.3981 117.414 -3.98566
14.5915 136.271 -14.6741
-3.89726 142.109 -5.93995
-9.59907 135.947 7.7185
11.7071 128.286 -1.03839
22.0294 122.249 -1.93515
19.484 129.073 -9.00097
-14.2272 141.46 4.58014
18.2704 130.732 -10.0453
17.7342 133.179 -12.899
30.837 117.314 -2.86724
-6.84634 136.523 4.87005
-7.48358 144.861 -5.98478
5.64239 130.893 1.35345
-9.47618 136.288 7.65945
18.1312 132.221 -11.7641
-6.19385 144.252 -6.19575
30.6667 119.734 -5.87088
-9.7577 145.35 -4.37674
18.4694 130.264 -9.2122
29.6254 116.795 -0.779393
23.6396 120.275 -0.0558533
27.1259 125.603 -10.4908
11.3274 128.917 -0.709302
31.2195 118.303 -4.11324
10.1126 128.471 1.07705
15.9011 129.058 -4.96128
25.6085 125.819 -9.30346
-13.2886 139.218 7.59571
17.4321 132.889 -11.4568
-10.9113 144.49 -1.69884
27.2726 129.658 -15.8745
28.3721 125.981 -11.8038
17.001 134.44 -13.1046
-4.52062 143.292 -5.77018
22.2565 127.71 -8.51727
25.7992 118.54 0.917499
2.71938 139.093 -6.38939
26.4537 130.455 -16.0148
7.23682 129.99 2.05642
19.1287 129.828 -8.47624
6.41705 139.386 -10.0605
29.0945 117.3 -0.242149
13.0595 129.354 -2.22521
20.5162 125.412 -3.5494
6.37562 131.323 1.16407
17.9939 128.047 -4.78968
19.8408 133.911 -14.4973
30.3671 118.221 -2.44494
23.5641 128.076 -9.83022
-8.38599 136.962 6.91842
4.60779 139.577 -8.43048
-1.63217 137.226 0.578067
26.2393 118.542 1.01138
20.1247 131.193 -10.8179
-12.481 138.976 8.04377
24.8973 126.604 -8.80779
19.8438 134.061 -14.4538
30.7851 119.181 -3.9087
4.85466 139.824 -8.78465
28.5285 130.096 -16.856
8.12375 129.946 1.84449
21.8488 123.363 -1.51435
20.0219 129.25 -7.9342
29.9255 118.304 -1.8515
3.80799 134.014 0.263817
22.2298 127.781 -7.82904
-5.48039 138.371 2.77046
-8.43499 137.286 6.99768
25.8636 131.145 -15.5627
19.8179 126.939 -4.22969
17.2082 133.932 -11.4691
0.14677 140.704 -5.29956
-11.6904 138.776 8.14061
-5.62988 144.892 -5.68557
29.9694 120.79 -4.79933
25.528 131.407 -15.3663
3.02227 134.825 0.363667
-13.4498 141.772 5.76112
22.0195 128.029 -7.47253
21.3317 128.417 -7.33542
27.249 125.935 -9.25144
19.3495 127.6 -4.37682
3.67278 134.603 0.244456
-7.04376 138.661 4.38546
18.7429 128.2 -4.50862
25.4805 126.57 -8.35488
17.8637 134.127 -11.8194
28.2869 119.084 -0.567548
19.2514 131.935 -10.0463
9.66727 139.292 -11.4693
7.5617 131.304 1.49416
27.4259 130.551 -15.4296
1.53342 136.119 0.424081
30.254 120.167 -3.64713
28.4136 119.329 -0.747053
28.0844 122.869 -5.30237
29.1553 127.467 -12.5604
18.0555 131.759 -8.33077
-13.2838 142.767 4.95766
-1.26532 138.03 0.637494
3.20219 140.699 -7.02561
13.5465 138.518 -13.3762
14.4182 131.474 -4.47621
25.2382 120.411 0.944713
18.0693 129.254 -4.7118
6.54733 140.741 -10.0116
26.0291 126.864 -8.56288
18.7918 131.615 -8.50684
8.20196 131.071 1.84696
18.4562 131.241 -7.67235
-1.24803 138.205 0.647648
-4.29505 139.955 1.00569
-12.5109 140.859 7.23944
18.2475 133.532 -10.5533
17.2812 133.983 -10.2312
29.8961 120.746 -3.45061
26.381 124.786 -5.77517
29.8679 120.786 -3.42681
17.5877 134.793 -11.5455
27.4242 131.114 -15.3972
21.7951 124.463 -1.13461
9.51027 130.611 1.56382
-6.86549 139.532 4.16627
8.94341 140.522 -11.4969
25.8254 127.075 -8.2712
-7.41826 139.34 5.01605
5.40836 141.129 -9.04594
-8.14744 138.619 6.70118
3.04308 136.011 0.181315
25.5195 127.218 -8.08869
24.7014 127.323 -7.48207
3.4504 141.364 -7.43877
10.1282 131.042 0.802184
19.298 128.694 -4.27646
27.7046 126.501 -8.87631
-3.39655 139.868 0.964034
23.2385 122.634 0.529451
-9.42889 147.466 -4.00451
20.1547 131.859 -9.33641
-10.046 139.253 7.86554
22.2966 130.257 -9.0571
24.9907 127.628 -7.76896
28.7467 126.499 -9.61085
-10.5735 145.133 0.414754
-8.41484 138.915 7.02363
-6.45134 140.139 3.57956
17.2211 135.349 -11.2732
-5.65919 140.343 2.63444
22.1225 134.41 -14.2706
-2.20435 143.515 -4.73332
22.2004 130.334 -8.70125
-8.55278 139.053 7.19747
2.34794 141.934 -6.53789
17.3677 133.881 -8.99399
-12.2445 144.325 3.50965
23.7881 122.571 0.823223
28.0395 120.717 -0.419693
19.8839 133.955 -11.1535
18.3673 136.408 -13.1416
14.4382 139.475 -13.7448
21.7439 124.948 -0.350592
11.3484 140.373 -12.0149
29.0277 121.349 -1.84696
0.98927 138.106 0.553084
6.05002 135.123 0.076207
26.3083 132.627 -14.8455
23.2577 128.802 -6.76215
29.3573 127.028 -9.78437
16.9268 135.938 -10.6849
17.5123 137.114 -12.8032
4.31497 136.523 -0.0236316
28.8166 127.078 -9.22121
17.2675 134.647 -9.126
21.63 129.492 -5.99019
-10.5388 147.311 -1.3164
2.80626 142.593 -6.91416
2.73332 137.553 0.139365
26.7583 121.377 0.679668
-11.6374 142.261 6.79131
22.4846 124.397 0.440576
17.3332 137.482 -12.8547
5.66641 142.479 -9.12653
-4.95134 146.472 -4.9688
26.9107 124.084 -3.00405
18.8536 130.25 -4.16616
0.897418 138.663 0.547664
17.6334 134.347 -8.66171
-4.87656 146.47 -4.92477
17.6493 134.351 -8.66091
23.186 123.861 0.751135
11.3818 140.972 -12.0552
-11.7579 142.758 6.46349
-6.1597 141.548 3.10025
13.245 133.506 -3.40294
26.0219 128.255 -7.75451
22.3402 135 -13.6468
26.6371 125.62 -4.64274
28.3821 122.103 -1.38025
19.8664 132.39 -7.79955
20.9418 127.874 -2.52499
3.77511 137.371 0.00672779
20.5886 132.845 -9.00076
-6.19233 141.718 3.11122
21.5755 125.64 0.172988
29.9706 127.706 -10.2253
17.1059 132.157 -4.67008
6.27647 142.931 -9.63669
27.0436 126.932 -6.44512
17.1882 136.778 -11.0065
16.2786 132.847 -4.76509
17.9389 136.756 -11.5703
19.9537 133.509 -8.91742
17.4123 134.992 -8.57416
12.9258 141.128 -12.9217
15.3209 140.109 -13.6885
27.0279 127.872 -7.42608
21.6915 130.614 -6.36142
20.7151 136.668 -13.7637
10.0215 132.63 1.48294
20.9523 128.238 -2.35913
8.17269 142.934 -10.9812
25.8603 122.661 0.867212
-7.53555 141.011 5.90606
24.9158 133.848 -13.6378
23.76 129.29 -6.27698
29.567 127.891 -9.60773
22.4732 135.505 -13.6188
20.0335 132.86 -7.71483
3.58336 138.139 -0.0211181
-10.4088 146.393 1.35456
-6.19233 142.455 2.9623
22.9652 135.253 -13.5105
-10.3989 142.185 7.20655
23.504 129.947 -6.66841
3.22872 138.455 0.00590743
15.3983 140.343 -13.5434
21.46 130.764 -5.81935
24.3338 129.943 -7.29364
5.19749 137.417 -0.189379
22.9964 135.378 -13.5106
20.1572 129.704 -3.09767
20.4292 132.643 -7.36049
21.0404 127.534 -0.842436
26.9147 124.446 -1.89621
-11.0123 143.629 6.11545
-10.395 149.032 -1.8514
22.6594 130.648 -6.52315
21.3717 133.742 -9.56522
29.7047 128.455 -9.83697
29.1753 129.888 -11.2895
22.9554 130.61 -6.60946
6.3369 143.753 -9.55098
23.4973 130.7 -7.06786
18.4149 136.464 -10.3857
26.8814 128.72 -7.4027
-3.84865 142.981 0.881534
12.1062 133.077 0.0700281
-8.5088 141.703 6.89617
19.5151 136.207 -10.93
13.363 134.788 -3.34615
28.1013 134.356 -16.1017
29.0387 128.51 -8.91046
27.3561 134.274 -15.2865
1.25447 140.104 0.360042
24.6806 129.992 -6.88833
22.3601 131.226 -6.4739
23.5735 135.489 -13.4033
19.0292 131.493 -3.78475
23.0594 125.482 0.841241
19.2884 137.178 -11.789
9.4713 135.179 -0.125144
28.6298 128.62 -8.46588
15.6255 134.635 -4.92323
17.4638 136.923 -9.65802
-10.4766 148.833 -0.692876
18.4217 132.241 -4.05614
23.8859 131.052 -7.35715
3.96218 144.302 -7.51231
16.9628 139.712 -12.9385
12.3058 142.574 -12.6011
19.1495 136.136 -9.95086
10.5891 133.942 0.825983
5.73971 137.921 -0.248547
24.3282 135.128 -13.2384
-4.28042 143.651 0.975799
5.13928 138.311 -0.218078
29.8242 134.299 -17.055
4.72573 144.32 -8.06813
18.8553 131.896 -3.78407
20.251 134.745 -8.94664
-7.66148 149.412 -3.8135
20.997 128.812 -1.44692
-10.4917 147.465 1.477
3.29187 144.622 -7.10241
20.5572 132.602 -6.20768
-6.84242 149.172 -4.08352
29.1789 134.656 -16.7647
5.68175 138.136 -0.252165
13.255 142.32 -12.8471
26.9584 124.738 -1.0628
26.337 127.032 -3.6283
20.2967 134.809 -8.83714
-2.69321 146.498 -4.00407
18.6621 132.345 -3.865
21.8207 126.973 0.676954
21.0702 127.96 0.00964489
30.6498 130.97 -12.7665
0.478808 141.222 0.48924
26.6806 129.166 -6.61999
19.8276 131.002 -2.90904
21.304 132.069 -5.6872
-5.70514 144.382 1.90085
-0.630738 142.058 0.503094
4.93827 144.756 -8.20794
26.9289 129.145 -6.64233
-7.28478 143.928 4.0878
11.9732 143.17 -12.2308
27.3328 124.56 -0.523318
19.1658 132.149 -3.45016
-2.49285 143.346 0.808518
20.8201 133.356 -6.57883
29.9428 135.051 -17.1521
8.02867 137.377 -0.450556
25.0094 135.336 -13.0233
-10.3608 145.306 5.35306
25.4423 130.952 -7.2754
17.7547 139.609 -12.2118
-2.79299 147.11 -3.84502
24.5116 131.962 -7.75866
-6.2247 149.481 -3.99145
19.905 129.991 -0.847053
26.1322 126.553 -1.71354
25.1904 131.857 -8.14415
12.8576 143.127 -12.4103
-1.20808 146.525 -4.3256
-10.1947 145.43 5.32811
25.7003 135.154 -13.053
-1.78041 146.833 -4.11968
11.8719 134.746 0.165481
16.8282 134.897 -4.52805
30.8368 131.073 -11.9434
24.523 126.083 0.680206
-5.28737 145.043 1.63213
-7.14413 144.829 3.63473
31.7807 132.052 -14.0502
19.3254 132.296 -3.09478
25.2242 125.959 0.276911
12.2236 136.285 -2.12624
-8.24188 144.603 4.98447
20.0002 130.662 -1.42546
20.8332 129.069 0.103154
18.7956 138.19 -10.5818
18.4457 138.214 -10.2914
23.4965 137.128 -13.3738
18.7724 138.9 -11.5275
13.9002 142.455 -11.9943
31.4427 131.632 -13.0078
24.7399 126.284 0.428094
28.9743 130.319 -8.92272
4.80739 145.586 -7.99956
22.6103 128.501 -0.635001
-4.46269 145.094 1.12392
30.635 130.998 -11.288
26.0013 126.209 -0.377901
24.7419 127.714 -1.30021
2.8446 146.108 -6.68881
23.1773 129.952 -2.89677
9.48905 144.774 -10.7062
18.6928 139.222 -11.386
29.7549 134.762 -15.2385
21.3168 128.571 0.943234
25.5285 127.716 -1.58596
11.9288 135.149 0.630166
25.9792 129.18 -3.77556
25.4766 128.861 -2.86551
25.7826 129.075 -3.3756
19.4938 139.785 -12.3937
5.09125 140.382 -0.0214771
25.4167 132.37 -7.42153
-6.53217 146.242 2.52316
-4.98861 146.007 1.47827
26.2142 131.559 -6.84031
8.29975 138.76 -0.506394
4.25846 146.51 -7.48736
29.9391 134.571 -14.3152
27.1924 136.203 -14.0452
23.0593 130.72 -2.71681
9.63253 145.255 -10.5076
-9.36808 150.75 -0.811981
12.1129 138.044 -2.7814
-6.95573 150.88 -3.1209
27.0822 130.728 -6.20194
32.1612 133.078 -14.0187
-9.66826 150.71 -0.327274
25.5105 131.494 -5.74762
7.72425 146.061 -9.53838
17.8268 139.567 -9.674
22.6706 130.89 -2.12731
25.3954 132.783 -7.18504
12.3764 144.411 -11.342
19.3775 132.964 -1.8201
-8.82459 147.603 3.71587
25.0631 133.111 -6.95253
5.59297 146.949 -8.29128
2.21594 147.68 -6.23127
24.9779 132.996 -6.65125
24.7176 132.778 -6.10113
-7.29172 147.653 2.7552
1.49226 143.282 0.839839
23.7349 132.953 -5.10783
24.3204 131.871 -4.08803
4.87724 141.349 0.501305
-7.52498 151.48 -2.14831
15.4953 137.998 -4.37414
-3.64394 149.7 -3.11084
22.9938 138.657 -12.0545
20.8867 131.304 0.0536618
20.8411 131.416 -0.0146525
12.6907 137.34 -0.598081
31.5405 132.613 -11.1007
19.1937 140.535 -10.7939
29.6084 136.755 -15.0045
31.43 132.172 -10.3222
16.7086 141.815 -10.2045
13.6522 139.008 -3.57205
30.4979 134.228 -12.2313
0.683223 148.842 -5.21129
17.9818 141.252 -10.4329
19.1314 140.57 -10.5085
30.4004 135.494 -13.7388
-6.45185 148.394 1.92284
2.82877 143.048 0.932257
29.6626 136.754 -14.7202
18.5444 135.401 -2.75213
28.8986 131.937 -7.36819
16.9929 141.819 -10.1328
30.6116 132.41 -9.49807
14.1442 144.136 -10.6363
21.2916 132.928 -1.70326
28.0404 137.983 -14.7577
28.0289 137.954 -14.7065
26.0841 133.154 -6.29214
11.7951 139.476 -2.01154
31.6732 134.349 -12.9505
31.4534 132.815 -10.5486
-5.36715 148.549 1.20033
15.594 142.832 -9.90099
-7.6743 149.176 2.47008
27.0378 132.06 -5.44225
21.6559 133.364 -2.34125
23.0782 133.129 -3.30202
27.9023 137.617 -13.8209
21.0401 133.535 -1.95176
6.29869 147.866 -8.23311
25.8232 138.007 -12.2971
12.08 145.698 -10.3867
11.1055 139.081 -0.328168
17.962 136.61 -3.02467
-8.55555 151.426 0.669392
7.05981 147.874 -8.58857
-5.3748 151.792 -2.70447
4.55901 148.658 -7.1786
30.4257 136.254 -13.457
4.68087 142.676 1.04384
21.0649 141.414 -11.9632
28.2107 138.429 -14.3221
29.6611 132.587 -7.56078
29.0193 135.796 -11.3399
3.94614 143.422 0.942337
-7.56131 150.488 1.69873
-8.39459 152.361 -0.0658469
8.52771 140.729 0.599608
20.9106 141.569 -11.7679
5.76235 148.547 -7.61312
15.4037 139.691 -4.14662
22.7073 134.582 -3.70774
3.98172 143.782 0.625619
25.4812 134.302 -5.79487
24.2814 134.739 -5.27753
14.9106 140.133 -4.13341
30.645 135.364 -11.8226
29.8358 137.179 -13.4754
11.9545 140.489 -1.79079
21.9864 141.136 -11.7202
24.5588 139.169 -11.285
22.3831 134.843 -3.33069
26.4165 133.967 -5.74515
32.0005 135.453 -12.7967
19.9471 135.328 -1.58431
17.2609 137.513 -2.13403
29.9585 137.414 -13.4492
1.72244 150.182 -5.41004
29.0357 135.391 -9.81144
14.9646 140.528 -4.06108
23.1472 140.292 -11.1497
23.1811 135.253 -4.25065
11.446 139.984 -0.10155
28.8213 135.795 -9.95154
-8.11402 152.863 0.0562098
29.6403 138.093 -13.7862
4.1764 149.675 -6.61283
25.4851 138.926 -11.0946
31.5737 135.542 -11.9533
17.2372 142.479 -8.44571
-6.1386 152.871 -1.50204
17.6015 142.259 -8.40848
16.8776 139.472 -3.91341
10.2446 141.011 -0.0118949
12.4717 139.447 0.126248
12.0864 146.741 -9.41969
23.0553 135.547 -3.94865
23.432 140.402 -10.9168
25.4499 139.073 -10.9156
14.554 145.283 -9.55946
16.0991 143.482 -8.341
29.7967 134.597 -8.48989
27.4754 138.55 -11.7508
17.1763 142.722 -8.09316
-7.38179 152.669 0.536284
19.063 142.068 -8.84062
7.09135 149.235 -7.83267
-2.5249 152.219 -3.19091
27.5958 133.917 -5.25565
8.59476 148.648 -8.28892
-1.33152 151.936 -3.76355
8.92056 141.936 0.802221
11.3281 142.249 -1.80028
17.589 142.375 -7.62604
16.0104 143.767 -8.03486
22.2446 135.894 -2.85746
29.7223 133.933 -6.9319
29.3548 137.759 -11.7089
27.7416 139.188 -12.2003
12.4503 141.904 -2.06307
21.7766 136.097 -2.49133
30.3768 137.131 -11.6949
-7.4819 153.607 -0.0383414
15.1213 144.973 -8.58317
9.73687 148.616 -8.64664
21.6477 136.21 -2.36955
-0.991933 152.278 -3.88171
26.0794 139.173 -10.364
29.1679 139.587 -13.6171
24.4886 135.907 -4.23238
17.1814 138.885 -1.62082
-1.54236 152.604 -3.5135
16.7708 140.63 -3.59497
31.3468 137.085 -11.8828
17.0287 143.204 -7.25493
15.1942 142.036 -3.93573
1.02754 151.94 -4.68765
27.7814 139.856 -12.2682
9.48588 149.039 -8.15727
11.1843 143.815 -2.43465
11.0937 148.53 -8.70905
15.1196 145.535 -8.15777
15.2161 142.441 -3.90772
12.4179 143.489 -2.78425
6.40233 150.46 -6.91314
27.4267 135.241 -4.96595
27.377 135.289 -4.94726
-4.50538 153.937 -1.68565
11.6558 148.324 -8.60814
15.0186 145.893 -8.23854
18.0117 137.913 0.0745109
29.7686 135.253 -6.91833
9.59894 142.878 0.917686
-0.155264 152.717 -3.6791
28.2356 138.245 -9.48867
24.4573 141.178 -10.0037
0.0414678 152.77 -3.66446
18.0315 138.177 0.122792
22.4993 137.406 -2.83318
5.22141 151.161 -6.06923
26.039 136.219 -4.31083
9.15034 149.772 -7.6306
6.43801 150.843 -6.60995
11.8601 143.041 -0.782914
28.9837 136.43 -7.13513
20.1057 137.587 -0.623864
15.2306 145.913 -7.52807
10.1941 142.944 1.19604
28.6669 137.737 -8.37071
25.5488 136.99 -4.51705
-2.83873 154.053 -2.24368
13.8558 147.535 -8.35935
16.2818 142.256 -3.10729
9.07434 150.244 -7.39508
18.6009 143.926 -7.15733
21.1798 144.241 -9.69115
15.5202 143.359 -3.20311
22.8803 138.549 -3.24768
26.3499 137.74 -5.16846
21.9549 144.075 -9.87442
19.4374 139.151 -0.737247
10.3742 146.123 -2.06654
18.509 144.267 -6.8739
28.2885 140.458 -10.4078
21.4342 144.395 -9.51966
20.4225 144.867 -9.24637
22.3162 144.203 -9.84832
11.2425 146.086 -2.37727
10.4598 145.967 -1.49513
17.0964 142.235 -1.74596
17.1199 142.214 -1.6873
26.2791 138.524 -4.81749
18.0123 140.409 0.137508
9.93463 146.814 -1.34106
16.112 146.168 -6.01154
21.9233 139.664 -2.05704
25.5456 142.075 -8.55042
11.7914 144.698 0.344501
18.2436 140.465 0.344014
1.13177 153.841 -2.50258
16.1738 143.593 -2.03959
1.78311 153.767 -2.53898
22.6203 145.006 -9.34872
28.5902 141.571 -9.99653
20.2366 145.953 -8.29387
10.8916 146.361 -0.319707
13.9746 149.245 -7.0332
23.6552 140.401 -3.43781
22.7843 140.571 -2.76686
18.5286 146.325 -6.67426
27.0453 141.23 -7.15158
26.8548 142.605 -8.86617
18.583 146.804 -6.98299
18.1217 146.485 -5.98939
23.1925 141 -3.00575
5.39084 153.184 -3.61047
9.74232 147.539 0.228932
11.9923 151.104 -6.55733
17.31 146.375 -4.79515
14.4776 149.207 -6.06483
9.70037 152.203 -5.85322
18.9811 147.175 -7.30213
27.1709 142.973 -8.93759
14.2869 149.431 -6.14194
11.2813 148.167 -1.64989
18.9684 141.957 0.102984
14.2935 147.045 -2.58517
16.0124 144.836 -1.09162
21.8942 141.328 -1.54473
23.6218 145.349 -8.60718
18.1263 142.669 0.124861
9.25953 152.527 -5.34895
9.52923 148.899 -0.560997
26.9263 141.704 -6.3778
4.16393 153.955 -2.46344
23.3134 145.967 -8.63631
11.5607 151.582 -5.66513
12.3745 151.298 -5.94397
3.43041 154.335 -1.99558
23.8238 145.592 -8.37182
6.36209 153.509 -3.20531
17.5203 146.98 -4.33485
21.947 142.074 -1.4472
16.3387 148.163 -4.58702
13.2241 148.4 -1.99485
11.4201 151.762 -4.96778
16.8967 147.69 -4.32284
26.7743 142.275 -5.789
11.6128 149.006 -1.30284
20.2841 142.681 -0.455561
16.8985 144.908 -0.402727
11.4166 151.782 -4.86928
9.4906 150.093 -0.459383
27.1531 142.832 -6.40785
11.1226 152.003 -4.44793
26.9658 141.901 -4.74003
11.8035 151.759 -4.54647
5.38598 154.113 -1.84927
13.0854 148.949 -1.63448
18.1713 148.174 -5.13944
15.8269 149.16 -4.22502
7.81829 153.303 -2.41629
7.30922 153.531 -2.17642
22.8388 143.42 -1.95153
15.1491 148.456 -1.58734
16.4803 149.013 -3.52209
12.2543 149.965 -0.888983
14.7943 148.953 -1.73419
18.6641 145.595 -0.548268
23.9138 143.79 -2.80406
23.1371 143.918 -2.13004
26.5485 144.695 -6.27017
13.8633 149.474 -1.33085
12.8291 150.124 -0.86711
11.3841 152.191 -2.39655
10.0158 152.734 -1.83444
11.5938 152.148 -2.28538
22.2642 148.597 -6.84656
13.3368 150.189 -0.854823
7.98504 153.806 -0.954835
19.9087 145.617 -0.439613
10.4444 152.689 -1.54599
24.3342 147.574 -6.79309
16.2732 148.651 -0.739672
14.3907 151.714 -3.20978
24.2636 147.796 -6.68776
19.9691 149.503 -5.07929
12.0694 152.625 -1.73107
12.1609 152.609 -1.74068
7.70309 154.49 -0.231965
12.1228 152.876 -1.65462
23.0332 145.717 -1.60742
13.0082 152.674 -1.76445
14.1004 152.101 -1.58952
10.7822 152.962 0.421425
11.0341 152.829 0.432254
21.403 146.701 -0.520609
25.0254 148.252 -5.8247
24.93 146.263 -2.88736
11.0731 153.757 -0.634044
11.5791 152.743 0.414534
26.0051 147.395 -5.27186
13.3535 152.006 0.0623019
14.6031 152.427 -1.33584
14.1701 151.88 -0.162039
11.9691 153.931 -0.864001
18.6481 151.63 -3.74666
8.11168 154.892 1.47802
10.1159 154.14 0.730462
24.1232 148.177 -3.73085
13.3979 153.642 -1.47033
16.956 152.447 -2.57817
16.3311 151.434 -0.560093
13.2275 153.805 -0.982519
23.6351 148.421 -2.99361
12.4143 154.155 -0.589897
21.2038 151.13 -4.36796
23.5221 149.411 -3.97858
21.3118 148.638 -0.88707
23.5536 149.486 -4.07285
22.9434 149.211 -2.91008
22.4879 148.553 -1.50745
15.9883 153.184 -1.78922
22.3449 149.302 -1.89085
19.5882 151.825 -2.76826
16.661 152.161 -0.365403
16.3365 153.312 -1.51401
19.8746 151.781 -2.60529
18.2526 152.244 -1.76886
15.4335 153.816 -1.31299
18.6007 152.138 -1.852
20.2313 151.695 -2.71899
18.9234 151.392 -0.857432
20.2837 151.212 -1.71164
