ply
format ascii 1.0
comment Created by Open3D
element vertex 1525
property double x
property double y
property double z
end_header
-12.3143 121.358 13.6218
20.1383 108.523 7.64674
-8.36307 116.581 -0.98524
-12.7233 117.942 -2.06385
-27.0118 123.369 -0.440152
-23.7878 124.86 10.6413
3.66538 112.032 -2.9174
7.39944 112.501 4.52731
15.4425 111.501 12.3623
-28.9617 123.943 -1.44039
-21.8828 122.658 3.73356
20.1288 108.793 7.81602
-8.75964 116.902 -1.08051
-28.1382 125.503 6.34273
-28.5969 124.828 2.72855
-18.7003 123.25 10.6675
17.703 107.549 -1.5861
-22.75 123.744 6.6064
14.0656 108.48 -3.12831
-23.1542 123.134 3.34278
-2.19478 113.87 -4.71858
-18.036 123.141 10.8462
11.8411 109.371 -2.93465
19.7161 108.618 5.68765
-28.0612 125.671 6.5122
-18.4159 120.128 -2.80792
18.1013 108.199 1.23296
0.0672154 115.115 3.51903
19.7779 108.229 3.80626
-22.5938 123.139 3.5818
-27.5288 126.123 8.81795
-8.07137 119.944 11.6771
4.67895 113.191 1.91209
8.16455 112.849 5.60485
19.6865 108.824 5.71965
-20.7369 122.342 2.45366
-23.0032 124.961 10.1636
-28.0018 124.157 -0.863112
2.06953 114.19 1.82018
1.56035 112.914 -4.42616
-22.9875 123.792 4.97699
0.383696 113.286 -4.86491
6.45305 111.715 -2.45415
-22.9421 123.397 2.95228
-9.64104 120.881 12.1531
18.6465 108.551 1.98996
-3.18393 117.547 7.50416
7.04339 113.122 4.01014
-22.2547 123.54 4.13385
16.1177 111.857 12.0022
16.932 111.463 11.517
-4.84345 115.766 -2.92594
-4.62935 115.627 -3.23171
-1.67722 114.246 -4.75243
15.2943 112.307 12.4697
-1.62932 114.24 -4.7624
-25.2477 126.082 9.97167
-7.12438 117.134 -1.03085
9.90713 114.147 11.6012
4.80833 112.69 -2.53334
-25.0057 123.778 -0.109099
-27.6005 124.548 -0.749863
-22.2544 122.941 0.439977
-22.1917 122.756 -0.26516
-22.3846 124.03 4.78577
-20.0714 124.264 9.24081
17.0382 108.453 -2.37851
-19.2118 124.175 10.1305
3.10609 114.298 1.45563
-15.2016 119.754 -2.90544
15.9222 108.644 -3.47324
-20.5735 122.333 -0.0921715
-22.5106 123.669 2.64077
-13.6735 123.019 13.1654
-22.7905 123.677 2.09822
-20.7108 124.164 7.21928
15.2306 108.916 -3.75703
-21.1323 125.187 10.8367
-23.6055 124.13 2.52766
4.76933 114.017 1.86613
-3.3157 115.452 -4.28808
-21.3409 125.448 10.8985
-20.2447 122.682 0.614484
4.59992 114.194 1.79087
-28.0073 125.9 2.54809
9.66517 114.494 10.4433
-1.56027 117.267 5.13401
16.6352 109.034 -2.70705
-20.1082 122.202 -2.13244
-22.9523 123.857 0.491012
18.9103 109.503 2.17731
-20.3474 122.529 -1.39267
-20.2936 122.709 -0.642244
-7.20188 120.93 11.4332
1.71271 115.625 2.14606
-8.6507 121.548 11.7902
1.1516 115.963 2.64295
1.61213 114.285 -4.05795
14.0933 113.931 13.0669
-24.0807 124.411 0.255269
-20.0848 122.727 -0.926624
-7.15214 118.237 -0.717496
-1.68538 117.73 5.29602
-6.2143 117.809 -1.24997
-20.4071 123.02 -0.42154
-21.3716 123.926 1.98999
-20.5741 125.141 8.21036
12.1057 110.855 -3.54775
-20.5182 123.342 0.522024
-27.7502 126.32 2.32554
-17.4888 124.681 10.699
-11.9703 123.364 13.3134
-14.8712 124.006 11.6427
9.79283 115.174 11.0042
5.75797 113.472 -2.39683
-26.6852 125.363 -0.554085
12.8367 110.633 -3.92629
-26.6598 125.419 -0.480616
17.2647 109.579 -2.00767
-21.4886 126.338 11.104
-4.61903 117.228 -2.46201
8.43905 114.609 5.85128
-26.85 127.796 8.97024
-10.1979 119.609 -1.18774
19.8051 111.13 7.79315
-2.41572 118.62 6.25154
9.37731 112.353 -2.76655
-20.8613 123.743 0.193265
-27.8546 126.394 0.933964
-25.7095 125.234 -0.949029
4.43875 115.19 1.57078
17.2772 110.002 -1.24549
19.1024 110.266 2.57759
0.867307 116.838 3.10233
17.2552 110.038 -1.39729
17.614 110.346 0.400933
14.9955 110.322 -3.99337
1.4008 115.113 -4.02914
-5.20772 120.675 9.70461
-19.5116 125.345 7.96771
-22.1748 124.226 -0.873035
12.8602 111.132 -4.02008
4.13096 115.504 1.45191
-19.6333 123.306 -1.08381
-20.629 123.716 -0.867847
-24.9833 125.556 0.346304
-2.50706 119.042 6.34893
-18.7133 125.224 8.3249
-19.0642 125.668 9.52572
-9.56558 123.063 12.6907
-26.6664 125.982 -0.605913
-18.0686 125.27 9.26573
8.92691 115.465 7.79016
3.7023 115.847 1.51686
-21.9449 124.631 0.375955
-18.1689 125.324 8.99437
19.2487 112.105 8.82764
-19.3542 123.22 -2.00746
-10.2018 120.243 -1.04121
-25.1881 125.851 0.196921
-27.5784 126.451 -0.849724
19.1413 111.943 7.57035
-28.2452 126.883 -0.0396521
-17.4561 122.554 -2.38464
-23.1733 125.263 0.563748
-23.2816 124.776 -1.75715
-15.6071 121.841 -2.74759
-3.99931 120.337 8.28825
-17.9771 122.851 -2.24281
-21.6507 124.744 0.221462
14.3958 111.059 -3.92923
-2.60727 116.968 -4.43321
-19.3519 123.463 -1.96033
-20.9114 124.799 1.35611
14.9819 114.819 12.568
-28.7309 127.128 -1.13699
12.82 111.79 -4.15518
-9.15891 123.492 12.6821
-22.1737 124.841 -1.19244
-28.039 128.006 3.33806
-2.03149 117.008 -4.57044
-24.8902 126.187 0.14955
-2.84651 119.971 6.79882
1.20605 117.626 2.87775
-2.90499 117.49 -3.92789
-7.20489 122.697 11.6917
16.9198 111.034 -1.76566
-25.7822 128.677 8.99838
13.9507 115.623 12.9046
-21.6292 125.438 0.9664
-22.5441 125.857 1.19696
4.47066 115.465 -2.5168
-25.4071 126.566 -0.131176
-11.8495 124.829 12.8323
8.82403 116.29 7.33963
-18.5627 123.697 -2.28654
-22.863 125.764 0.0359747
-6.00898 122.471 11.2348
-11.5902 124.834 12.8739
-26.5774 129.094 8.4024
-0.26662 118.881 4.40558
17.3308 111.605 -0.186833
-23.1086 125.975 0.243542
-21.4849 125.112 -1.15717
12.6523 112.335 -4.2884
-28.2572 127.99 0.901032
-23.0295 125.799 -0.599958
2.16769 117.481 1.80361
7.43123 116.127 3.91143
10.7463 113.247 -3.40913
10.9587 116.912 12.5376
16.9703 113.272 5.84521
-2.03053 120.051 5.90522
-6.50996 122.939 11.4765
-1.42794 119.75 5.38062
-22.454 125.753 -0.75395
-1.51962 117.472 -4.63068
4.75036 115.76 -2.52738
-20.7601 125.086 -1.25967
-22.9015 126.33 0.815748
5.12701 115.671 -2.52136
1.66125 116.617 -3.75492
8.1194 116.411 5.03103
-15.9679 126.033 9.81479
6.04807 116.556 2.35273
-19.2559 124.452 -2.07871
-22.9007 126.348 0.275691
17.2155 113.224 4.65317
-23.1068 126.377 0.0243276
-21.3646 125.786 0.0900517
-6.03539 120.215 -0.64531
-28.1055 129.025 3.69551
-27.6884 129.451 6.12742
-12.8712 125.633 12.1262
17.3977 112.341 0.838097
-12.7528 122.484 -1.55597
-19.1518 124.731 -1.60545
-21.2813 125.527 -1.41711
-17.8704 126.868 9.3193
-23.3014 126.311 -1.2914
6.90667 116.705 3.19387
-21.6402 125.69 -1.61996
-15.055 125.856 8.97705
2.5307 116.701 -3.61028
16.5279 112.129 -2.11797
-17.7164 124.093 -2.79107
-18.9635 124.921 -1.25934
2.49706 118.073 1.79616
17.525 114.815 10.4782
-2.61501 118.581 -3.91815
9.54281 117.604 10.013
-7.68321 124.268 12.3813
-20.8794 126.072 0.204602
9.43549 117.546 9.40055
-13.4952 125.936 10.5638
-3.78785 122.03 8.29242
-15.1303 126.212 8.81811
9.67444 117.961 10.9395
-9.59417 125.124 12.454
5.61978 116.257 -2.50798
-0.581599 117.956 -4.65723
8.79792 117.478 7.2001
-21.1746 126.384 0.06741
-0.682682 118.06 -4.64041
16.4654 113.644 2.22545
-23.9091 127.097 -1.30998
6.76416 117.272 2.91184
16.2446 113.823 2.31505
-21.2907 126.34 -0.813979
8.96917 117.707 7.86384
-27.6741 130.116 5.57613
-18.3633 125.082 -1.99843
13.6855 113.164 -4.75037
-5.91294 121.078 -0.526325
1.39317 119.266 2.70984
-12.3563 126.174 11.4288
-9.21876 122.303 -0.642603
-5.40652 120.94 -0.788641
-26.0562 127.943 -1.99711
11.9087 118.007 12.7529
16.9354 115.811 10.9492
-7.48358 121.744 -0.538302
-24.5438 127.601 -1.39401
-15.7712 124.077 -3.39035
-4.48189 123.116 9.3112
-10.2444 125.761 11.9064
8.45068 117.724 5.75432
-26.169 128.119 -2.17825
14.6774 113.842 -2.2513
-28.0904 129.903 1.59995
0.179457 120.561 4.24948
-17.9193 125.369 -2.56724
17.4712 114.849 5.61248
17.626 115.782 9.67946
-18.0327 125.467 -2.78006
-2.6778 122.377 7.10968
14.4623 114.724 0.176288
-27.7148 129.773 0.73782
10.1963 118.985 11.7796
-20.1594 126.647 -1.23416
14.8199 113.992 -2.71366
-20.3222 126.935 -0.443213
8.04739 118.157 4.75774
-10.4039 123.419 -0.716446
-5.15544 124.216 10.4236
-27.4765 130.948 5.45625
7.9944 116.258 -3.86135
-19.3888 129.334 10.3458
-4.14296 123.661 9.04818
-20.3648 127.258 -0.0496175
-6.40898 125.137 11.8826
-17.1095 125.495 -2.7714
15.9712 117.239 11.5218
-12.5874 127.271 11.1613
-6.65139 122.461 -0.468861
10.47 119.365 11.9842
-27.8153 130.906 3.44114
-16.9323 125.624 -2.75927
-25.9515 129.053 -1.85759
6.78176 118.604 2.7785
-21.4037 130.195 9.68272
-20.5909 127.57 -0.314738
2.77864 118.627 -3.48657
-2.59033 120.538 -3.50132
-26.4122 131.423 6.89068
-22.0122 130.385 9.07814
4.66254 118.266 -2.53176
-4.7931 124.55 10.0318
14.5792 114.126 -5.28477
-2.57423 123.152 7.19961
14.4991 118.385 12.5196
14.308 118.467 12.5464
15.7726 115.533 2.0834
-0.220353 121.811 4.753
-21.1481 130.353 9.68562
17.7218 115.405 4.31586
17.8014 116.131 7.51281
6.13435 117.776 -3.06777
2.79012 120.123 1.85142
13.2292 114.819 -5.311
10.9026 119.78 12.3283
12.4479 119.348 12.699
7.50697 117.278 -3.81211
-27.1904 130.8 1.56632
14.983 115.305 -1.07002
12.8256 115.143 -5.45032
-1.32617 122.787 5.82902
-16.536 126.208 -2.66199
6.1611 119.395 2.10987
4.23355 119.975 1.56923
17.479 116.683 7.45419
-8.88266 126.825 10.9784
-26.4557 132.034 6.64521
0.337678 122.072 4.34593
-1.89168 123.376 6.54685
5.98722 118.316 -3.20186
-15.0676 125.831 -2.89869
-13.2314 125.476 -1.85081
9.72285 120.454 11.1205
-24.9857 129.471 -2.70558
17.3563 115.876 3.01306
-16.3862 126.253 -3.64984
1.96708 121.226 2.36999
1.79595 121.361 2.59175
6.92398 119.608 2.8269
-20.8732 128.447 -1.46608
-0.669289 120.795 -4.32703
-13.9183 128.739 9.49607
12.3119 115.839 -6.17272
14.166 115.949 -2.91068
-6.29431 126.585 11.56
15.026 116.036 -1.49124
-12.5768 128.4 9.67669
-16.8014 126.851 -3.31085
13.7522 115.748 -4.70246
-6.03952 123.77 -0.294893
-17.4721 127.312 -2.43559
9.92071 117.176 -4.68973
15.7869 116.403 0.745725
13.2932 115.909 -5.51717
-15.419 129.535 9.31684
-3.98634 125.519 9.3612
7.59664 118.397 -4.04542
-1.32173 123.954 6.18003
-20.2309 129.1 -0.394026
-14.6213 129.337 9.04069
-15.7041 129.875 9.66036
-12.1525 126.038 -1.46772
-18.4561 130.786 9.17654
14.9953 119.558 11.5222
-15.6136 126.944 -3.06552
-1.62274 121.944 -3.38972
-26.5743 132.362 3.11576
8.63674 118.221 -4.35173
-3.62583 123.263 -1.37139
6.5705 119.226 -3.27677
9.85388 121.479 11.1899
6.81627 119.122 -3.50075
-17.6276 128.135 -2.05084
-9.0749 128.041 10.386
16.3453 118.317 6.86091
-12.9335 126.56 -2.13791
11.0768 117.332 -5.39035
12.9059 120.904 12.5549
-18.9094 129.014 -0.754
-2.18361 122.738 -2.39352
-22.964 132.407 7.50992
-19.921 129.46 -0.521412
-25.2678 133.002 6.43816
9.39162 121.274 8.51792
-24.0047 130.553 -2.37546
11.9199 121.377 12.528
-1.90763 122.729 -2.58633
-4.01892 126.39 9.84099
-15.8429 130.483 9.45341
-18.7346 131.374 8.83463
8.11323 120.897 4.51815
-0.835655 122.053 -4.07155
-21.169 129.639 -2.3122
-3.65027 123.728 -1.27073
-21.151 132.133 8.02254
-25.5768 131.953 0.439276
-20.3704 132.067 8.65251
-20.7228 132.13 8.3362
14.1776 117.15 -3.15696
-22.9559 132.785 7.55382
12.952 121.289 12.3972
8.41946 121.281 5.39674
-1.52836 122.879 -2.84377
-18.6486 129.362 -1.04465
16.9738 117.424 1.55467
10.6305 118.145 -5.16923
11.2117 122.031 12.1947
-23.3946 130.618 -3.41185
-26.0436 133.115 3.19251
15.1044 117.771 -0.448315
-3.29128 126.469 8.9018
-25.9794 133.114 3.06738
8.57222 121.566 5.78788
-25.3289 132.397 0.752667
14.9265 117.916 -0.571478
18.1483 117.928 4.30579
2.69124 122.883 1.90831
-14.5727 127.76 -3.34513
-13.417 127.417 -3.10622
-25.3186 132.638 1.16991
16.2747 117.842 0.565177
-1.1724 123.143 -3.1521
-9.5885 129.279 10.032
16.9175 117.994 1.26825
14.1206 121.593 11.7973
-10.1244 127.088 -1.29406
-18.916 130.256 -1.05188
5.35266 121.243 -3.01614
-25.1128 133.105 1.60488
-5.22802 128.179 10.4881
-12.284 130.331 8.95067
-14.4233 131.08 8.80599
-1.26863 126.004 6.76176
-10.9014 127.476 -1.58301
0.811518 124.675 4.03009
15.7696 120.706 9.22317
-25.4076 133.874 3.2035
15.933 118.575 -0.113279
-17.2636 129.934 -1.7322
13.5214 119.098 -1.75098
-9.51562 127.413 -1.03967
-8.06123 129.731 11.0134
6.77487 122.514 2.40004
-13.9396 131.298 8.56435
-16.3559 132.111 8.38402
-19.6191 131.282 -0.414979
-13.5509 128.241 -4.33216
18.5553 118.772 3.58673
8.6045 122.704 5.3769
9.66328 119.915 -5.1774
-6.76102 129.477 10.8473
9.56625 123.554 10.0771
-23.9718 134.716 7.15556
-0.826758 126.41 6.34254
-11.0246 128.147 -1.78615
-19.4037 131.467 -0.313959
-23.7025 132.887 -0.837647
8.23326 120.892 -3.99243
-0.827364 124.317 -3.16883
9.4636 123.626 9.35883
-20.1611 131.28 -2.59867
2.75261 124.339 2.03473
-0.00973461 125.995 4.93724
16.5455 120.979 8.22351
-16.0342 132.56 8.50518
-18.7562 131.434 -0.915162
6.64778 122.035 -3.14213
-3.78151 128.774 9.8875
15.5245 119.491 -0.668624
17.2087 120.471 5.99925
-14.3687 129.521 -3.02845
-7.5731 127.789 -0.374884
-24.6099 134.576 2.77654
-23.0333 132.717 -2.83241
-23.8916 133.786 0.38753
16.2603 121.572 8.64626
13.5389 119.838 -2.89549
11.6999 119.616 -6.61472
17.0078 120.822 6.46108
-25.0598 135.312 4.87375
-10.1533 128.542 -1.5785
14.994 119.78 -1.1533
13.4474 123.157 10.9099
-25.2002 135.743 6.37647
-18.8255 133.845 7.80585
17.5488 120.548 5.67646
-15.0486 130.143 -2.63609
-6.53387 130.323 10.6006
17.1594 121.02 6.31498
-11.0918 131.484 8.41291
-19.4701 132.153 -1.58781
3.45907 124.973 1.97304
17.5629 119.833 1.25156
9.33496 121.139 -5.56411
16.5784 119.495 -1.73494
9.90193 120.818 -6.16232
-8.249 128.567 -0.81353
-24.9226 136.062 5.9295
17.5569 119.85 0.592958
18.5877 120.173 3.45097
-21.7493 133.149 -2.04072
-2.00766 128.613 8.17402
-11.3793 129.109 -3.85618
-18.7912 134.499 7.97545
18.9806 119.563 1.09935
-7.07658 128.434 -0.363428
9.04658 124.2 5.77941
8.49223 124.063 4.33782
21.6672 119.363 4.11281
-14.7654 133.358 8.71499
21.938 119.401 4.35338
-9.68596 131.778 9.30899
16.6049 120.262 -0.260138
-19.9909 135.088 7.83908
1.45834 124.786 -3.88514
23.0149 119.112 4.22894
-18.2555 132.497 -0.825187
-2.48145 126.876 -1.135
-9.4749 131.681 8.83906
22.0501 119.304 3.45068
7.32627 122.662 -4.40021
-19.0953 132.72 -1.33595
18.9084 120.648 4.20634
-10.7904 132.129 8.27282
17.3332 121.152 3.62457
-21.8613 133.626 -2.19485
18.8527 120.549 3.27159
-16.3607 131.666 -2.47427
20.649 119.725 2.27714
18.9379 119.628 -0.725071
18.8064 120.956 4.57813
-24.2226 135.252 0.75778
-1.97244 126.89 -1.47359
-24.3401 136.075 4.00337
9.68632 121.646 -6.34503
-23.1755 134.166 -2.41814
23.7693 119.518 5.66337
0.726437 127.275 4.04928
10.0774 125.572 10.8349
-6.88013 128.939 -0.437731
2.6934 126.184 2.22019
19.1566 120.099 1.00231
8.53997 124.606 4.12581
14.4944 123.834 9.73927
-19.5411 132.947 -2.67372
-17.2132 132.44 -1.35703
22.5962 119.314 2.46438
14.0321 120.759 -4.36793
24.789 119.383 5.87951
-20.1564 135.805 7.9375
16.7641 120.236 -2.99476
-9.87735 129.77 -2.43188
17.2368 121.158 1.64123
-10.3351 129.832 -3.0713
-24.6001 136.978 5.93618
0.85348 125.682 -3.99344
-18.5586 133.273 -0.906495
17.5434 121.31 2.37668
0.685765 127.734 4.2887
-20.1695 133.506 -2.70957
10.3998 126.04 11.4489
-24.2511 136.122 2.18346
16.8227 121.388 1.09353
10.0058 126.055 10.6048
1.81062 125.595 -3.74456
-20.9485 136.373 7.96235
18.1564 121.887 4.91678
20.813 119.986 0.67363
19.2947 121.461 4.60706
16.6216 120.717 -2.59889
9.48697 125.41 6.65563
17.8827 122.232 5.64287
5.62284 124.536 -2.9993
25.3785 119.641 5.76671
19.1816 120.173 -1.34904
-22.5917 137.102 7.8533
17.0674 123.107 7.69635
-7.64674 129.783 -1.03585
18.7303 121.676 3.95322
-0.439213 126.85 -2.95778
15.9934 121.706 -0.182356
4.62952 125.067 -2.96748
18.4525 122.038 4.90212
0.293581 126.45 -3.6221
2.78642 125.632 -3.408
16.9025 121.915 1.86734
16.2743 121.422 -1.44036
-23.3026 135.313 -1.76796
-14.52 134.702 8.75704
-19.7295 136.449 8.36921
-13.9832 134.432 8.37619
16.4608 122.58 3.5467
-14.2455 134.598 8.57169
12.5849 121.745 -6.04601
13.9195 122.001 -2.99717
-1.12998 129.684 7.05379
-24.2329 136.629 1.83403
-23.352 135.884 -0.0903651
18.5895 121.045 -0.357593
16.8537 121.947 0.789568
-7.30019 132.513 9.50064
6.95537 125.794 2.17551
-11.6103 130.789 -4.49999
9.44228 125.843 6.01362
-12.8676 134.147 7.84353
11.6665 122.151 -6.41443
-11.147 130.642 -4.60628
14.3495 124.875 9.08802
-1.27651 129.947 7.18984
13.418 125.348 9.51597
-4.37821 131.672 9.6492
15.9102 122.71 1.64828
-21.8866 135.051 -2.61914
18.392 121.376 -0.959621
16.3889 121.593 -3.21802
-21.6919 135.138 -2.98193
-23.914 137.195 2.419
-2.76175 131.341 9.25194
7.85345 126.109 2.7337
1.8025 126.754 -3.62868
-9.7579 133.442 7.44716
-1.73724 128.536 -1.42239
12.2953 126.398 10.5587
4.88835 125.87 -2.97771
-3.67549 129.608 0.0163336
15.2779 123.901 4.14645
-18.1275 134.258 -1.98863
-19.4398 134.502 -2.92527
8.22335 124.079 -5.77197
7.95632 126.213 2.83841
13.2249 122.925 -3.33378
17.0358 122.567 0.644449
20.9023 121.133 0.236336
-20.7542 135.175 -2.5854
15.4797 123.213 0.751457
-0.213789 129.972 5.94559
18.187 121.471 -2.62832
-18.362 134.592 -1.739
-11.3309 131.431 -4.66858
-19.0756 134.637 -2.80256
-9.45781 131.145 -3.297
-19.8856 137.642 8.69993
16.1386 122.926 -0.0942756
12.6619 126.633 10.3443
-7.30214 133.335 8.63385
2.64906 127.028 -3.29822
-23.8288 138.134 4.11658
0.0884784 127.994 -3.17753
-4.98399 132.8 9.43011
3.29863 126.934 -3.13441
0.215303 130.049 5.48238
-12.7384 135.277 8.23328
-3.07086 129.925 -0.19999
18.0868 121.953 -2.40656
6.96775 126.979 2.29466
17.6854 122.052 -2.83439
18.8858 121.719 -2.45402
14.1829 124.588 2.6662
14.1175 126.01 8.61675
20.4484 123.427 6.92475
-21.69 136.802 0.129706
13.3773 122.903 -6.41071
-11.6378 135.154 8.15302
0.105522 130.433 5.62421
-10.0312 134.453 7.40226
1.15943 127.893 -3.74645
20.5814 121.755 -0.71383
21.6224 122.039 1.78433
-18.1625 135.075 -2.60576
-7.00838 131.475 -1.20306
11.3182 127.824 10.803
-22.8033 138.075 3.12034
-21.999 137.285 0.842681
-1.69497 131.865 8.10709
-7.17754 133.709 7.68121
18.1477 124.408 6.11974
1.4246 129.714 3.23611
8.50987 127.368 3.50296
-1.11339 131.684 7.35298
13.0638 123.802 -4.95538
17.432 125.037 6.85405
26.4085 121.474 5.11853
18.4827 124.534 6.23851
-9.09902 131.98 -3.59489
15.2756 125.191 4.09566
-20.9342 136.495 -2.20932
6.21837 127.902 1.91487
-14.249 136.724 8.66446
9.68415 124.678 -6.71852
20.6876 124.081 7.2212
-20.616 138.862 8.05757
16.6134 123.041 -3.40988
-1.85426 130.188 -1.1702
14.5257 124.346 -1.53161
14.7276 124.035 -2.58948
17.234 123.854 0.108894
16.9453 124.904 4.14566
15.4176 124.02 -1.93527
26.8011 121.622 4.90622
-12.8292 136.359 7.94367
21.2008 124.2 7.08013
15.5585 123.928 -2.80316
13.0406 124.045 -6.10052
2.78983 129.706 2.61437
16.4024 125.236 3.94695
15.0009 124.258 -2.37025
17.5878 124.932 4.33337
-4.32325 133.754 8.98747
-18.4916 138.667 8.5785
11.3613 124.479 -7.12167
-4.452 133.859 8.96287
23.2785 123.47 6.20749
3.94147 129.426 2.26901
-4.44981 131.805 -0.228073
20.0645 122.448 -3.27807
16.86 125.293 3.92644
8.92189 128.188 4.17004
15.7077 124.425 -1.73221
6.6955 128.492 2.03657
-0.51749 132.275 6.75798
-9.15962 132.832 -3.93636
16.6744 123.718 -4.03313
0.173364 131.82 5.64515
-20.2404 137.816 0.42574
-21.1496 139.849 7.48245
15.3843 124.76 -2.09605
-21.7693 138.774 1.72102
12.8433 124.588 -6.87657
2.55438 130.491 2.75641
4.87633 128.302 -3.30011
-21.9624 139.297 3.05212
15.3535 126.043 2.59874
3.71643 130.16 2.43542
12.3953 124.881 -7.02814
12.2978 128.883 9.89994
-20.4402 138.312 0.815504
18.3459 125.784 5.71772
-1.21934 130.967 -1.72652
-21.6686 139.002 1.70273
8.58108 126.455 -6.42717
13.4204 126.595 1.39538
-0.130784 132.543 6.32669
-5.38483 134.766 7.79795
14.3953 128.045 8.88298
-16.7752 136.17 -3.4246
18.3364 125.787 4.96713
16.8395 125.008 -0.619077
-16.6574 136.581 -2.07562
18.5484 123.605 -4.47289
8.92284 128.982 3.87279
23.5306 123.593 2.71706
8.7097 128.984 3.39044
21.4247 125.621 7.87196
16.05 124.782 -3.92686
15.2141 124.834 -4.96653
15.9594 127.649 7.84756
9.17157 129.917 7.30267
-21.435 139.387 1.60536
14.2679 127.327 3.79953
13.7226 125.775 -3.6789
13.0864 126.704 -0.683735
15.8843 124.887 -4.24795
15.6219 125.621 -1.60757
9.24616 129.917 7.02114
-16.9683 137.149 -1.60329
-17.4356 137.323 -1.58208
-15.9968 136.402 -3.46641
4.29628 129.295 -3.42727
0.313254 132.876 5.78126
27.2437 123.159 4.81048
3.80713 130.927 2.67166
-13.2521 138.134 7.67797
-8.23343 136.138 6.65045
-7.81981 133.61 -3.51686
6.48235 128.154 -5.34032
-7.1057 135.802 6.80976
15.5256 125.233 -4.27554
9.12864 130.219 7.3428
18.8897 126.598 6.57325
-16.55 139.556 8.4924
18.795 126.551 6.18441
-10.0404 136.783 6.30449
13.6459 125.976 -4.18283
18.3482 126.673 5.62766
15.5674 126.301 -0.225215
9.22195 130.228 6.95946
9.34469 129.756 4.92481
-21.7465 140.927 5.72212
-22.1935 140.784 4.36348
-19.2568 140.541 7.73283
2.23228 131.896 3.12535
23.4313 124.148 1.9093
12.9873 129.483 8.94613
-8.8465 134.103 -4.21599
-0.4985 131.708 -1.86817
12.7409 125.891 -7.03073
9.27222 130.34 6.68039
-6.44981 133.828 -2.12782
15.137 125.697 -4.34859
18.4259 124.466 -4.68473
-12.7525 138.202 6.97907
3.77751 129.97 -3.27291
-7.69861 133.98 -3.61323
18.4777 126.576 4.16806
3.7972 131.447 2.83567
14.0335 126.402 -3.28044
4.78636 129.59 -3.6196
0.587615 133.219 5.46016
9.14369 129.931 4.28225
13.6956 126.531 -3.3754
11.6693 126.32 -7.35121
-15.5395 136.963 -2.98464
-15.5146 136.973 -2.93238
4.7667 129.663 -3.61608
13.062 127.277 -1.3238
18.5109 126.651 4.19135
8.75247 129.853 3.13649
13.8178 126.486 -3.6159
-8.00376 136.532 6.39564
9.44135 130.182 5.44484
20.2775 124.843 -1.06555
18.1636 127.091 5.15883
15.0622 127.542 2.34421
18.6034 127.131 5.77902
14.4803 127.734 2.06369
-13.9604 139.219 8.06858
-20.3132 139.927 1.39229
14.1618 126.657 -3.34309
9.41417 130.521 5.9677
13.8505 126.456 -4.696
-16.309 137.842 -1.56345
17.9549 125.045 -4.86679
-16.9288 140.473 8.42538
8.75981 130.16 3.06495
-16.441 140.324 8.4732
16.9359 125.353 -5.2211
5.35271 129.677 -4.26134
14.5905 128.245 3.45908
13.9629 126.746 -4.03095
-0.501549 134.582 7.38051
15.1177 126.356 -4.291
3.00796 132.372 3.11394
-16.3345 138.143 -1.38523
-21.4885 141.14 3.63842
-5.7498 134.315 -1.8053
9.46118 130.612 5.20607
4.14749 130.467 -3.4318
-6.63096 134.418 -2.90255
-7.87642 136.968 6.05777
-15.4306 137.643 -2.61813
-0.842049 132.905 -1.02856
11.0756 127.257 -7.23513
-15.534 137.643 -2.98768
-13.0916 139.148 7.07538
-13.5955 139.438 7.55039
14.8831 126.556 -4.58452
8.54306 128.373 -6.41288
8.93211 130.563 3.46418
-15.0787 137.37 -3.87474
1.10202 133.684 4.75399
-12.7481 136.431 -4.50697
18.2556 127.963 5.88542
-20.8543 140.821 1.84225
14.0685 126.949 -4.79897
3.95038 132.295 2.77802
6.47618 131.204 1.91424
8.25062 130.766 2.56237
-6.7757 136.965 6.25635
0.18277 132.633 -1.87081
14.9829 127.761 -0.395309
-14.5954 137.428 -3.6914
-12.5782 136.535 -4.46432
-15.6749 137.678 -4.38727
-17.0339 141.183 8.29805
1.06693 132.233 -2.64718
15.2584 128.095 0.9133
10.1784 131.974 9.64261
25.1223 126.02 6.73459
-10.1994 138.366 6.08643
15.2202 127.53 -1.97548
-19.7873 142.03 7.0816
-9.05691 135.559 -4.53599
17.482 126.08 -5.04397
11.8065 127.583 -7.47217
23.3407 125.273 -0.153558
19.7127 125.718 -3.94008
-0.179718 135.345 7.04926
13.8558 127.531 -5.43174
16.4455 126.676 -5.19021
9.34452 128.91 -6.75129
14.5064 128.229 -1.9017
15.9425 128.556 1.46425
13.8219 127.995 -4.12833
2.96762 133.483 2.88142
17.4796 129.191 6.33482
-16.2229 141.575 8.38143
7.98782 129.648 -6.19931
-12.5266 139.89 6.55484
-5.32044 135.327 -2.11217
0.902802 134.893 5.39125
13.9003 127.917 -4.80845
15.8081 128.118 -1.20479
15.4346 128.746 0.906535
-18.6158 140.837 1.05238
13.3133 131.335 8.54758
9.32163 132.023 5.27297
20.4159 126.498 -1.61028
13.7701 128.296 -3.96688
13.8158 128.312 -3.90317
1.55159 132.863 -2.96291
-16.7634 139.935 -0.37597
14.5269 130.85 7.95225
14.0005 128.813 -1.5854
10.0758 132.824 9.32917
11.647 132.265 9.2416
-19.8034 141.623 1.71248
-12.3511 137.538 -4.62018
1.06555 133.396 -2.15954
-20.6857 142.422 3.58436
-7.08353 135.929 -3.67785
-6.26393 135.758 -3.2337
6.77374 130.577 -5.72683
5.01095 132.995 1.91744
23.7548 126.091 0.553988
-6.6858 135.93 -3.52382
-18.9833 141.456 1.37965
19.8206 126.606 -3.56858
9.55335 129.468 -6.87486
13.201 128.316 -6.40534
-18.6506 141.361 1.19276
14.7175 128.935 -1.65764
5.85187 131.209 -5.39935
16.0279 130.55 7.00639
9.20699 132.573 5.34573
-3.1807 135.658 -0.374686
-18.6826 141.518 1.24548
-5.4088 137.994 6.13145
23.9894 126.557 1.56958
-4.41221 135.833 -1.64039
9.84419 133.23 8.66769
9.98251 133.257 8.97325
2.00334 133.176 -3.42612
27.9125 125.318 1.70766
14.5278 129.396 -1.07638
27.6777 126.39 5.85519
23.9532 126.481 0.612767
9.18645 132.313 3.20209
-2.94438 135.798 -0.234968
-15.7105 142.323 8.29699
28.075 125.361 1.82014
10.4787 129.487 -7.18532
14.2371 131.786 8.24043
30.1235 125.37 4.55773
15.527 129.319 -0.61999
-19.093 143.332 6.82154
-16.2515 142.712 8.14656
-2.17455 135.787 -0.273988
15.8185 129.09 -1.91068
15.4489 129.63 -0.199321
14.7498 129.88 -0.225464
26.7164 126.177 1.9416
-3.8536 136.193 -1.3477
26.4358 127.273 6.08906
4.6488 132.56 -4.29104
22.1601 127.126 -1.23598
28.2517 126.573 5.53558
-9.73476 137.834 -3.69104
-9.53873 139.82 5.00677
2.18268 135.389 3.69323
8.24972 130.919 -6.32589
-17.6078 143.274 7.45819
29.878 125.896 4.75408
1.49027 135.872 4.56734
9.37989 133.013 4.06046
-14.9421 140.331 -1.33341
-19.9543 143.517 4.31057
-19.6679 143.025 2.44533
19.6067 127.699 -3.85944
-19.631 142.987 2.26446
15.3703 131.978 7.87886
-18.2248 143.662 7.08011
14.7914 130.36 -0.0625515
7.54254 133.634 2.734
19.9479 130.429 7.64875
2.75952 133.783 -3.95765
1.38585 136.36 4.89545
-15.0016 140.77 -0.971657
13.7115 132.901 8.57648
15.1343 130.452 0.0579848
27.1945 127.592 5.99273
16.3099 131.715 7.18271
-6.52415 137.353 -3.33964
8.00525 133.711 2.98522
14.5576 129.757 -4.12441
15.1692 130.512 0.0100804
21.8198 129.743 6.7086
20.3378 128.137 -2.40993
9.03103 133.925 5.25145
-18.8407 143.987 6.08056
25.1311 128.193 4.71374
23.7697 127.448 -0.828262
-11.2935 138.922 -4.76504
12.4207 133.783 8.97968
-13.7306 140.025 -3.7763
29.2255 126.357 2.51095
-14.6874 140.612 -2.81094
5.37283 132.942 -5.4273
1.49112 135.075 -2.21091
16.5038 131.964 7.08962
26.1585 127.874 4.05707
-0.598136 136.179 -0.820764
13.4491 129.972 -6.18819
21.3012 130.31 7.05166
30.4807 126.238 3.49525
-19.3008 143.717 2.99923
-14.6896 141.205 -0.903708
24.1938 127.568 -0.692714
2.95711 134.306 -3.96292
15.1504 130.854 -0.413583
27.2011 127.479 3.29958
9.08815 131.619 -6.57323
2.01818 136.643 4.20954
9.33229 133.909 3.53822
15.4635 130.266 -2.88585
-7.11102 140.094 4.99344
0.0132266 136.149 -1.25649
29.5245 126.632 2.54572
-9.1709 138.847 -3.62965
23.4709 128.032 -0.676669
13.4853 133.839 8.71406
26.4098 127.788 2.25236
-1.32003 136.979 -0.346334
7.54109 132.604 -5.78134
-1.938 138.32 4.27551
20.9744 128.777 -2.08168
-2.33177 137.359 -0.622372
13.5121 134.029 8.72263
-14.1009 140.958 -3.37516
-14.1629 141.021 -3.35236
29.4601 127.67 4.93389
13.6519 131.205 -3.7844
6.8092 133.225 -5.69985
5.91323 133.577 -5.68282
16.9941 132.746 7.43676
20.889 129.085 -2.49358
6.01163 133.61 -5.70867
-11.0367 140.019 -4.37911
28.5076 128.254 4.90818
14.5496 131.115 -4.2217
15.9474 130.48 -4.84114
-2.47859 137.956 -0.833875
-8.834 141.431 4.26466
16.0726 130.512 -4.87354
-1.3273 137.733 -0.364433
-15.8542 143.088 0.477062
26.6198 128.653 2.59099
13.5542 134.658 8.49951
15.1696 131.363 -3.17434
2.3257 137.671 4.32912
8.82813 135.621 5.32415
26.6096 128.518 1.51811
13.347 134.86 8.5277
10.0235 132.537 -6.4587
-1.15379 138.888 3.77404
-5.19067 140.696 5.17198
8.42917 135.28 2.53213
-6.04779 139.137 -2.85084
27.8153 128.319 1.9321
10.9497 135.866 8.65334
24.8554 128.963 -0.0219009
15.3728 131.601 -3.13968
23.4458 130.826 5.63155
-7.04273 141.392 4.73949
26.9227 128.795 1.91275
23.4802 130.885 5.57022
7.6694 133.844 -5.96291
-0.129191 139.514 6.33925
12.3612 131.997 -7.06968
21.1442 132.091 6.4
-18.0544 145.03 2.59701
24.4239 129.429 -0.0460165
-6.09267 139.572 -2.80885
-16.3441 145.44 6.70294
2.02284 138.601 5.1677
-5.52696 141.223 4.90043
3.95802 135.747 -4.41809
27.1662 128.874 1.08245
9.55437 136.557 7.25486
-7.11738 139.995 -3.18644
27.5213 128.919 1.60473
-8.41641 142.189 4.05101
3.77365 137.798 3.65285
18.7436 130.619 -4.4835
9.12773 133.651 -6.13836
-11.7024 143.743 5.5276
21.0483 132.378 6.28447
13.8333 132.284 -5.06176
-17.019 145.776 5.82265
11.8675 136.222 8.49257
2.61395 136.652 -3.64873
12.8956 135.821 8.23992
23.6233 131.381 5.24416
4.58641 137.525 2.75608
21.1304 130.355 -2.98452
8.94651 136.266 3.67872
26.1296 130.208 3.61628
24.8104 130.799 4.13739
5.17955 135.7 -4.91574
25.417 130.643 3.78984
-6.84271 142.246 4.38515
8.8986 136.638 4.11405
12.2943 136.42 8.28424
12.9846 132.632 -7.15165
0.965478 139.533 4.15718
-13.4518 142.994 -2.87519
-14.1829 145.528 6.74827
-14.1401 143.908 -0.203698
18.3365 134.027 6.51442
-17.4589 146.108 3.92907
2.6472 137.245 -3.7064
9.23973 137.249 6.13724
-3.94784 140.058 -1.76454
15.2482 132.967 -3.19315
15.5024 133.119 -2.24168
4.37105 138.261 2.64847
22.895 132.471 5.8087
10.7828 133.809 -6.74267
-13.2896 143.336 -2.54581
-16.1321 145.535 2.41961
-14.1656 143.975 -1.50021
-2.2723 139.898 -1.05703
6.18248 135.819 -5.89677
-9.58959 143.823 4.32442
-11.5388 144.743 5.23954
-17.0591 146.657 4.82685
-0.0308788 139.243 -1.21532
-1.62952 139.99 -0.796664
-8.40403 141.558 -4.36217
-10.9518 142.533 -4.15708
-11.4629 142.774 -4.16232
14.0884 136.494 7.41159
-11.9355 145.196 5.33609
25.5663 130.677 -0.162578
21.2505 133.582 5.73253
17.1611 132.577 -4.71123
1.49643 138.653 -2.36917
10.2281 134.588 -6.6165
0.51515 139.288 -1.63003
20.5101 133.999 5.88159
20.8357 133.855 5.73956
-6.77079 141.546 -3.28777
1.33044 140.686 4.94891
9.12602 135.309 -6.27835
8.33288 137.449 1.60525
4.04181 137.548 -4.53369
25.9823 131.491 2.52961
24.8105 132.13 3.44537
19.321 132.313 -4.11285
-12.1636 145.669 5.321
8.66508 135.632 -6.21265
0.617349 139.53 -1.71243
8.91783 135.58 -6.23126
9.10439 138.326 5.71339
1.7197 138.975 -2.63488
-11.4077 143.261 -4.15215
5.85787 138.521 1.33822
3.82445 139.613 2.79896
22.1168 132.131 -1.83727
-16.511 147.269 4.50112
18.4646 135.425 6.24983
16.3888 133.933 -3.39527
1.16948 141.212 4.73726
-2.48589 142.434 4.2825
-16.0262 147.142 3.93064
5.47331 137.479 -5.34761
-13.5078 145.224 -0.92889
-11.5626 145.945 4.96329
-2.10879 142.44 4.21005
19.6747 132.887 -3.78484
-3.31077 142.907 4.33487
1.53361 141.12 3.85927
7.35785 136.739 -6.2974
-3.1126 141.701 -1.43633
-13.4448 145.552 -0.657515
1.97129 141.055 3.15119
15.1913 134.89 -3.26987
21.3513 132.947 -2.29351
23.7261 133.678 4.33869
-12.7886 146.794 5.32191
-9.91687 145.517 4.0118
-12.2562 144.59 -3.49617
24.3261 132.481 -0.105763
-15.5422 147.378 3.32878
18.5645 133.501 -4.7369
26.6361 132.233 1.76651
-9.81945 145.659 3.9118
-9.42892 143.587 -4.38581
-0.243754 141.127 -1.06486
5.9531 137.841 -5.81727
16.8397 136.84 6.28879
-1.08544 142.62 3.92814
8.46423 138.803 1.71684
-8.80981 145.355 3.65965
-14.5389 147.061 1.92917
1.66658 141.76 3.65273
26.801 132.455 1.58366
-6.16665 144.567 3.62151
2.01244e-05 141.292 -1.24143
23.6729 134.248 4.22398
-12.5073 147.212 5.01231
8.83835 139.335 3.40125
-10.6665 146.457 4.26612
13.6959 138.634 7.30544
-14.0844 147.891 4.94894
15.7903 135.408 -3.41148
-13.5746 147.762 5.07131
-2.81067 142.479 -1.35873
4.90738 138.95 -5.00131
-6.40171 143.328 -3.35931
5.4892 138.677 -5.39097
0.406833 141.399 -1.54067
2.46801 140.362 -3.22048
9.34342 140.09 5.67103
11.3494 136.437 -7.15625
-0.24036 141.988 -1.17336
23.0277 135.139 4.55858
19.5197 134.41 -4.01313
12.9693 139.417 7.42774
13.9847 139.029 7.19084
-10.7367 145.135 -4.14831
13.8016 136.771 -3.02986
-7.13213 143.923 -4.03781
14.1663 136.71 -2.84659
25.9751 133.805 2.27953
3.23203 140.472 -3.78948
11.4427 136.777 -7.20497
7.91461 138.238 -6.4885
25.966 133.952 2.32502
4.01884 141.566 1.75553
13.8636 136.468 -5.46042
3.24035 142.29 3.21769
25.3288 133.797 0.212691
18.7925 135.014 -4.44865
0.631129 142.081 -1.68882
14.7664 136.867 -2.75445
-0.628474 142.737 -1.08348
16.1194 136.205 -3.90868
15.2203 136.665 -3.31413
-4.27544 143.868 -2.04639
8.592 140.302 2.09296
12.6616 140.125 7.2597
15.1047 136.876 -3.53229
16.8461 136.113 -4.22503
9.30785 138.257 -6.55259
-14.1692 148.727 2.63356
4.30868 142.038 1.45755
-9.02906 145.439 -4.46183
8.85558 141.241 4.21853
-3.38445 144.322 -1.62815
14.4158 137.958 -2.06293
9.01428 138.847 -6.53733
-12.7837 149.012 4.00856
3.97281 142.742 2.39264
-12.4466 149.009 4.0338
13.0963 140.697 6.90399
-12.2995 147.703 -1.45471
-11.0796 148.566 3.8688
-12.1556 147.637 -1.96872
13.1309 137.953 -5.26328
8.27089 139.446 -6.59203
14.1539 138.491 -1.89621
8.09535 141.417 1.27219
-12.8803 148.728 0.837151
15.1509 140.156 6.31176
16.8604 137.209 -3.90072
2.33133 142.649 -3.07169
19.1973 136.69 -3.12238
6.13106 140.761 -5.66748
-13.2744 149.473 2.18467
-10.4937 147.098 -3.79698
6.42587 140.86 -5.74509
4.03911 143.67 2.55246
-12.33 149.572 3.00235
16.2894 140.229 5.77657
21.4052 138.311 5.20024
23.648 136.502 0.82429
8.42756 142.133 1.86473
14.2775 138.65 -4.24034
-12.1589 149.665 2.96012
19.8937 138.99 5.4292
23.6935 136.945 1.79236
-4.38479 146.076 -2.1578
13.6307 139.789 -2.1117
23.2682 137.135 0.961046
24.5235 137.287 3.3008
10.2619 140.036 -6.60506
16.9641 140.663 5.79455
23.0589 136.948 -0.932715
-0.146747 145.054 -1.43076
19.4313 139.821 5.62008
-8.18989 147.277 -4.16423
7.02815 141.59 -5.71512
-8.90212 149.245 2.75364
4.19231 144.383 1.67567
16.1281 139.136 -2.8003
10.7168 140.177 -6.59374
20.9714 139.347 5.22337
17.595 138.706 -2.75022
12.1068 139.807 -6.34582
-12.1222 149.834 -0.216544
13.4979 140.217 -2.95239
-6.51148 147.11 -3.81259
-8.29576 147.778 -4.11327
-3.07066 146.562 -1.6352
-1.0888 145.939 -1.37615
-8.77235 149.604 2.58369
11.4436 140.339 -6.57561
0.507615 145.334 -1.8589
13.6844 140.018 -4.84783
6.0074 142.627 -5.28714
-11.5353 149.804 -1.43003
-9.94814 148.799 -3.35697
21.403 139.682 4.8424
14.6046 140.602 -1.50373
19.9721 140.414 5.47736
-0.51425 146.13 -1.48803
21.5825 139.929 4.55396
-10.3207 150.693 2.40854
-11.4774 150.364 -0.978583
12.2882 143.605 5.89606
14.9599 142.721 5.89037
23.3727 139.218 3.49836
-10.2257 150.822 2.28794
11.5998 141.161 -6.08066
10.557 141.428 -6.5988
12.6712 141.047 -5.3573
-5.37506 148.038 -3.07533
-9.41345 150.766 2.31483
-10.8753 150.308 -1.94951
20.2505 141.002 5.12932
13.3273 141.255 -4.45179
7.33278 143.121 -5.52683
13.7609 143.56 5.93809
17.3308 142.326 6.03405
-0.431639 146.915 -1.65005
20.3921 139.783 -1.20008
-10.1559 150.325 -2.26596
-8.58437 150.804 2.11221
19.5504 141.675 5.47403
1.33114 146.276 -2.41124
6.32366 144.004 -5.10679
4.01725 145.042 -4.1776
12.0354 144.618 5.74286
7.81314 145.04 1.08309
14.7977 142.357 0.0689716
-5.22221 148.755 -2.91264
22.5527 140.526 3.54044
6.6617 144.263 -5.13861
17.4343 141.247 -1.86802
14.9793 143.979 5.75785
-6.90192 149.54 -3.49213
2.55546 146.316 -3.15553
-3.00758 148.605 -1.77343
16.8376 141.744 -1.53909
13.9726 143.112 -0.303667
3.303 146.122 -3.63655
17.7852 141.519 -1.57382
18.1071 143.085 5.58911
-9.24111 150.978 -1.91726
5.45195 146.466 0.649191
10.9957 145.542 4.90901
-5.73567 149.639 -3.15557
18.3448 143.219 5.44405
-9.64031 151.995 0.486641
15.5256 143.022 -0.125634
12.4157 145.425 5.34723
-9.5261 152.045 0.433028
22.8413 141.195 2.71591
16.5209 142.716 -0.858744
11.1551 143.564 -5.37218
12.9576 143.493 -3.13333
18.9321 143.434 5.1268
5.36981 146.059 -4.50226
11.3011 146.141 4.61922
-2.83414 149.762 -1.73993
17.5665 142.821 -1.00619
12.5514 144.32 -2.20945
-0.452503 149.001 -1.8851
12.6011 144.351 -2.40464
10.4806 146.727 4.19912
11.9047 146.346 4.62904
-1.24021 149.532 -1.65674
2.04176 148.212 -2.85395
17.7479 143.217 -0.658199
4.88819 146.935 -4.21376
-8.07052 152.188 -1.32181
2.51727 148.267 -3.08719
16.2586 144.189 0.163401
11.8414 144.694 -4.41824
17.9849 144.787 4.92724
18.8461 143.339 -0.428397
15.5696 145.878 5.38256
12.4568 145.609 -0.904972
21.6508 143.036 1.45146
20.8195 143.538 0.879136
11.9579 145.566 -4.07291
10.3644 145.887 -5.16909
11.6565 147.596 4.06345
16.0283 145.334 0.897998
11.6368 145.934 -4.19997
4.86755 148.392 -3.95946
-7.4346 153.786 0.524089
11.4644 147.949 3.84453
20.1835 144.131 0.66565
13.1083 147.497 4.21785
20.2965 144.72 3.08427
5.9267 148.133 -4.34487
-2.36998 151.733 -1.69878
18.9844 144.724 0.47851
9.68343 148.702 3.43706
10.1405 148.6 3.59395
21.0827 144.384 2.03272
16.2174 146.805 4.41828
17.304 146.437 4.00427
-0.530864 151.312 -2.1062
6.47064 149.487 0.509161
14.0798 146.938 1.07639
-5.80294 153.575 -1.17141
14.2973 147.143 1.2785
20.5808 145.088 1.86719
16.3259 147.141 4.10427
18.2389 145.747 0.879941
1.20629 151.019 -2.62193
12.6967 147.298 -1.37012
-6.89977 154.62 0.248237
13.7685 147.7 1.15862
19.8593 145.668 1.59718
9.12577 147.951 -4.96069
16.2008 147.609 3.88594
18.8812 146.027 0.992332
19.4886 146.008 1.72037
13.2218 147.649 -0.834692
14.4269 148.363 3.98141
19.2549 146.267 2.04086
8.73436 148.53 -4.65685
13.4965 148.204 0.958715
18.2989 146.961 2.74477
13.3401 148.826 3.15676
8.12298 148.903 -4.42138
0.316439 152.173 -2.44865
17.2762 147.529 3.10116
17.0462 147.661 3.09027
10.2202 148.35 -4.69975
12.6322 148.635 -0.102982
7.67119 150.634 0.781216
12.3988 148.518 -1.21907
0.329359 152.519 -2.461
14.2302 148.503 1.24843
12.169 149.034 0.241446
13.5389 148.863 1.48121
15.8918 148.486 3.15369
7.13303 151.217 0.389665
14.3185 148.898 1.20337
9.58219 150.796 2.15163
2.07799 152.341 -2.65621
3.65409 151.701 -3.06032
2.60882 152.156 -2.72701
2.58231 152.218 -2.70981
7.90226 151.205 0.963805
12.3599 149.98 2.16079
12.2376 150.09 2.14836
6.97601 150.793 -3.64236
1.98864 152.809 -2.66928
12.1342 150.332 2.01256
10.7951 149.798 -2.46896
5.7344 151.393 -3.36074
14.0291 149.834 2.46947
0.2876 153.575 -2.27215
-1.21778 154.173 -2.01006
1.16563 153.325 -2.30521
5.99088 151.406 -3.37489
9.28953 150.077 -4.10098
15.0669 149.561 2.02368
7.69292 151.915 0.55819
9.82745 150.712 -1.44239
7.69601 152.261 0.493408
8.93212 151.152 -2.4522
13.5726 150.421 1.30324
7.72858 152.342 0.518282
2.22525 154.098 -1.85455
5.6781 152.958 -2.69724
9.65773 152.369 0.161264
11.8649 151.674 0.476729
6.76676 152.811 -2.35881
10.3174 152.495 1.48364
7.24576 153.437 -1.2097
5.47034 154.25 -1.61815
7.74226 154.666 0.28316
6.65849 155.24 0.414421
