ply
format ascii 1.0
comment Created by Open3D
element vertex 1952
property double x
property double y
property double z
end_header
9.39624 131.047 7.86858
-6.69199 98.1764 10.6834
0.863598 111.687 10.8646
13.9688 145.116 3.28921
-5.00636 99.8426 11.6916
-17.1667 97.3334 -3.73542
6.2898 122.635 9.82606
-13.2183 104.902 -4.11602
13.9499 145.252 2.98595
5.04188 119.77 10.1757
5.08746 119.813 10.1649
-4.43097 100.369 11.8186
5.3101 120.383 9.98506
14.2857 143.818 4.34472
10.5651 148.749 -4.85611
-11.7317 106.999 -3.92699
14.2053 149.97 -0.627393
-2.87416 103.89 11.1405
-14.6525 102.758 -4.79932
-2.05241 105.755 10.8453
14.1713 149.931 -0.778066
-18.2311 89.1009 0.670557
0.480873 126.041 -1.6276
10.6409 133.809 6.78486
14.5523 149.599 -0.0396172
11.5428 139.662 3.46666
-10.2115 95.2467 7.26641
9.62405 130.405 7.96221
-5.69297 114.72 -1.68341
-18.935 90.6584 -1.70954
-0.816753 122.918 -1.3188
2.6544 113.147 11.296
9.87448 147.529 -5.50292
-4.24851 99.6938 11.8671
10.4521 148.326 -5.33778
16.6095 150.932 1.37798
11.7879 139.694 3.29142
-11.6457 106.577 -4.18036
-8.66875 111.394 -3.74619
13.2172 144.824 1.19875
4.94524 116.425 11.6666
-17.5316 94.7539 -3.43861
13.414 149.553 -2.27354
-18.4514 89.2445 -0.42632
-10.0082 94.9159 7.17528
14.7669 142.364 5.24738
15.1989 143.974 4.59793
16.2496 151.128 0.446331
-8.3604 96.1151 8.49783
-13.9893 102.352 -4.45523
11.023 135.201 5.33772
-3.83637 116.545 -1.2706
-8.34506 95.9823 8.41962
-18.1477 90.6615 -1.40677
-11.9348 92.8725 5.7123
-12.9373 104.158 -4.61304
-17.53 88.6957 0.967788
-0.489978 107.41 10.5727
-16.8984 95.7785 -3.76843
3.42703 113.365 11.4402
-7.13512 112.394 -2.92896
-18.9892 89.2528 -1.70005
-18.0702 90.5336 -1.43315
-8.1505 111.426 -3.67488
-14.5426 90.1347 3.90391
-18.4457 87.6084 0.306454
-9.71876 94.7394 7.15805
-10.3623 107.128 -3.57175
5.0351 132.08 -1.18264
8.16172 143.4 -5.63237
-12.6417 103.895 -4.35397
5.86566 117.724 11.2111
-17.5722 92.3093 -2.33699
-18.6102 88.574 -0.88669
7.33192 141.306 -5.29414
11.1932 132.604 7.0517
-16.88 95.289 -3.81102
0.312051 108.313 10.4634
-2.55767 102.201 11.1484
-11.967 104.554 -4.16556
-4.26036 98.3359 11.697
-13.4419 101.888 -4.22071
7.99341 122.886 9.8836
11.0689 135.821 4.00266
14.506 148.729 -1.25659
13.4986 143.413 1.44155
-12.2104 103.549 -3.98468
17.2401 150.27 1.38886
-10.3538 93.4677 6.55419
-11.6372 104.272 -3.84912
5.66392 133.127 -1.83405
4.7463 129.701 -0.470707
12.2808 139.209 2.81436
7.9909 122.282 9.8737
-12.2282 91.6437 5.02936
12.7708 147.796 -3.42013
5.77288 133.083 -1.9266
-10.045 106.679 -3.83397
14.4488 143.048 2.58784
14.6159 142.741 2.9797
13.6959 136.175 6.74639
-11.5616 103.226 -3.48085
11.5702 132.254 6.74187
-17.9672 89.417 -1.81994
11.0044 133.857 4.65525
-1.56124 119.226 -1.81247
16.0708 150.176 -0.940969
5.76388 132.382 -1.75776
12.5318 147.242 -3.76953
5.80521 132.612 -1.88829
-14.3301 98.2118 -3.65254
-3.21066 115.634 -1.47026
14 143.36 1.32931
16.1544 150.125 -1.00978
-1.04533 104.126 10.5345
-4.10498 97.4549 11.3803
14.0625 148.12 -2.4747
-4.37966 113.462 -1.63971
-1.51633 119.003 -1.90214
1.30005 108.188 10.6123
6.42792 136.303 -4.15852
5.59379 130.813 -1.03752
6.5735 136.961 -4.55468
-14.2131 88.6384 3.70324
-16.6444 91.3313 -1.92168
-0.0882455 105.716 10.4065
14.831 142.253 2.99668
14.0202 147.793 -2.5463
15.3923 138.39 6.73843
-16.7217 86.5962 1.53624
5.75884 131.259 -1.45014
11.0341 146.229 -5.68945
10.7283 128.557 7.7501
14.3412 138.398 5.15107
9.62844 124.546 9.29453
-17.4586 86.0809 0.796941
-6.11463 95.6357 9.49579
13.525 134.8 6.77753
13.155 134.07 6.81023
-6.79291 110.408 -3.11157
15.0504 147.353 -1.05217
15.0818 147.277 -1.02176
-1.79185 101.418 10.8719
7.53478 139.383 -5.63595
10.9595 128.814 7.52447
4.15051 111.673 11.2426
15.276 137.077 7.16783
-3.77269 96.9843 11.4395
-10.897 102.708 -3.23523
8.54715 121.357 9.88725
15.2041 140.931 4.022
4.2676 127.527 -1.08334
15.5332 137.621 7.05553
-15.278 87.2168 2.62099
-11.6752 90.6075 5.0673
13.5071 133.636 7.21648
-10.057 104.022 -3.2156
1.35615 123.582 -2.28664
-13.3014 98.6691 -3.69289
5.90541 130.325 -1.1432
-7.78152 108.651 -3.67898
-4.99168 96.0269 10.2035
6.03824 131.804 -2.16967
11.8794 132.529 5.58668
11.4734 133.58 4.16529
6.26538 133.659 -3.35492
11.7977 130.99 6.63594
7.78272 118.715 10.5231
15.8716 147.143 -0.292458
11.9654 132.181 5.87029
18.3976 146.911 3.39926
0.603055 122.003 -2.46964
-5.62932 110.607 -2.44896
-6.63023 109.683 -3.23053
-0.528968 119.885 -2.56185
-15.8062 89.6974 -0.72878
2.94506 108.867 10.9777
13.5456 139.609 1.95702
17.2329 141.146 6.01569
14.721 141.883 1.83926
-7.92893 107.252 -3.35897
18.1534 144.65 4.42926
18.3514 145.518 3.99603
5.89951 113.324 11.4585
-18.6625 85.5326 -1.89184
11.5296 145.161 -5.63787
-12.5523 99.0723 -3.84113
-0.439274 119.622 -2.69772
-3.98209 112.046 -1.95276
14.8614 146.505 -2.1517
15.5582 145.906 -0.690589
12.252 145.882 -5.40609
-8.88576 92.3044 6.47974
13.9386 133.651 6.60425
12.9326 127.618 9.88386
15.4818 140.692 3.2436
-2.89694 96.3328 11.8048
11.9822 145.407 -5.50339
0.930473 105.115 10.3321
11.0139 126.878 7.58149
-5.74803 94.5732 8.9764
-15.3022 93.4356 -3.82852
13.8715 129.725 9.29458
14.5238 140.782 1.46648
13.6027 127.434 10.6119
14.4177 140.533 1.47039
14.1299 133.426 6.57381
14.6363 140.585 1.6211
-0.00887198 102.478 10.6276
12.0835 133.356 3.64697
-2.67932 96.0014 11.8406
6.574 132.396 -3.52891
0.468534 103.461 10.467
0.402394 103.267 10.5119
17.5937 140.102 6.12324
-11.73 99.4005 -3.89252
18.792 149.057 0.660831
4.42923 125.586 -1.43277
-9.60011 101.612 -2.66929
-16.9953 86.8865 -1.6711
8.60246 138.466 -5.66008
15.1414 134.324 6.90777
-2.12633 96.8896 11.6287
5.53768 126.516 -0.819141
9.92707 141.649 -6.46521
14.1202 132.39 6.74468
-8.74866 103.108 -2.93422
19.2275 145.215 3.95595
17.596 148.851 -1.32793
-18.0078 82.3005 0.0716413
5.22816 110.404 11.1881
-9.98166 100.86 -3.06664
15.4508 144.449 -1.0353
14.9094 130.715 8.96573
1.61167 104.708 10.3767
-14.7344 90.3734 -1.72507
-12.7592 86.9022 3.78695
15.3705 144.482 -1.26072
16.453 135.569 7.21629
-17.7676 82.8951 -0.341162
17.567 148.183 -1.14575
-3.41695 111.509 -2.3421
10.9204 142.597 -6.29629
-17.7247 83.1731 -0.558363
-1.91811 96.4355 11.6051
8.59732 117.159 10.3222
3.33628 123.925 -2.51054
-6.21632 93.1177 8.0288
17.2859 147.231 -0.934054
10.9955 142.563 -6.26187
-10.6731 99.8659 -3.70543
-12.4587 96.4463 -3.57267
-9.59579 100.68 -2.83936
-2.76092 95.1248 11.2655
13.6411 145.368 -4.81593
11.7545 127.199 6.71886
9.09301 137.997 -5.59929
4.53413 108.536 11.0271
13.7142 125.629 10.6869
9.24825 118.515 9.82634
-7.08608 92.2576 7.03517
-14.3715 92.8822 -3.89364
14.5586 129.441 8.7181
-3.09126 94.7498 10.7508
15.1373 143.491 -1.5007
5.57419 125.454 -1.0155
-1.49855 96.5841 11.4779
12.2298 129.482 5.1774
15.823 133.23 7.33614
0.307639 100.246 11.066
11.8897 127.116 6.48572
-11.8093 96.7683 -3.53996
-2.88999 94.6126 10.894
19.2612 148.65 0.0497068
-1.89743 95.2698 11.6374
14.8248 129.592 8.55875
-15.0523 88.5375 -1.88404
-12.8126 95.165 -3.90313
-16.5198 82.269 0.926051
8.40154 134.788 -4.72654
-13.4974 93.9709 -3.99475
14.1549 143.58 -3.46991
14.522 127.755 9.48535
11.2277 141.977 -6.41958
17.4353 137.04 6.29586
7.28715 129.033 -1.99389
19.9912 146.952 2.07909
9.02242 116.848 10.045
0.32798 99.5616 11.1949
14.3079 128.891 8.07035
-1.85496 94.9518 11.6355
14.2949 144.478 -4.19668
16.1309 144.144 -1.31333
13.9703 141.461 -2.30218
-16.7593 86.2885 -2.86772
-14.4623 83.9113 2.27644
-0.612003 97.4105 11.4054
12.4513 130.551 4.02267
14.4338 122.9 12.7988
3.12676 122.465 -3.03383
-12.2242 85.8076 3.82149
18.3421 147.993 -1.36188
20.1598 144.325 4.11626
-2.88707 111.045 -2.69592
-1.29529 114.715 -3.32703
-12.0234 95.8086 -3.80835
-1.09194 115.222 -3.45267
14.4938 129.334 7.66716
6.75945 125.972 -0.82034
13.5903 125.068 9.64843
18.2754 147.569 -1.34545
-13.8441 90.2377 -2.203
0.585557 99.3471 11.2404
-9.85439 98.9356 -3.3736
16.0062 143.491 -1.44964
12.3481 127.566 5.8291
4.84861 107.586 10.8065
4.08877 106.606 10.4848
15.6445 136.562 3.44968
15.3708 137.141 2.5911
14.1563 144.089 -4.65149
7.45527 128.871 -2.27999
15.6897 135.876 3.94874
5.34756 108.061 10.9829
16.8671 145.126 -1.68632
-13.1449 84.4754 3.03733
10.6181 122.032 7.44885
-6.52336 91.4973 6.88205
15.6241 123.654 13.2165
14.3262 140.484 -1.92077
-1.14959 95.193 11.5036
13.7719 124.311 9.93597
5.61685 108.133 10.9924
-13.6365 89.2067 -1.66227
-16.6619 84.9067 -2.63736
-1.49337 113.394 -3.41744
15.496 133.155 5.33164
20.5991 144.989 3.30989
-13.6083 91.5872 -3.63724
-10.8397 96.4723 -3.51924
18.143 136.55 6.39468
-11.4451 85.5172 4.16451
14.1417 134.717 2.05206
11.7844 125.365 5.99289
15.8443 123.072 13.5778
-6.89307 102.938 -3.12548
-16.2202 84.0512 -1.62863
2.82141 121.03 -3.50236
15.141 121.121 14.0175
-12.3346 93.8978 -3.87024
-16.1384 81.1775 0.66488
-6.97509 90.6711 6.29866
3.43912 104.284 10.4833
-6.59836 101.533 -1.72247
15.6812 122.299 13.7591
-10.9898 85.7996 4.31179
-12.478 93.6006 -3.94764
16.1123 123.165 13.6456
-16.1683 83.7441 -1.50787
7.94012 111.838 10.8654
2.28553 101.704 10.7347
14.1256 141.512 -3.63736
14.8465 120.939 13.5416
-17.2602 81.5239 -1.39186
16.0416 122.673 13.8153
-14.6867 82.0316 1.82522
11.1168 139.897 -6.76523
7.72431 128.679 -2.82202
-9.27585 87.9829 4.8346
12.6968 127.694 5.0301
20.411 147.733 0.30192
-3.07384 109.203 -3.0262
-17.0254 83.7862 -3.11313
-4.82743 106.328 -3.39381
3.78088 121.709 -3.18168
19.2905 138.274 5.92965
-7.94807 99.2706 -2.3494
8.80236 131.969 -4.13693
-9.24926 96.9476 -2.52416
-0.546195 114.522 -3.89958
-14.5135 81.8125 1.82361
-6.19463 101.785 -2.00256
-15.811 85.6371 -3.06461
-17.3033 83.5824 -3.60379
16.9036 126.063 11.8196
17.4066 132.663 7.33795
16.0993 121.012 14.5628
-16.0927 82.9594 -1.56049
9.55944 133.555 -4.65737
16.8271 123.977 13.2336
9.87962 134.258 -4.78795
0.460743 116.15 -4.04129
5.605 106.817 10.6281
-4.89841 105.95 -3.6966
-14.6413 81.4328 1.58821
17.0444 125.314 12.3584
14.3428 120.222 12.4868
-7.52165 98.5569 -1.7707
20.7923 147.072 0.561658
8.71102 130.897 -4.00036
15.341 119.605 14.3099
13.0462 128.249 4.19598
17.1731 125.85 11.9608
0.808049 116.556 -4.12266
21.1817 144.805 2.77572
-9.85938 85.9441 4.61965
-9.33512 86.7429 4.73783
-7.32877 98.2051 -1.43841
-8.03927 96.3672 -1.05014
5.99295 106.855 10.6702
21.0111 146.382 1.07162
20.3594 147.602 -0.841652
10.5612 136.368 -6.01953
16.7087 121.917 14.0926
5.9683 122.303 -1.5608
10.9884 120.612 6.92505
16.2912 129.009 7.88083
17.5402 130.983 8.06673
-10.7461 92.8028 -2.37561
15.8149 130.857 5.67874
14.5058 133.175 1.97975
19.5177 137.052 6.05115
11.797 123.741 5.47187
16.1074 128.587 7.81214
-7.48663 96.5438 -0.776673
-6.70239 98.2121 -0.968525
1.11406 96.6279 11.4402
19.9323 138.415 5.49738
16.2064 119.171 15.2814
19.7372 147.422 -1.86845
-7.3184 88.6846 5.59947
14.3605 122.553 9.95264
-1.95584 110.193 -3.68634
-11.3978 92.0725 -2.94919
17.5251 124.7 12.715
16.7576 126.973 9.81522
16.7958 126.941 9.89268
-11.2517 92.1085 -2.82239
-15.0916 80.4011 0.876874
-9.09375 94.1416 -1.37376
-9.42231 93.7777 -1.56792
7.97532 124.666 -1.00088
9.74516 132.795 -4.87502
11.2435 121.604 6.04492
10.2956 116.64 8.57347
14.5742 124.515 8.41692
14.514 120.173 11.7196
15.8884 130.79 5.28524
10.6441 135.105 -5.65049
9.21154 112.668 9.92218
10.598 134.844 -5.52473
6.14218 106.312 10.5146
-8.06179 87.4745 5.01841
15.8776 129.239 6.31997
-15.9447 82.9588 -2.79659
15.3021 117.315 14.8421
14.5425 131.712 2.42952
14.8382 118.544 13.1869
-15.8145 83.9824 -3.46864
4.67146 103.356 10.5796
-5.84192 89.4616 6.39806
-15.2491 83.3789 -2.30011
16.5223 128.571 7.58543
-5.16691 90.0586 6.84655
-15.6344 83.863 -3.25282
-11.5915 91.2254 -3.26564
19.759 136.406 5.99895
14.804 124.669 8.12969
15.6752 116.541 15.7313
-11.0973 91.6465 -3.01879
15.6315 116.245 15.8307
-15.2959 84.1107 -3.12343
-15.3088 83.1881 -2.44499
9.58427 113.081 9.61276
-14.5645 83.5766 -1.75422
13.7213 131.228 1.22367
0.935207 114.975 -4.31136
-15.3391 81.6166 -1.36522
-15.4432 81.6606 -1.58456
-16.5361 82.3994 -3.74726
13.4486 130.137 1.5896
13.841 132.053 0.644078
4.00338 100.758 11.1292
-12.6352 81.6996 2.31769
-5.57969 97.6009 -0.105195
-8.05129 94.0439 -0.85058
14.7018 130.921 2.67948
15.4659 131.21 3.52503
4.0636 118.967 -3.1483
12.5142 124.606 4.47816
-2.25247 108.165 -3.71466
2.334 97.1976 11.4463
13.5159 132.071 -0.00164915
-10.1894 84.077 3.80241
-3.40558 106.366 -4.01516
14.314 140.176 -5.27066
9.38 111.931 9.85229
15.1722 117.565 13.6946
17.0333 142.571 -3.40741
-15.5242 82.1329 -2.49644
-13.8088 83.7383 -1.32301
-12.5146 88.0866 -2.97803
-5.43539 88.9619 6.41248
16.0301 115.381 16.3068
-16.3765 82.2473 -4.00341
5.37246 120.206 -2.80427
12.4279 138.001 -6.72717
15.7293 139.63 -3.34542
12.9706 130.558 -0.181717
5.35721 102.675 10.8203
15.0742 118.312 12.3717
5.70786 120.253 -2.54754
8.88017 128.242 -4.29194
-12.87 86.4176 -2.56396
-5.00868 97.3842 0.0454097
15.716 130.181 3.88527
16.1089 127.779 6.32977
17.6088 128.933 7.53909
-8.71036 92.6982 -1.60354
9.92896 130.898 -4.98206
-11.7082 88.5088 -2.61259
-4.17756 101.37 -1.99747
19.6243 145.341 -2.55514
-1.95398 90.7391 9.50702
-0.569379 110.634 -4.16296
15.2929 124.646 7.49277
21.698 145.525 0.227494
19.8196 145.585 -2.5543
-15.2762 82.7479 -3.33953
-4.13053 101.276 -1.98702
-7.23884 86.5526 5.08879
22.0521 142.538 2.95726
14.0096 128.708 2.3255
-13.3225 83.2618 -1.04564
21.7352 141.539 3.22672
8.70128 126.169 -3.33153
4.51865 118.136 -3.05225
17.1586 142.082 -3.80996
13.6664 134.077 -2.55424
13.3716 138.02 -6.08034
7.87911 106.625 10.7223
14.412 138.218 -4.82363
18.3193 127.276 9.35343
-11.8633 86.4534 -1.70695
14.7489 128.887 2.95872
18.1099 127.565 8.7674
18.8563 143.957 -3.05839
14.2292 128.299 2.58338
13.7349 126.893 2.96441
12.1626 136.824 -7.093
-10.8023 88.9443 -2.31635
2.19374 115.31 -4.46003
-14.235 81.4951 -1.38038
15.4103 138.607 -3.89026
11.6678 134.764 -6.24213
-15.1026 82.2328 -3.24869
13.9725 134.374 -2.67248
14.4286 137.952 -4.84054
15.4373 138.521 -3.86201
17.6338 119.24 14.4143
8.76387 125.642 -3.31019
-2.91503 89.7953 8.16107
14.0156 127.555 2.68597
12.5339 131.041 -2.18909
14.2548 137.648 -4.92977
-15.2511 82.4649 -3.75825
14.8096 138.273 -4.68152
12.9305 128.761 0.10128
16.6101 140.45 -3.82546
9.05781 108.715 10.3103
20.4402 134.432 6.36338
-13.8762 82.6889 -2.05156
17.4237 141.899 -3.85772
4.11235 116.699 -3.15243
-14.1106 82.478 -2.31361
16.3607 113.485 16.8454
0.137673 90.9784 11.344
-4.23712 99.0755 -1.2728
16.2165 113.396 16.6968
12.1497 135.871 -6.77452
15.3667 136.805 -2.97424
-13.0588 79.4846 1.43838
-14.0191 79.2427 0.245174
18.5872 142.774 -3.1067
-14.2306 83.2831 -3.26636
14.8649 134.836 -2.24137
12.642 130.367 -1.92059
-3.65672 100.811 -2.02141
15.9184 137.721 -3.05195
11.7887 119.806 5.11949
-4.06919 98.6765 -0.999879
12.2276 129.315 -1.78856
16.9936 128.789 5.43388
-12.8028 83.8861 -1.93394
17.9291 119.053 14.3409
13.4727 124.868 3.36095
-13.9921 82.1307 -2.33659
-3.73638 97.6084 0.150528
4.50606 116.36 -2.81381
18.4119 123.417 11.5082
1.04636 91.8648 11.4704
-11.8032 80.5706 1.98102
-11.732 87.0259 -3.04288
5.26558 118.202 -3.26403
17.4874 114.013 17.4447
12.5216 136.062 -6.97783
-7.92485 84.1541 4.58231
-0.206261 90.3268 10.7318
15.9693 114.662 14.72
18.2847 124.552 10.2452
-3.19672 102.82 -3.3786
18.6279 128.897 7.30348
7.28507 104.157 10.5248
12.7713 130.459 -2.30175
16.4328 112.746 16.8263
12.0925 120.099 4.84214
5.08129 99.3976 11.0709
-7.26383 92.6404 -1.28609
8.27765 120.794 -1.19889
-13.071 82.2104 -1.39703
15.2032 127.441 3.46661
14.8924 131.528 -0.204757
18.135 141.771 -3.62923
-15.0271 79.4904 -2.09059
12.1303 120.032 4.82945
12.564 129.729 -2.17073
10.6027 113.358 7.87132
-13.232 82.9559 -2.32495
18.889 126.747 9.14395
12.4911 129.774 -2.40999
6.9253 119.394 -2.21449
-2.06779 89.1527 8.6508
7.72464 120.005 -1.59618
15.8992 122.777 7.89978
17.4881 129.32 5.02729
19.0571 127.229 8.88752
15.552 136.45 -3.36733
16.1027 136.796 -2.85256
-1.35572 107.36 -4.7143
12.941 130.762 -2.67833
19.6636 132.365 5.65259
-3.02797 103.617 -4.18777
17.4158 127.416 6.3024
16.1578 130.406 2.14937
16.7258 111.364 17.9007
16.171 132.3 0.639529
16.7922 112.474 17.0961
16.9367 111.712 17.874
1.82776 112.874 -4.65026
15.801 127.063 4.15662
16.0771 136.272 -2.71812
-10.6117 86.1138 -1.45711
8.75485 120.969 -1.17817
9.35759 125.343 -3.79738
22.7165 142.71 1.63973
-6.21813 85.2797 5.37393
-15.0499 79.8095 -2.96866
14.2692 124.8 3.51078
18.7123 124.917 9.75349
21.1712 133.55 6.45328
6.53884 118.724 -2.81068
-2.71125 103.468 -4.04397
-13.0582 81.8547 -1.85031
9.24115 124.584 -3.60118
15.5638 132.917 -1.14789
6.0323 100.32 10.8159
18.6725 119.146 14.0708
19.1866 120.449 13.7518
22.3479 145.325 -1.29538
-13.4156 82.1725 -2.79063
21.4413 134.435 5.93695
17.0166 110.534 18.3855
15.6966 117.778 10.8072
9.82651 109.281 9.08888
-3.15139 99.4556 -1.74013
9.14685 121.89 -1.79914
16.5684 111.539 16.931
13.5155 127.718 -0.149674
12.8016 134.879 -6.79767
-10.5118 87.3389 -2.77525
7.77834 103.338 10.733
15.1309 129.808 0.41849
-7.83325 83.3285 4.1059
19.8688 142.657 -2.92909
22.7949 142.862 1.07667
15.1744 126.643 2.9251
5.28313 98.2324 11.0846
-6.26052 92.685 -1.06351
17.638 128.729 4.73321
17.7411 128.976 4.66347
-13.1079 82.0866 -2.57988
16.9805 110.084 18.4013
20.4474 143.44 -2.85573
11.2754 130.547 -5.86826
-6.83907 83.9279 4.86624
16.3701 123.436 6.98209
14.5427 126.703 1.77477
13.0839 130.702 -3.45631
11.6707 116.418 5.73609
13.9987 122.744 4.06351
17.9388 127.588 5.87957
17.1051 129.609 3.04456
14.1738 126.714 1.12181
16.1078 120.382 8.83263
-5.69132 84.7927 5.60324
15.646 133.946 -2.52821
-2.72873 87.7763 7.47455
17.2691 128.836 3.78281
16.3019 132.707 -0.695543
15.5123 125.134 4.11692
7.02572 101.62 10.4455
14.4208 132.866 -3.53395
17.582 139.817 -4.49387
19.021 128.115 6.73905
-0.251632 107.564 -4.66388
13.8951 122.102 4.11445
19.4525 128.737 6.78695
10.1788 126.78 -4.95788
-1.10017 105.792 -4.63276
-10.1444 86.3506 -2.2919
-1.98684 103.602 -4.19664
-2.54267 99.6856 -1.94419
15.7713 133.276 -2.20649
14.9056 136.497 -5.99078
16.2599 136.283 -3.89459
17.3698 128.682 3.6119
14.2118 126.52 0.790988
2.51913 112.07 -4.66484
5.94461 116.772 -3.47202
16.8157 132.552 -0.349072
-12.5684 82.0822 -2.69157
23.1099 142.926 0.474304
15.9977 136.121 -4.36509
19.7976 141.626 -3.28046
20.6494 131.965 5.44787
11.2095 113.707 6.2975
13.8629 131.758 -4.13654
1.81396 109.936 -4.21896
-11.7361 82.9988 -2.4312
15.0407 123.451 4.03343
18.0652 126.419 5.98054
19.8731 127.415 7.7771
6.36461 117.184 -3.49391
4.20454 94.6884 11.0418
16.4474 132.947 -1.57649
-13.675 80.7836 -3.6585
8.26301 119.101 -2.4208
15.9567 133.607 -2.83763
-10.7141 79.6105 1.47358
10.1074 122.164 -2.21885
16.3431 134.961 -3.37031
2.94311 112.384 -4.82828
17.4404 131.785 0.566348
22.6569 137.306 3.65699
17.4069 129.123 2.58316
14.235 135.001 -6.58255
-8.97933 89.0306 -3.65322
16.1731 122.989 5.60632
23.525 140.706 2.19248
-8.8483 86.9326 -1.82002
15.2648 135.675 -5.69846
16.4497 120.73 7.71271
14.0188 132.991 -5.4316
18.6563 127.76 5.29653
-12.0765 81.6926 -2.47003
13.7236 119.96 4.31113
8.96847 119.756 -2.32366
12.2704 130.826 -6.34525
15.8924 128.958 0.295464
16.6754 108.045 17.816
17.377 138.246 -4.90782
10.7226 110.487 7.3621
17.3767 138.209 -4.91095
13.7303 133.804 -6.69174
-8.43881 87.2374 -1.81066
-8.31309 81.4589 2.90455
-8.69561 88.0204 -2.80599
16.6399 113.255 13.5654
13.2223 127.655 -2.64735
17.6234 131.467 0.632654
-10.7933 82.2995 -1.35151
16.1891 121.943 6.03972
11.8127 128.883 -5.70351
17.2948 110.386 16.6567
14.6132 132.299 -4.39416
-11.3515 78.1273 1.06275
1.99005 109.131 -4.2411
-4.83177 91.3618 -0.0826843
13.583 127.533 -2.19321
-8.62441 88.6387 -3.42896
16.4619 125.653 3.32113
17.6772 128.264 2.99273
20.0092 129.846 5.07614
-8.56351 88.8946 -3.58586
-1.10141 103.919 -4.74079
20.2051 121.814 11.6332
-1.33272 99.438 -1.57492
20.4293 127.315 7.55673
-4.32487 91.2083 0.551327
19.8804 130.35 4.37972
16.5634 119.725 7.98239
-6.56491 90.2854 -1.9402
17.9741 108.24 19.0081
19.5455 116.413 14.8146
15.1617 121.627 4.45633
16.4955 121.305 6.60883
-8.06995 89.6145 -3.59866
10.4563 121.436 -2.14637
-11.2766 82.6138 -2.70341
17.7107 138.139 -4.93165
3.15589 91.839 10.6149
16.5672 134.707 -3.91277
3.92524 112.267 -4.34882
13.345 132.331 -6.66086
23.7279 140.484 1.76081
19.5736 121.869 10.4458
-11.175 82.7378 -2.77054
-11.8866 81.8715 -3.14188
3.36223 92.3518 10.3565
16.6075 132.744 -2.46846
19 122.36 9.08064
-8.013 89.2976 -3.58474
13.3279 117.348 4.84857
-1.35211 96.139 0.522464
14.2588 125.832 -0.503984
4.76399 112.425 -3.53916
-13.2637 80.0573 -3.89158
19.2207 128.543 4.43014
17.6246 125.863 4.24718
17.7178 125.932 4.2951
-8.37733 86.3281 -1.88653
-12.4041 79.3936 -2.19528
11.3919 126.789 -5.43776
11.0063 122.109 -2.36601
14.1489 125.773 -0.76629
16.5187 136.035 -5.44589
0.0380217 86.9387 9.48472
-5.43966 90.6721 -1.30418
15.7185 130.064 -2.05279
-6.03634 82.455 4.23137
11.429 111.454 6.37947
1.3458 106.643 -4.25767
-6.59277 82.163 3.61387
17.9964 130.174 1.00074
15.8654 130.257 -2.15865
16.3321 108.166 15.8341
16.16 129.786 -1.40904
1.599 88.201 10.4302
16.0913 128.204 -0.288473
19.2778 110.865 17.8679
20.5876 125.609 8.13873
19.4514 127.025 5.38748
-3.48309 91.0833 0.839803
15.236 128.607 -1.91304
22.5902 133.492 4.7472
19.5318 121.57 9.71273
23.9753 140.451 1.20839
6.68259 114.078 -2.80216
22.8784 134.241 4.47225
19.6639 111.67 17.6053
16.0777 128.093 -0.429073
6.95709 115.059 -3.22881
-0.437859 86.3818 8.73207
-1.30714 94.9958 0.718891
-11.9472 76.9371 -0.308132
12.2081 112.935 5.92092
4.15743 93.1057 9.98478
22.6644 131.848 5.98014
15.0491 127.965 -1.86738
16.2134 131.15 -2.72314
5.49654 112.274 -3.21066
-12.3658 79.0814 -2.67261
13.6767 126.927 -3.07676
17.2987 136.299 -5.27488
16.9519 129.83 -0.690178
7.56375 99.7756 9.50414
16.2617 132.712 -3.95821
5.73191 112.407 -3.12634
20.154 113.576 16.5595
-11.0635 81.4537 -2.80921
9.6292 103.146 9.7063
1.38473 87.3599 10.3044
16.7373 117.631 8.44639
18.1358 130.531 0.259028
18.0587 130.652 0.0537109
19.4267 122.612 8.32199
16.1796 128.566 -1.016
-2.80655 91.3114 1.11108
-9.71823 81.4643 -1.03905
15.2593 131.598 -4.74187
15.7853 119.615 5.41644
20.331 116.55 14.2839
6.96486 114.018 -2.84569
18.8559 107.562 19.165
7.62881 116.364 -3.79423
16.4564 105.556 17.2966
15.799 106.267 15.7942
-12.732 77.417 -2.33849
-4.56015 89.5344 -0.183172
19.8237 127.378 4.87615
-11.6573 78.2802 -1.53625
16.6706 119.079 6.804
8.2078 116.904 -3.62444
19.4424 126.317 5.02872
17.9241 127.857 1.64031
19.2355 138.111 -4.54299
16.8517 117.267 8.41479
20.041 128.226 4.35589
13.9729 125.973 -2.5463
20.6665 129.438 4.29356
15.8686 125.225 0.735223
12.3698 127.197 -5.87394
7.66478 115.665 -3.55328
19.9336 110.72 17.8474
-6.14533 81.5441 3.44528
12.472 112.34 5.85235
19.2637 124.962 5.63097
10.1715 103.681 9.29676
-12.4483 77.0838 -2.16377
0.402119 99.2451 -1.24036
21.2757 140.139 -3.57314
18.2446 136.569 -5.10159
23.2563 131.874 5.7283
20.001 109.774 18.4366
14.9506 103.803 15.9116
-7.88647 79.9309 2.02716
23.211 133.504 4.3031
-6.56922 88.5724 -2.96913
14.7143 101.863 16.9583
15.9647 127.409 -1.32985
24.2355 139.438 1.03344
19.9281 121.145 9.22112
12.9124 127.863 -6.08821
16.9955 134.585 -5.54768
21.8194 129.247 5.53609
14.2569 125.709 -2.49958
12.746 112.494 5.72002
16.2587 127.368 -1.00402
9.98232 118.711 -3.18611
21.6159 128.853 5.42658
14.8861 125.981 -1.97481
6.93595 97.091 9.32404
15.6391 128.949 -3.30544
-10.1264 79.7701 -1.50245
23.9999 140.791 -0.694314
16.2884 118.275 5.96798
7.94413 98.9799 9.17874
9.95285 102.806 9.01021
-2.18066 90.6828 1.1983
-1.41641 92.0024 1.2197
14.1161 101.342 16.0729
9.25166 117.561 -3.61996
15.2579 124.608 -0.57578
12.0306 124.859 -5.39628
23.4348 140.554 -1.45259
15.0968 127.669 -3.27372
20.4365 121.033 9.55423
18.5614 126.511 2.56391
2.12774 87.2004 9.94461
-10.4874 80.4963 -2.81518
11.2324 107.284 7.16225
14.9093 124.918 -1.44266
-0.275211 94.6227 0.658564
21.5524 118.232 13.2969
15.7283 126.605 -1.60137
6.2498 94.4612 10.094
18.0435 105.486 18.2813
5.15586 92.8786 9.77246
14.112 124.448 -2.23892
10.992 105.489 8.17603
0.828564 102.769 -4.21968
24.4359 139.404 0.71532
1.67519 86.4388 9.79146
9.5906 101.808 9.02495
16.3151 117.869 6.00188
-9.12022 80.8119 -1.25442
17.0051 116.813 7.78688
0.0222898 85.4345 8.14667
21.4557 119.399 12.0765
21.5469 139.37 -3.52876
15.4327 125.873 -1.67292
19.3289 120.915 7.77509
-10.806 79.673 -2.90571
21.2742 114.314 15.7098
-10.8038 79.0464 -2.46634
21.5247 125.782 6.99992
-10.8507 79.2162 -2.68161
-7.61811 79.5228 1.69502
-8.73261 79.6823 -0.023753
15.1183 127.715 -3.695
17.1065 115.455 8.71478
14.866 124.226 -1.38998
12.3087 124.662 -5.41631
-2.50122 82.9909 6.13437
9.64535 101.658 8.82244
17.4885 102.885 19.0557
14.0348 125.561 -3.74651
2.92122 106.519 -4.69809
17.3738 102.441 19.1184
-3.02126 82.577 5.54038
14.2892 114.218 5.40495
11.5617 121.731 -4.42849
-7.17789 85.2952 -2.59861
24.6205 138.866 0.744373
1.56552 102.938 -4.02178
16.0978 105.368 14.8118
24.7476 140.228 -0.27234
17.834 126.811 0.367123
14.5703 99.5089 17.1434
19.0538 104.35 19.7308
14.498 122.848 -1.34137
20.8264 107.839 19.4848
20.6172 120.719 9.06445
13.8946 98.9369 16.5646
14.5369 122.211 -0.877585
22.4703 138.985 -2.72412
-8.50306 76.895 1.78968
0.61752 95.1172 0.492994
11.7042 121.577 -4.46178
22.8735 138.739 -1.98989
6.996 110.927 -2.88577
-2.32561 88.7217 1.23381
21.007 126.68 4.72244
18.7831 103.364 19.8592
1.63034 99.7862 -1.89492
21.0797 137.982 -4.11785
19.1982 125.457 3.01591
20.5916 125.5 4.96153
16.5062 106.188 14.2897
3.43814 106.771 -4.84207
10.5318 117.318 -3.02687
13.6582 126.475 -5.7785
16.8455 129.515 -3.61867
15.1973 126.888 -3.97174
12.0145 121.145 -4.00885
21.6752 125.973 5.97816
15.7159 114.982 6.02074
18.4304 123.58 3.14259
1.80717 100.894 -2.79493
-7.70967 78.0483 1.53062
9.84334 101.447 8.21985
20.1745 123.957 5.29635
15.3412 99.2879 17.7596
13.6094 125.919 -5.65684
20.4276 124.644 5.07988
23.2607 138.075 -1.44421
2.36443 102.864 -3.64477
17.7365 123.347 2.2194
18.5556 133.835 -4.85637
14.7454 123.091 -1.86253
20.2618 104.469 20.6454
19.8661 124.062 4.68368
-0.564187 91.5386 1.042
17.3486 110.563 11.6454
18.9183 126.093 1.68553
18.9491 125.773 1.98077
19.1248 125.672 2.30387
21.3696 126.824 4.60311
21.431 125.1 6.03598
-5.03987 86.0896 -1.1477
16.4962 114.53 7.2708
-2.9943 81.8384 5.09383
10.6036 117.023 -3.12629
17.8323 132.351 -4.84634
16.6395 124.224 -0.188829
-5.36391 86.0323 -1.62638
16.8229 106.609 13.8856
16.8601 124.127 0.169745
16.8892 112.445 9.38086
1.5167 96.5426 -0.124009
-7.96424 82.1393 -2.37051
1.23 95.4829 0.26557
21.7587 113.877 15.1339
14.4549 125.36 -4.35624
16.4082 124.267 -0.718951
21.7728 125.952 5.62135
-7.46117 77.9576 1.5453
-5.40923 83.421 0.129388
-7.32165 82.7418 -2.11639
18.6583 123.333 3.10034
13.8111 99.4515 14.9338
7.73517 96.1451 8.83331
14.1927 100.363 14.7456
-7.25458 82.2427 -1.68106
-5.12697 85.6509 -1.33577
15.8432 122.599 -0.457751
5.00462 89.9341 9.68803
3.14363 104.191 -4.21675
24.2907 131.063 4.88355
20.807 123.932 5.4578
17.6014 108.459 12.9752
-9.59148 75.9284 -0.357322
12.1616 106.669 6.56893
-3.94759 80.6248 3.97478
-3.44881 86.4155 0.13512
-4.74057 85.5122 -1.0087
-4.14899 85.0058 0.210249
21.3869 136.983 -4.14539
20.5449 121.399 6.89243
17.0033 110.949 10.0223
16.8437 122.509 0.679731
18.6882 132.676 -4.67697
13.5711 123.925 -5.12588
14.8497 123.851 -3.26513
10.3157 101.697 7.64799
16.7087 123.116 -0.0461611
23.2625 127.335 5.97874
22.506 117.336 12.7336
21.5955 118.955 10.1435
14.6403 97.0936 17.3734
16.3345 119.142 2.47397
15.5619 103.287 13.8219
22.5818 137.265 -2.84329
14.7744 111.562 6.14793
20.7738 121.579 6.79601
19.4492 122.751 3.97855
17.0747 106.963 12.9869
-2.45685 86.3679 1.23691
17.338 109.235 11.5522
13.8779 99.1827 14.4985
24.9883 135.841 1.55146
-5.92303 81.858 -0.217126
22.5346 137.059 -2.93656
3.79854 104.986 -4.52575
17.0646 99.0417 19.071
-5.33026 79.2577 2.60884
14.3683 124.967 -5.15533
24.5426 131.018 4.58323
11.3786 103.166 7.57597
16.512 112.229 7.74208
22.3235 118.774 10.8925
19.2961 132.976 -4.5891
3.15269 100.321 -2.02507
19.5863 122.508 3.97206
17.2159 109.151 11.0361
2.87638 85.3087 9.24266
13.2104 120.074 -3.30756
14.2516 123.386 -4.464
-1.12666 87.7207 1.56531
18.1936 123.17 1.31416
10.9583 116.03 -3.42827
3.9867 103.467 -3.53835
19.831 117.308 8.20479
20.88 135.19 -4.39584
16.6685 105.686 12.7512
13.8152 95.5624 16.614
8.90783 97.5602 7.98883
25.4687 137.628 0.169075
14.1473 99.4198 13.991
1.11743 83.8469 7.56196
22.5487 118.352 11.0693
10.344 100.539 7.61532
-5.03482 78.9826 2.56928
13.0201 117.459 -1.91128
5.45205 88.5463 9.97112
17.9134 117.589 4.93219
13.8678 108.478 6.29792
2.21684 95.0638 0.166825
0.394153 90.6117 1.03405
-1.95295 81.5042 4.83038
16.9871 106.571 12.1846
13.4736 119.2 -2.76099
-7.69424 76.2447 0.690145
16.8492 109.603 9.53799
21.7938 117.81 10.1395
17.8449 123.147 0.262719
22.1448 124.806 5.09297
15.453 123.046 -3.13585
21.7239 105.322 19.7085
18.3588 98.6038 20.1164
9.43549 112.974 -3.93181
6.62547 91.2617 9.08179
23.3402 136.3 -2.42748
-5.94881 78.7363 0.911597
16.4046 104.434 12.5727
22.2422 135.006 -3.1092
17.6155 122.396 0.183948
-0.493445 87.9125 1.37961
17.4868 120.45 1.47344
-6.27508 77.1049 1.56731
15.5068 123.825 -4.0225
25.0571 132.479 2.81498
-3.17041 79.8712 3.79364
18.7822 121.597 2.3623
16.9732 108.296 10.2038
22.5554 107.294 18.9553
18.7635 129.856 -4.23689
8.50751 95.0701 8.37945
15.191 101.224 13.0679
5.15899 105.704 -4.78552
23.1709 127.549 3.78125
-5.49777 78.1322 1.59138
17.2625 117.646 3.03828
22.9398 113.131 14.693
18.1515 121 1.67013
15.3397 101.5 12.9531
20.3573 122.631 3.46852
15.6993 102.251 12.7928
-5.41237 78.0958 1.56468
15.1604 108.719 6.89912
22.8456 117.83 10.7105
18.5169 98.1761 19.9535
20.4627 118.819 6.50076
16.4114 108.416 8.82566
4.86062 102.774 -3.24739
24.719 136.987 -1.7577
19.9988 121.878 3.34613
17.5377 117.43 3.27797
23.0447 116.565 11.8139
25.1056 137.119 -1.42564
-5.79348 79.5179 -0.34104
21.3056 133.791 -4.3005
23.1692 114.542 13.4808
9.67364 97.3361 7.70245
20.2146 121.743 3.56764
17.6859 117.651 3.07399
16.6535 105.294 11.2947
-5.5666 77.8644 1.08665
11.34 114.671 -3.67839
6.01195 106.484 -4.87197
-5.75163 79.658 -0.618485
25.8092 136.787 -0.405057
16.7367 105.99 10.8244
13.7063 117.635 -2.68412
18.3644 122.729 -0.0626645
21.1219 120.624 5.52799
18.1429 122.296 -0.0564354
25.8138 136.58 -0.31826
12.0078 92.9579 14.2205
11.0136 114.299 -3.98662
6.55878 106.966 -4.59294
23.1362 116.296 11.7552
10.2695 113.069 -4.10724
13.2954 104.26 7.12618
0.929923 82.6705 6.41779
15.8997 96.0951 17.2568
21.5263 116.682 9.1153
23.2003 125.253 4.75758
16.5469 104.925 11.2167
5.6083 104.901 -4.43174
17.6809 122.737 -1.19579
10.6235 113.644 -4.13916
14.1391 120.769 -4.73676
13.1174 94.9138 14.0662
19.6333 98.4522 20.5943
22.8318 106.206 19.0366
22.7952 109.772 16.1759
25.1584 130.893 2.94462
0.711536 88.7081 1.12816
18.9318 122.134 0.879036
3.42642 95.7691 -0.612137
15.1709 119.833 -2.74046
24.5137 130.46 2.23018
19.7221 129.976 -4.2628
19.483 128.944 -3.79483
3.15 84.233 7.98451
4.15185 98.0094 -1.41801
2.78978 93.048 0.523698
16.0689 103.077 11.6137
11.6424 93.2499 13.0061
24.8604 130.595 2.52794
-6.72793 76.3699 -0.00873466
-0.445004 86.3827 1.07571
3.40501 95.4098 -0.528995
-5.48157 76.6607 1.48624
15.4273 117.745 -0.922352
4.97438 86.0845 8.99367
8.28498 92.8301 8.40934
19.9777 119.998 3.75552
24.1294 129.376 2.28058
-3.06751 78.9236 3.05593
-3.7374 79.669 1.43972
23.3718 112.275 14.5482
8.98063 109.205 -3.61121
0.201321 81.8379 5.3073
18.3084 122.318 -0.624216
15.7425 101.701 11.8835
16.5041 96.1925 17.2978
15.1345 100.141 12.1885
20.8092 116.361 7.54864
25.3224 128.156 4.73056
23.1387 107.716 17.633
14.9466 105.734 7.48464
20.1649 116.2 6.71302
7.66981 106.694 -3.83541
-4.90448 76.958 1.52716
-1.0865 80.3049 4.30264
-1.22175 83.6076 1.51415
-4.49548 77.5092 1.55576
23.2259 105.79 18.9337
2.94007 92.1599 0.634967
22.8111 101.653 21.5539
6.30515 105.29 -4.9044
18.0827 116.402 3.17987
15.8865 102.159 11.2234
9.09565 93.9384 7.89815
18.4783 126.793 -4.52307
23.403 124.917 3.95393
17.4418 96.3396 17.8184
-3.15744 78.2888 2.55753
8.25509 91.8121 8.22205
23.3539 105.673 18.8957
6.43121 105.187 -4.91413
-2.1644 82.3842 0.674548
21.9942 100.119 21.2525
19.2673 116.425 4.54642
8.27225 106.553 -3.41915
0.207481 81.2425 4.92709
11.7368 113.487 -3.95834
25.0463 133.762 -0.874475
23.481 107.238 17.7037
23.9927 128.693 1.56075
11.0695 92.0096 11.8965
22.0934 123.043 3.242
23.0423 101.791 21.2834
-0.693271 80.2614 4.27492
18.7418 121.561 -0.417253
2.87366 83.1215 7.0755
13.2948 94.3965 13.1043
12.0028 91.6507 13.4052
-2.30725 79.8906 2.19823
7.54865 89.7142 8.56095
6.47375 104.537 -4.64967
15.1406 99.7813 11.4348
11.1937 111.861 -3.71789
25.3025 135.623 -2.24523
12.1638 113.569 -3.70673
-3.4292 80.3365 0.112871
14.6747 119.2 -4.56337
20.2115 128.327 -3.85384
23.6673 111.095 14.5874
16.9575 116.965 0.352361
23.9273 125.486 3.53315
9.08898 93.0442 7.80554
-0.955373 79.7624 3.86641
-2.31472 81.8458 0.274523
17.8491 125.447 -5.17393
11.8202 97.9786 7.78707
24.6612 134.313 -2.42168
8.92982 92.5489 7.89263
19.9152 116.014 5.14505
18.5025 116.171 3.00143
3.2274 91.2128 0.75843
-3.29881 80.525 -0.200481
22.9244 99.9976 21.8686
-1.28499 79.3103 3.50363
4.46264 95.6489 -1.12298
14.3161 96.7974 12.0485
13.2782 91.2786 14.8961
17.6589 116.055 1.68645
13.6128 94.9576 12.4526
23.8954 105.796 18.6253
15.4924 117.383 -2.50987
23.3445 100.933 21.6166
25.3188 133.877 -1.47895
-4.02926 75.5074 2.43006
17.5361 116.397 1.06473
8.27981 90.4113 8.22995
17.9358 115.896 1.99928
21.6347 130.587 -4.26447
23.5194 114.496 11.0476
23.542 114.219 11.2919
23.4746 114.745 10.7647
6.0907 85.3821 8.991
-2.47162 78.0501 2.42727
14.6689 101.138 8.73015
13.064 113.339 -3.15571
15.7045 102.795 8.8831
14.3475 96.7442 11.6363
9.19426 92.2251 7.81467
3.76828 91.6025 0.538216
-3.0472 77.5784 1.76557
8.95226 91.6172 7.85957
22.4278 122.787 2.62768
13.7493 91.1201 15.0922
20.3859 121.332 0.82293
17.3472 123.073 -4.91743
25.3998 133.763 -1.8101
8.46342 87.8045 10.0768
23.4794 99.6009 22.2499
14.3218 100.042 8.80765
22.1772 96.945 22.4595
-2.11223 81.3881 -0.0449917
5.90678 98.6465 -2.1475
24.0146 103.809 19.6376
13.9611 99.6152 8.56416
23.2703 114.782 9.91978
-3.55446 77.0184 1.21654
9.38366 91.8809 7.97723
24.479 125.894 2.75354
20.4591 122.479 -0.31912
20.2593 122.328 -0.498601
10.393 89.7978 10.9468
23.0987 112.647 11.1317
15.145 117.166 -3.93703
14.5917 97.4428 10.7427
24.1387 107.067 16.8208
10.1697 92.8777 7.98844
23.7211 111.6 12.6279
11.5169 95.1685 8.09792
10.9667 90.4147 11.0403
23.0287 113.672 9.99151
24.1074 125.905 1.90777
24.2901 109.124 15.3364
23.2359 123.228 2.7332
20.8469 115.382 5.47504
23.8147 128.342 -0.478365
9.80566 89.307 10.1662
24.2098 104.206 19.0302
-0.765958 78.9489 3.17683
1.99754 87.2024 0.620705
10.2705 89.8953 10.292
14.8436 98.5455 10.0268
22.3608 129.848 -3.82956
12.248 95.6258 8.56983
21.7141 122.031 1.35186
13.667 95.4675 10.72
23.1525 114.273 9.46716
23.1127 114.819 8.96961
10.2025 89.8158 10.1392
7.3519 102.632 -4.00553
-2.78115 75.9646 2.4437
19.8907 95.5933 19.3873
22.2529 129.33 -3.75744
11.9695 95.0892 8.43946
13.8561 113.23 -3.13739
5.66553 96.4644 -1.68181
11.443 107.965 -2.51561
23.8396 99.2299 22.0492
20.007 115.665 3.66339
-1.72356 77.9209 2.26029
15.2734 115.062 -2.69424
22.7379 122.54 1.95684
14.4663 113.813 -3.03632
-0.249358 80.0673 2.4368
23.8269 125.484 1.15559
18.0519 122.443 -4.75606
-1.10509 77.5796 3.08852
24.2007 103.064 19.181
9.07377 88.8217 8.75086
-0.865239 78.4486 2.69641
1.70968 80.6561 4.62967
15.346 114.886 -2.78187
24.1795 125.395 1.57751
24.4339 108.069 15.5314
9.08597 88.8964 8.65478
12.4824 108.961 -2.29517
4.84548 92.2105 -0.0704533
16.5906 116.841 -2.67939
11.3779 107.263 -2.65099
22.1812 115.117 6.6066
9.29728 87.8072 9.62484
23.491 110.963 11.6807
6.59664 97.7337 -2.12463
22.9327 112.877 9.30363
22.9689 123.644 0.889888
11.7156 91.8325 9.78378
13.2391 110.489 -2.72576
-0.0309335 77.3818 4.30934
22.2387 93.8169 23.2037
23.5902 96.5568 22.9761
11.4199 92.8389 8.48118
11.9368 107.209 -2.12982
18.2833 116.041 -0.0412972
22.9441 112.959 9.01823
22.8173 122.301 1.49032
0.426864 81.9117 1.21966
6.53889 83.8328 8.40739
24.4979 106.351 16.3509
12.3875 90.7321 11.3061
9.32381 104.47 -3.86287
1.53719 83.3725 1.57354
14.4394 89.7416 14.9916
5.26031 92.7642 -0.497757
18.073 122.683 -5.71066
12.4479 92.5301 9.93345
18.2543 123.388 -6.01939
24.1732 108.62 14.0182
5.08443 91.7329 -0.0318108
16.8574 116.422 -2.66176
9.55566 87.1427 9.83739
22.968 122.304 1.376
22.4895 110.425 10.0166
1.36908 79.5151 4.10402
22.4087 110.877 9.4687
22.9515 129.53 -4.4335
5.62241 93.5889 -1.02461
21.5115 94.9447 20.5984
10.6378 90.1193 8.83761
13.2369 108.572 -1.94734
13.4452 109.28 -2.21549
20.7496 121.423 -1.32117
22.4601 112.022 8.4659
3.72099 81.2063 5.89494
10.5447 90.0177 8.7085
1.25776 78.1487 4.76046
22.845 122.075 1.08676
23.5031 123.912 0.56121
15.0653 113.182 -3.09836
23.8045 123.281 1.33975
23.3402 123.25 0.699562
2.15352 78.5155 5.48274
12.4555 90.1812 11.024
22.7066 92.8169 23.5717
12.3563 106.497 -1.96756
24.449 105.06 16.4297
16.1279 90.9355 15.6066
10.028 87.731 9.3906
8.00134 85.8494 7.94271
20.7079 120.991 -1.51509
16.8153 115.289 -2.60027
1.36508 79.7325 3.24671
24.4985 99.3541 20.8458
14.1195 109.889 -2.26148
21.4056 121.425 -0.941604
8.22351 86.1949 7.72456
19.2702 115.44 0.496419
21.5692 111.124 7.16107
22.0096 127.63 -5.22131
3.85787 87.0893 0.647347
20.2796 93.0122 19.448
23.2298 123.012 0.085029
21.4607 114.661 4.10867
-0.605524 76.199 2.79224
23.2072 129.453 -5.03855
18.7815 121.714 -5.29606
23.8534 125.667 -1.19121
1.03646 80.2496 1.85466
21.3073 114.688 3.74973
24.8296 99.87 20.4213
24.7689 99.6073 20.5122
14.0955 108.46 -1.6923
1.02049 80.3203 1.72079
6.33298 93.7726 -1.29385
24.1157 126.6 -1.72901
1.82135 79.2511 3.59814
2.47284 82.8385 1.62542
19.1812 123.018 -6.06549
21.4659 92.7931 20.923
21.2421 120.73 -1.38523
21.6195 111.885 6.08932
1.05172 80.5451 1.31267
10.7517 104.294 -3.49487
8.93133 101.321 -3.80852
10.1308 103.699 -3.9717
24.3943 95.1909 23.0801
20.2297 124.15 -5.64438
17.421 91.5087 15.9547
9.97046 103.138 -3.90405
25.0888 129.444 -3.01544
3.18672 78.9236 5.3748
22.8299 90.4824 24.348
18.3803 115.347 -1.55202
20.6965 109.581 6.1944
22.1377 91.6304 22.3145
21.6703 109.266 7.7476
1.97022 79.025 3.34885
25.0119 101.536 18.5704
20.2477 91.4421 19.6279
23.7357 129.057 -4.94799
22.0179 109.17 8.19338
8.78068 99.8275 -3.3959
25.0477 101.508 18.5024
24.1915 129.346 -4.62213
21.0051 91.9557 20.1507
3.53234 79.9088 4.5859
20.4827 113.55 2.33797
25.01 102.43 17.514
4.41747 85.1281 1.61376
24.4485 105.327 14.3308
20.6923 124.253 -5.92467
21.4754 108.94 7.21249
2.01508 81.0401 1.3252
15.9314 109.462 -1.13603
1.10019 77.0716 3.11518
18.6101 90.7155 17.3563
4.33368 78.1738 6.79639
8.80588 98.5668 -2.90014
4.29773 78.2286 6.61723
25.1545 97.4131 21.3428
22.1443 87.6409 24.6741
8.95295 85.5865 7.43401
13.8485 106.061 -1.66663
17.4389 112.86 -1.88548
22.1188 87.3189 24.8308
20.1069 111.655 2.78814
23.6484 90.811 24.1811
3.58577 82.5917 1.97052
4.74384 85.9448 0.990026
16.9353 89.7322 15.3885
23.7519 121.755 -0.0503589
5.67757 88.0467 0.590852
25.2343 102.737 16.977
6.90953 78.5679 9.77444
18.9502 112.789 0.0765799
19.9186 110.695 3.07439
19.9027 110.262 3.38801
18.8125 113.377 -0.644515
24.2725 127.162 -3.68984
19.4687 110.419 2.59155
23.1535 88.9312 24.6329
24.7059 104.583 14.5274
24.6174 104.976 14.0884
20.3057 89.2178 20.2742
23.5925 124.824 -3.04007
22.0656 86.2026 25.0959
24.1773 126.686 -3.72676
16.2959 88.1587 15.2162
10.7127 101.634 -3.37366
25.0649 94.9093 22.4067
25.3678 101.616 17.5703
19.7881 109.32 3.50895
23.3022 126.305 -4.81734
16.6838 109.337 -0.947317
17.0879 109.974 -0.909808
5.3028 86.6285 0.586324
13.0122 88.299 10.2485
21.8661 89.4808 21.949
18.7023 112.491 -0.653174
4.23717 79.6981 4.43596
23.7627 126.174 -4.17748
22.2694 87.617 23.9753
8.33657 95.1716 -1.88047
23.5416 124.833 -3.49995
23.6792 126.02 -4.24727
15.3891 107.108 -1.25037
23.6968 88.9572 24.8305
25.6086 100.155 18.7559
21.82 89.144 21.9474
22.6426 126.368 -6.15224
22.4884 88.9619 23.0034
23.1161 125.564 -4.87036
7.92705 79.1512 9.85939
25.5972 100.893 18.0095
5.18865 84.1582 1.99299
21.7852 85.3367 24.7758
24.732 104.943 13.5682
24.9688 93.33 22.9874
16.5033 108.45 -1.01884
6.4097 79.3644 7.40261
18.0591 112.154 -1.731
24.2448 106.082 11.8494
4.87377 79.5089 5.03405
23.1181 125.16 -4.76251
4.93434 79.6209 4.97157
7.90539 92.4821 -0.899599
21.5099 85.0407 24.3621
18.3792 89.9433 15.9722
6.75917 79.5553 7.53054
3.83244 79.1029 3.68359
7.78945 79.605 8.92057
14.9945 105.884 -1.49785
13.6047 87.7083 10.7562
25.7166 98.3836 19.6617
25.6905 97.0297 20.6702
9.24843 95.9197 -1.99992
15.7007 106.69 -1.24212
7.97218 81.9637 6.98622
25.755 98.1977 19.6388
20.2912 107.317 4.62584
5.58068 83.8488 2.03987
21.9586 86.9343 22.9867
6.85113 88.457 0.198372
13.312 103.074 -2.06747
10.4077 98.097 -2.33269
9.83684 96.5225 -1.91277
2.65678 77.0272 3.12845
13.5551 87.5324 10.4451
5.37171 83.4241 1.93895
24.7699 104.935 12.7456
18.7829 88.5678 17.0239
5.98974 80.4206 5.14408
20.6663 84.278 23.0079
25.7806 99.4355 18.3902
9.07669 79.6086 10.0853
20.5408 106.019 5.66337
22.2939 87.4224 22.7644
25.821 98.0649 19.395
23.5509 106.166 9.67092
10.0135 95.5335 -1.37873
21.0857 84.0594 23.4059
7.52833 89.2984 -0.140084
22.4079 83.6309 25.5495
3.35534 77.8547 2.79592
22.4497 105.858 8.04466
25.8249 101.319 16.3449
9.63599 93.5712 -0.738769
10.2282 94.1175 -0.382484
19.241 87.133 17.9799
23.108 105.562 9.0134
21.2966 105.142 6.73529
11.7103 79.9815 12.7888
18.7688 88.1036 16.488
10.8 80.1329 11.3542
18.4695 88.7726 15.4807
20.5056 105.262 5.41832
17.2099 107.223 -0.838757
11.6904 80.1465 12.4963
21.5343 83.3129 23.9988
25.9556 99.6939 17.4412
11.5304 80.4825 11.8403
21.2022 83.1176 23.5402
10.2202 91.59 1.12534
11.6056 95.116 0.297413
8.70188 89.5547 0.499304
5.9104 82.5995 1.95192
22.2153 104.38 8.09102
25.9916 99.049 17.6711
8.80518 89.008 0.997495
25.7658 101.607 15.3242
16.5908 105.534 -0.931783
19.2144 108.267 0.615795
19.2235 86.4984 17.714
25.4307 102.695 13.823
13.7518 100.372 -1.03871
10.4238 91.0438 1.52099
11.5716 93.502 1.19645
5.34228 78.993 3.69013
22.1925 123.243 -7.03314
5.25034 78.8773 3.55189
8.81911 87.7384 1.64418
8.59249 87.594 1.42974
11.0691 91.9472 1.5327
19.3423 107.745 0.939497
22.4516 123.553 -7.05336
25.8952 100.973 15.5251
22.5061 103.765 8.48048
11.4477 81.4858 10.0607
19.7383 106.975 1.87424
10.8845 90.748 1.96449
18.7832 107.755 -0.115398
8.18319 86.3756 1.5189
13.306 87.3513 8.03145
14.591 100.37 -0.399536
23.2874 125.654 -7.85303
11.3454 84.4548 7.41829
13.3127 94.7273 2.12118
19.6904 106.599 1.88506
12.2778 92.8176 2.04122
5.22831 78.3441 3.30643
10.6926 82.8165 7.58386
13.1792 80.484 12.9629
9.54163 86.44 3.06759
14.805 98.9209 0.770479
20.7776 103.661 5.57276
14.8445 98.5179 1.13326
23.9593 83.986 25.5661
10.5495 81.6361 8.23469
10.9909 89.7099 2.51798
19.8045 104.498 3.47689
11.8211 91.3364 2.40361
24.3055 103.329 10.8142
12.0767 85.4661 7.37395
10.6532 88.0316 3.32376
24.6706 85.4646 25.3514
11.9342 81.5125 10.2459
21.904 103.283 7.33509
13.4017 80.5376 13.0435
15.4857 99.2148 1.31413
17.1356 104.571 -0.575662
15.9983 99.7319 1.52726
26.2513 94.8623 19.9998
9.91801 86.2399 3.42148
12.5069 81.2522 11.0197
19.7614 104.117 3.29746
9.03994 81.886 5.39044
17.6807 86.2285 14.313
17.9617 86.3156 14.5152
16.0905 98.9394 1.89956
19.7463 85.2502 17.8224
24.8536 85.1406 25.1468
9.87387 81.8746 6.23143
13.1928 81.2926 11.2989
23.9506 83.3101 25.0109
23.7863 124.118 -7.38782
6.23127 78.0608 3.64795
9.49705 81.2319 5.78355
24.6745 125.335 -7.193
11.7289 86.6723 4.63819
19.0156 104.311 1.17146
17.6842 101.648 1.29146
7.85534 79.656 4.5222
15.5676 96.1292 2.55421
15.2853 80.4336 14.4495
15.883 96.6858 2.45968
25.7324 89.5889 22.0908
12.3255 87.018 4.93386
11.0515 85.1351 4.52741
9.82698 83.4218 4.0731
18.8839 85.5267 15.3473
20.1039 102.425 3.77149
8.5524 79.9741 4.83678
26.3651 95.5993 17.8184
19.2848 102.604 2.1896
25.8589 89.4749 21.862
19.6598 84.5742 16.8531
26.4935 97.9202 15.9255
19.3037 102.352 2.11107
8.45435 79.5414 4.52173
12.4257 86.1737 4.95798
6.97688 77.5664 3.86894
15.9924 91.1294 6.02442
16.312 92.6811 5.18836
24.5663 83.5014 24.1439
12.2143 83.5316 6.43835
18.5242 84.5282 14.6325
15.8278 80.8803 13.6046
8.03655 78.2623 4.52231
18.2644 84.5158 14.1749
14.1305 82.1136 10.1382
12.4103 85.3676 5.10619
16.5366 92.4655 5.30533
6.67597 76.6689 3.57673
15.9902 89.6913 6.47379
17.9002 84.8797 12.8869
9.49999 79.821 4.85572
12.2462 83.7402 5.59921
16.5223 80.842 13.9578
21.4782 100.507 5.35425
13.0459 84.533 5.72403
17.4876 93.2359 5.17787
13.7024 84.9622 6.23151
15.2717 82.2548 10.5695
20.8944 100.12 4.48937
8.00119 76.9057 4.29523
13.2502 84.9792 5.4402
26.3752 96.2776 15.3152
27.0087 92.9287 18.8293
25.6118 98.1701 12.6309
9.31115 78.7863 4.54973
18.1929 94.5066 4.88605
15.8999 85.3 8.74347
26.0287 84.5256 23.7671
14.5098 84.4236 7.23594
25.7885 97.1484 13.3276
14.7489 84.6855 7.3013
20.8985 99.3983 4.50398
20.9302 99.3869 4.54699
16.6909 88.4271 7.03871
16.3072 88.0662 6.7723
18.8838 94.7928 5.15442
16.1231 82.2096 11.0934
12.5195 82.0464 6.06547
26.9167 94.9021 16.5296
13.292 81.6645 7.4008
12.9204 81.2961 7.14316
26.6121 88.0967 21.3575
20.579 82.934 16.7309
20.8451 98.3543 4.9762
12.9301 81.5478 6.83247
17.4557 88.6412 7.70642
12.9174 81.5826 6.7615
15.496 86.6443 6.45473
15.2261 81.1595 10.3121
11.4246 80.658 5.22756
16.5497 82.3259 11.213
15.8526 86.7295 6.72057
9.71755 77.812 4.92765
19.8284 95.4547 5.50338
15.5267 83.09 9.06771
13.6873 82.8907 6.58107
10.6426 79.2692 5.0498
12.9643 80.0249 7.77038
25.4715 82.7823 23.4449
27.1193 93.2917 17.5413
11.9997 80.9694 5.61243
10.6577 79.137 5.09894
21.6788 97.6064 6.33667
15.3064 85.2159 6.85223
20.2505 82.3197 16.172
27.1867 90.3102 19.7158
18.6356 90.1819 7.55538
21.5954 96.2044 6.9973
16.0955 85.9315 7.17426
12.9055 78.9268 8.05775
20.6302 83.1417 15.7277
20.5789 94.7582 6.52927
12.2163 79.3687 6.66465
16.1259 82.0213 10.0947
22.4509 96.7154 7.51659
25.6219 82.3495 23.2979
16.0302 84.7509 7.65728
22.8776 97.1796 7.66781
22.81 97.0027 7.69701
19.2929 90.1191 8.07181
26.6354 83.9318 23.2195
19.4123 90.3433 7.83631
21.9295 95.1325 7.53586
17.5762 85.7588 8.67255
17.8792 86.0015 8.89441
27.035 85.583 22.2597
16.2977 81.0477 10.3287
24.0038 96.0417 9.53861
19.1113 83.7306 12.1951
20.2221 82.4483 14.7526
17.0875 83.6731 9.17766
19.7913 81.2334 14.9546
19.802 81.3732 14.8058
26.9708 84.2985 22.6681
20.469 90.9034 8.12955
17.9991 84.0399 9.67942
20.8459 90.4954 8.59471
18.347 84.1098 9.93137
22.2616 93.0893 8.43864
23.6207 94.1363 9.54207
22.8203 93.4519 8.86577
17.5254 81.8356 10.4176
24.6276 94.5856 10.5138
16.6951 80.1944 10.4726
17.5278 81.6323 10.4396
21.0192 89.4374 9.28961
20.2472 86.9592 10.0798
22.8828 92.3582 9.39338
24.2194 93.437 10.4493
27.3927 91.4337 16.5443
21.3441 89.3932 9.45731
22.9922 92.2213 9.56514
20.6346 82.884 13.2735
18.2472 82.0275 10.4795
22.7567 89.9119 10.294
22.4277 86.7459 11.8305
26.1983 91.3229 13.5696
23.7362 87.7181 12.8149
27.5436 83.096 21.7577
24.1867 87.5585 13.2018
25.3696 89.449 13.3908
25.4213 89.3907 13.506
25.125 88.2231 13.9736
25.2848 88.2336 14.1862
25.921 89.1813 14.3334
23.132 86.3563 12.4679
25.9088 88.2709 14.6404
28.1089 84.4974 20.6425
27.8557 87.6414 17.51
28.0959 86.3491 18.4628
26.4937 86.9511 15.3406
26.317 86.5981 15.3046
23.8313 80.3578 16.3266
25.5974 85.0261 14.9811
27.7148 82.4576 19.9609
24.2549 80.7613 16.1737
27.4403 82.0017 19.6675
28.7543 82.7686 19.9017
25.7159 81.1901 16.5956
28.2831 83.0216 18.5451
28.3171 82.7995 18.6888
26.4088 80.7797 17.3715
28.2648 82.5816 18.5778
28.225 81.1079 18.9232
27.3863 81.1215 17.5215
28.054 81.5271 18.1568
27.4175 80.7033 17.8714
