ply
format ascii 1.0
comment Created by Open3D
element vertex 1936
property double x
property double y
property double z
end_header
16.9407 107.551 9.93892
-2.50031 86.1243 6.95073
1.14556 90.5549 11.6017
17.4163 108.588 14.4169
-10.7184 76.6052 -0.0802894
17.0766 108.045 11.3075
-3.97666 84.2192 1.6132
24.4299 116.097 10.464
2.02309 90.5817 -0.916616
5.5387 94.334 -1.94696
-0.985389 88.3078 8.80228
-7.22253 80.6763 -1.31652
3.86977 92.7566 -1.52944
0.128581 88.7847 -0.67183
2.08561 92.0231 10.4397
-2.29359 86.9202 7.06486
2.24849 92.1909 10.2579
17.2947 109.045 14.7654
-2.86862 86.3087 6.8073
-0.537457 89.1295 9.20224
6.76673 96.0571 -1.93515
-6.80442 81.7402 2.81988
3.00262 93.1357 9.81104
19.1638 109.744 -1.34019
22.2449 113.61 3.42894
3.25436 93.5947 10.1601
-6.90774 81.8019 2.84539
21.8875 113.215 2.76715
-1.23256 87.7382 0.0380545
13.9478 104.848 4.80842
-7.09338 81.3582 -1.44161
-6.09749 82.7216 0.391738
15.2598 106.557 5.89326
20.3345 111.495 -0.313125
20.4393 111.649 -0.0715888
9.02926 98.9805 -2.49009
-6.6202 82.1898 -0.629222
17.1064 109.572 14.6446
14.262 105.528 4.77411
-8.68399 79.9531 -1.13114
-5.45773 83.7484 0.950034
19.207 112.107 15.482
17.2141 108.387 -0.482159
-2.93763 86.5476 0.964235
21.1988 112.956 1.65614
0.395864 91.4201 11.6845
9.53181 99.9931 -2.98644
-10.3665 78.6444 0.682202
19.1397 112.294 15.4823
11.2608 102.129 -1.38454
-8.09204 81.0203 -1.75855
-9.10436 79.9234 -1.70389
-9.54819 79.5561 -1.23801
4.10534 94.4055 -1.75609
4.97305 96.5209 10.1962
-12.253 76.6309 -1.51406
15.944 108.268 7.31834
-8.67027 80.5335 -1.93036
5.74521 96.2438 -2.11453
19.8852 113.388 14.9812
20.3675 112.546 0.184351
2.86034 93.3532 -1.41144
20.8801 114.55 14.35
16.475 108.348 -0.131118
10.4389 101.597 -2.13088
-9.35609 80.3279 1.17266
-4.17714 86.4726 6.07182
-12.3335 76.7154 -2.84656
-12.2856 77.0368 -0.583969
23.2135 116.466 6.50127
21.9513 114.983 5.32439
-8.07788 81.7161 -0.621727
-0.0985505 90.4305 -0.786506
-2.53384 88.5987 7.47067
11.7222 103.899 4.58261
22.3983 115.705 6.03812
-5.3347 84.9805 0.835157
15.1642 107.852 5.70085
9.99623 101.44 -2.52929
20.4732 113.269 1.22653
17.8062 110.078 -1.76118
23.9823 117.785 8.19198
14.6042 107.225 4.64907
3.00783 95.2224 10.9793
-12.719 76.8131 -2.0346
-1.84904 88.8798 0.0436998
4.29741 95.448 -1.65524
-8.29036 81.9225 -0.403143
6.59609 99.0035 7.80684
13.7972 106.604 4.54537
0.21259 92.5235 11.9938
15.8753 109.176 7.3629
23.6051 117.629 7.42256
-5.2274 85.5553 0.110285
-9.86223 80.301 -1.96536
13.8168 106.772 4.52764
5.52019 98.2242 9.70204
-8.6151 82.1844 2.92715
4.87408 97.6409 10.5162
11.8181 104.148 -0.591789
21.5461 115.386 5.75621
20.86 115.471 14.2439
14.6321 107.775 4.68471
6.91906 99.6577 7.56716
14.9865 108.266 5.35713
16.6936 110.761 11.8485
-4.81175 86.7034 5.67764
11.7279 104.186 -0.621589
5.62765 97.441 -2.2871
23.9249 118.577 9.27323
9.22509 101.341 -3.2008
12.5877 105.321 -0.104094
19.3011 112.49 -1.71119
6.05379 99.1218 8.91545
20.3554 114.131 2.32412
22.0635 116.268 5.13818
19.8244 113.438 0.599671
-10.9808 79.3201 -4.89758
-0.858505 90.7965 -1.00952
23.7782 118.637 8.88776
9.26507 102.556 6.19279
11.5209 104.941 4.50725
-0.838193 90.9322 -1.03269
0.772054 93.9219 11.5472
23.0243 117.696 6.30432
-9.06893 82.0325 -0.736415
4.57332 98.0207 10.6178
-12.6214 77.8726 -3.70081
-13.043 77.3709 -4.15269
21.6394 116.195 5.07893
-13.4597 77.1845 -2.37936
23.1278 117.82 4.91125
17.2695 110.84 -1.63442
23.3359 118.087 4.46343
10.1383 103.879 6.39307
2.90507 95.3796 -1.37249
18.8791 112.763 -2.12241
8.94137 101.865 -3.19781
16.6659 111.795 11.278
7.69025 101.734 7.96356
-10.1816 81.6306 1.52611
9.92463 104.233 6.90327
17.5746 113.35 14.6031
16.5549 112.051 12.5156
-11.2101 80.1664 -4.54978
6.38061 100.65 8.70193
-13.4609 77.888 -2.96757
12.7329 106.784 0.151782
8.22171 102.636 8.03139
2.24292 96.4112 11.0023
5.83953 99.0709 -2.67578
23.4561 119.038 4.39295
-4.27367 88.3817 -0.478699
-8.54651 83.7671 -0.586258
23.191 119.442 10.0137
-2.19078 90.7884 -0.157602
-11.9148 79.9912 -2.67216
-7.07143 85.9972 4.3037
8.83425 103.855 8.18596
-9.56615 82.9457 -0.754751
23.5491 119.618 4.62867
-10.4917 81.9267 -1.16081
-6.2012 87.2181 4.87392
18.9346 113.995 -1.77972
-13.679 78.551 -0.504324
6.14662 101.217 9.48619
23.6438 119.835 4.45949
-11.5312 80.7368 -3.42915
1.80062 96.7091 11.0646
-10.1904 82.4572 -1.08969
16.3928 112.767 12.3417
-13.8233 78.3042 -3.23811
-9.01633 83.7823 -1.38846
-8.67408 84.1402 -1.62544
9.50494 104.85 7.33491
14.5541 110.088 4.32528
12.0986 107.031 0.152081
-12.0187 80.1034 -6.22101
-0.881257 94.0025 11.6149
6.83628 102.217 9.48496
-11.2645 81.4512 -1.4785
-7.49892 86.1042 3.95
21.7493 117.9 2.64667
-11.4859 80.9819 -4.22099
23.7434 120.27 4.20492
-11.78 80.7952 -3.41711
22.7233 119.666 8.92513
19.1887 115.202 2.26197
7.83501 103.484 9.08286
22.4883 119.757 11.7945
-0.186316 95.0278 11.2433
20.4293 116.763 3.06536
-11.933 80.6705 -5.40853
-2.10345 93.0075 10.9517
21.2344 117.647 2.32791
-0.992495 94.3035 11.4994
22.3431 119.819 11.953
5.22678 99.9084 -2.51429
19.3455 116.955 14.313
-5.29337 89.2751 5.89559
0.708867 95.1517 -1.03296
19.7571 116.329 2.95056
-12.9269 80.0788 -3.27515
0.740164 95.2202 -1.04252
-13.192 79.6151 -5.33536
1.16525 95.7179 -1.08984
-12.5499 81.0445 0.813697
-12.6017 80.3594 -5.77723
-3.99038 90.4019 -1.38184
-12.3238 81.2629 -1.99813
3.46836 98.517 -1.78244
22.4069 120.005 6.71906
22.5104 120.523 10.8821
-10.3268 83.465 -1.99177
-12.7584 81.1749 0.773941
9.71441 105.523 -1.1982
25.5484 123.044 1.22041
3.65815 100.162 10.6011
-7.97636 86.0718 -3.86397
22.2988 120.443 9.93551
19.6156 116.796 2.07416
-10.3449 83.6755 -2.45275
-6.57943 87.7207 -3.10747
-6.65989 87.6586 -3.30624
25.1168 122.895 2.4051
-9.84791 84.2465 -3.00942
16.1513 113.991 11.1768
21.0942 118.487 1.86498
17.1798 115.361 13.5082
13.1763 109.728 0.440466
17.8598 114.713 -1.31112
21.9528 119.514 2.01907
0.600326 95.9087 -1.24598
2.68697 98.1561 -1.62286
-13.4432 80.3391 -3.93643
4.95882 101.819 10.1266
16.342 114.455 11.9037
14.0089 110.754 -0.0534033
3.69924 99.33 -1.91384
16.9569 115.295 13.055
24.58 122.725 3.28377
-3.02958 92.2036 -0.869948
-10.0249 84.3481 -3.23494
22.1596 120.605 8.46487
9.42321 105.769 -1.25966
-10.0551 84.9578 3.09981
22.5981 120.521 2.06434
12.3463 109.591 4.14558
24.4687 122.748 3.38967
11.1417 107.895 -0.0158641
-14.409 79.5656 -4.71876
17.0339 115.608 13.1675
24.5999 122.925 3.39378
22.9603 121.442 6.08279
-15.3197 78.9188 -1.80125
-4.17765 92.0066 7.70745
2.5671 99.6594 10.7348
6.33396 102.439 -3.03733
-14.0142 80.685 0.455566
-13.3701 80.7518 -6.28796
5.67471 101.931 -2.77617
1.78914 99.0187 10.8128
4.06203 101.473 10.1527
-14.7377 79.5602 -4.50274
-10.2705 84.5237 -3.59581
25.4945 124.358 4.39404
22.0429 121.049 9.01741
5.01505 102.563 9.88952
-13.2948 81.1996 -4.418
10.3282 107.922 4.85462
-1.8588 94.0733 -1.12789
23.4946 122.362 5.31927
17.2962 116.408 13.3574
18.6613 116.785 1.13965
-0.849055 95.3051 -1.34456
9.47874 107.341 6.41223
-11.8814 83.6224 1.96335
-11.3828 83.7024 -3.15598
21.2669 119.785 1.32227
12.4044 110.391 4.07948
-5.41706 90.3574 -2.63433
-13.4645 81.3922 -4.73593
-14.2541 80.4909 -5.72459
21.8049 121.456 10.9845
5.90379 103.96 9.18162
17.592 115.769 -1.04718
23.5395 122.649 2.78197
13.5221 111.86 4.1157
16.0744 115.318 10.5866
23.491 122.704 3.28035
17.0749 116.659 13.1007
-0.0553404 97.7998 11.1011
-14.5125 80.3515 -6.22093
12.4859 110.458 0.477992
0.816827 97.5136 -1.80841
12.6537 110.677 0.502319
23.6083 123.129 5.25678
25.036 124.337 1.59034
-5.55143 90.4774 -3.69863
-7.15163 88.613 -5.13503
-3.79098 92.5556 -2.5307
-13.06 82.2986 -4.0816
25.8265 125.439 3.22657
23.5919 122.79 0.922984
6.62177 103.824 -3.78906
-0.569238 96.2649 -1.71415
23.8309 123.393 3.37787
-14.7781 80.3953 -5.83642
-6.91859 89.0856 -4.73278
5.86685 104.372 9.01099
-4.00203 92.4382 -3.04223
-11.2038 84.4094 -4.82004
15.0145 113.924 4.47135
-9.81487 85.7808 -6.55445
25.0627 124.711 2.31896
-12.4905 83.0497 -5.07427
21.501 121.853 12.3755
-11.6301 83.927 -6.23585
26.1926 126.008 1.87842
-14.9687 80.6775 -2.7836
19.0801 118.219 1.28003
2.86253 101.425 10.0898
23.3107 122.975 2.17656
22.1303 121.066 -4.24861
-0.288797 96.8525 -1.88355
21.9371 121.467 1.80534
23.8528 123.778 3.80107
21.533 121.887 10.3145
-14.6596 80.7846 -6.45388
-3.883 92.855 -3.38342
23.1133 123.314 6.49468
-6.78124 90.6264 5.58946
-0.661895 96.5879 -1.9081
22.6556 122.961 7.39455
2.55684 101.337 10.1147
-11.6028 85.1551 2.47598
-10.1794 85.8485 -6.38629
20.8001 121.509 12.793
23.4207 122.958 -1.94098
-8.31842 88.9774 4.32452
26.4384 127.09 4.66467
-12.3796 83.7021 -6.16567
8.26235 107.677 8.79691
18.4021 117.976 0.544051
25.3347 125.594 1.10424
26.1492 126.833 4.61974
23.9441 124.381 3.80922
-7.23788 89.4279 -5.86218
26.1311 126.85 4.58631
17.1468 117.852 12.8566
22.4452 122.3 -0.866489
24.5468 124.812 1.29021
25.8915 125.203 -9.91152
15.287 115.168 5.08689
25.3177 125.906 2.76316
-13.4008 83.5531 1.50955
15.7512 114.959 -2.66689
15.0878 114.319 -2.08569
13.0636 112.342 0.183761
-15.0539 81.094 -5.7617
18.1402 119.216 13.6669
-14.8255 81.4843 -5.01879
18.345 118.131 -0.293233
20.2081 120.267 0.586121
15.381 115.515 5.67728
-2.88786 94.7912 -2.50452
-3.16299 94.4426 -3.19455
-15.1258 81.3154 -4.28012
26.5854 127.391 1.41017
18.4555 119.724 13.6076
19.036 120.347 13.4709
22.7633 122.877 -2.48665
13.1427 113.014 3.97219
-15.8387 80.7832 -2.57451
21.6729 121.536 -4.3981
2.43747 101.953 9.85445
3.06664 101.387 -3.37289
-2.8003 95.0523 -2.8121
22.699 123.248 1.04334
16.8201 118 12.4223
8.17383 107.231 -1.44198
22.467 123.01 0.452783
23.941 125.061 4.4512
-2.66532 95.3406 -2.88526
21.6743 121.667 -5.70407
20.2122 120.691 0.58716
-5.55732 93.2808 7.81833
25.8404 127.169 4.00037
4.04771 103.977 9.42864
23.0328 124.472 6.7124
7.44011 107.723 9.22552
-3.3858 94.6201 -4.27938
25.8829 126.882 -0.937493
-16.4012 80.3409 -5.39663
-15.1391 81.6315 -6.42843
15.6076 116.462 6.79444
11.8738 111.798 0.527276
-16.0835 80.754 -5.17436
21.5687 123.341 10.1741
8.80058 108.351 -0.833551
-16.3022 80.5336 -5.38394
-15.6908 81.7615 0.269851
-5.31353 93.894 8.16831
1.37714 101.377 10.0459
-15.6155 81.3921 -4.87312
21.7701 123.606 9.72181
21.7901 122.842 1.3956
15.9363 117.37 10.7595
12.8009 113.292 3.88304
24.5955 126.311 5.3611
25.9456 127.249 -0.243154
20.1829 121.117 0.564503
26.664 128.52 3.90753
15.4686 116.433 4.99401
6.087 106.626 9.30364
6.85793 106.189 -4.22607
6.7221 107.372 9.39262
23.4178 125.061 3.73587
25.415 126.653 -2.3291
9.53837 109.543 -0.275385
-10.4583 87.1966 -5.96087
14.4898 115.426 4.25165
25.9023 127.929 4.67442
-2.83286 95.8294 -3.38533
2.85336 101.997 -3.89948
23.7234 125.639 5.0226
26.3927 128.494 4.33337
-12.8718 85.4046 1.70322
-0.649221 98.1821 -4.31762
7.41811 107.143 -2.7229
26.6555 128.643 2.19126
23.5115 125.375 3.75422
12.0843 112.96 4.03273
22.1138 123.205 -3.37366
-4.08541 95.9775 10.3691
-2.5122 97.7885 11.3349
-15.6038 81.8024 -6.40527
-14.1934 83.4875 -4.99621
9.76154 110.622 5.30341
22.9147 124.893 4.48605
25.9094 127.588 -1.5047
23.4472 125.501 4.42133
25.9091 127.771 -0.0782343
-13.7181 84.6974 1.30528
23.7371 125.541 1.03947
-15.6943 82.1405 -2.91284
-15.4694 82.2731 -4.49154
-7.33972 92.2086 6.30924
4.605 104.247 -4.11564
23.0893 125.188 3.86753
-12.6722 85.9764 1.68043
21.7683 124.326 9.31963
22.0561 124.587 8.50373
23.5272 125.86 4.83834
-0.880357 98.3191 -4.69628
14.4442 115.262 -2.5857
1.61292 101.073 -4.61287
11.9771 112.888 0.44487
8.90354 110.155 6.69649
22.8824 124.802 0.445318
25.9955 127.826 -3.46368
17.6677 120.408 13.2723
19.0238 120.623 0.0675427
22.2788 124.322 1.44838
18.7584 120.361 0.0911245
15.7675 117.774 7.02442
9.01292 110.387 6.48459
-15.618 82.3897 -5.27906
-10.0073 89.4204 3.74493
-1.03907 99.8823 10.548
14.8892 116.729 4.54867
8.76425 110.292 7.06801
-3.66778 97.1839 11.6936
-11.8724 87.2908 1.98435
25.5983 127.527 -5.34019
12.1524 113.769 3.99268
12.5676 114.215 3.87461
-7.55858 92.517 6.42583
-11.8495 86.638 -6.03788
1.70856 101.569 -4.84114
-15.5668 82.6636 -5.72119
-11.0137 87.6277 -5.91162
-15.656 82.5821 -5.84981
1.61185 101.513 -4.90501
17.6275 119.532 0.35377
-15.9794 82.2296 -6.27634
15.8286 118.311 7.92192
24.1824 126.728 0.572931
4.2685 104.537 -4.62058
15.485 116.908 -3.83423
-16.1087 82.5397 -3.02815
24.7898 126.359 -11.4883
4.08419 104.449 -4.68378
22.8683 125.686 2.97505
19.1898 121.401 -0.14009
17.3597 120.684 12.7882
14.5757 116.844 4.37852
-3.2708 96.5619 -4.3337
17.4341 120.824 12.8642
21.4078 124.88 9.95168
15.864 118.594 7.12101
25.2892 128.666 4.89039
15.7392 117.432 -3.64729
-6.56722 94.1837 7.51939
21.78 124.575 1.89912
20.3805 121.925 -9.78454
15.8953 118.911 9.18481
21.3505 123.853 -1.38946
15.9016 118.824 7.88873
20.8707 122.996 -5.10515
26.0183 128.69 -4.3307
21.668 125.288 8.98789
-5.19943 96.0572 9.78676
12.4736 114.361 -0.39918
-14.3952 85.1752 0.717697
-11.0201 89.0929 3.04222
26.1931 129.557 1.30587
-9.63178 90.8113 4.43888
-2.65714 99.0857 11.2412
23.4842 126.843 2.98932
-1.7711 98.4365 -5.89942
24.0087 126.836 -3.20995
4.04274 106.262 9.00966
-16.9087 82.5604 -0.423496
18.875 121.605 -0.363894
21.5794 124.785 1.77727
5.34535 107.827 9.52009
21.2045 123.921 -3.18542
25.8096 128.311 -9.71019
12.9308 115.591 3.73443
23.3856 127.063 4.3554
25.8311 129.187 -1.38243
26.1007 129.712 0.918801
8.59776 111.245 7.16367
21.0621 123.698 -4.7683
-2.53985 97.8429 -5.95135
15.9286 119.544 9.89517
-5.11661 96.624 10.1334
25.0068 127.627 -9.17484
21.009 124.023 -1.51072
-5.26766 95.0016 -5.52031
15.949 119.379 7.06059
6.62776 108.238 -3.22365
2.5803 103.627 -5.43166
-16.3474 83.5097 -0.284613
-16.3544 83.5127 -0.290644
14.4879 116.823 -3.92681
24.0476 127.085 -5.75054
11.2618 114.128 4.20508
-9.54552 91.4844 4.78001
27.1737 130.357 -8.13966
-11.0043 89.8313 3.19243
-4.84556 97.2922 10.6902
27.177 130.629 -5.89838
-8.78416 91.3519 -6.8412
20.8609 123.993 -3.8666
24.2093 128.078 0.297262
-3.46179 97.2616 -6.21251
4.94835 106.55 -5.0465
-13.3776 87.237 1.10606
26.0001 129.229 -9.22049
7.64335 111.016 9.17133
-1.66149 99.4372 -6.1431
21.3584 125.258 0.96024
21.3678 125.523 3.44518
11.2991 114.25 0.293601
19.5799 122.284 -10.0796
22.1887 125.06 -11.5868
-16.5379 83.4096 -5.52899
3.64438 106.868 9.16912
3.67122 105.498 -5.25111
-4.76002 96.2207 -6.2776
-10.4772 90.9801 3.74981
-16.9644 83.0679 -5.50679
27.5184 131.527 -6.2539
27.3412 131.482 -5.13433
15.0346 119.02 4.69691
23.1265 126.323 -11.1835
22.3546 126.838 2.6974
4.64372 108.181 9.53527
-2.44563 100.579 10.716
-11.8438 88.71 -6.24849
21.9245 125.042 -11.5423
5.90561 108.292 -4.12322
-16.2481 84.0328 -5.14744
-16.8836 83.8264 -0.740108
19.3584 122.494 -9.74557
-14.5752 85.9112 -5.37945
16.0999 120.891 10.1656
-17.1408 83.1377 -5.37403
19.662 124.928 11.3149
22.9825 127.823 3.80281
23.4111 127.351 -5.9906
16.8819 122.003 11.9335
-17.0573 83.2927 -5.47464
22.7009 127.538 3.30864
-14.3205 86.2967 -5.57477
20.2013 124.464 -0.613832
15.0881 119.43 4.79152
23.5012 128.187 0.320198
18.0707 122.147 -0.935894
20.1237 124.542 0.532568
21.1716 125.732 0.832291
20.3579 124.259 -5.26245
23.3976 127.429 -6.87173
5.37303 109.382 9.70147
26.2345 130.358 -9.1265
17.5801 121.699 -1.08713
-0.259554 103.293 9.58098
-5.95008 95.5843 -6.05833
4.59087 107.206 -4.82201
20.7684 126.189 8.85313
6.39236 110.624 9.93038
14.8975 119.384 4.57687
24.4346 128.324 -10.5397
20.9766 125.499 -0.880567
22.4095 127.485 3.46606
25.0622 129.322 -7.4669
15.0095 119.55 4.69122
0.626992 102.825 -5.96942
20.2467 124.485 -3.68556
19.4067 125.036 11.3549
-0.216494 103.463 9.54405
24.8248 129.079 -8.00924
-5.64704 97.6464 10.5025
22.9065 128.173 3.90518
-14.405 87.1561 0.57083
20.3908 125.373 3.20525
-5.53728 96.1951 -6.40064
23.0572 127.423 -6.08868
8.98022 112.698 0.223098
19.0571 122.935 -7.61014
4.73151 107.602 -4.72154
-8.40153 94.3722 6.56877
-0.607332 101.683 -5.96367
16.8955 121.093 -3.04135
19.7952 124.757 1.93107
25.2026 129.746 -7.46472
26.1171 131.612 0.929444
22.4323 127.446 -0.654956
20.6864 125.837 2.39235
21.8387 126.622 -2.54229
3.76382 108.061 9.36694
14.262 119.011 3.95539
9.38372 113.865 5.57242
26.258 131.002 -8.39336
15.9932 121.582 9.44758
19.39 123.438 -9.91635
10.4666 114.718 0.507305
19.1014 123.198 -9.42031
0.238953 102.954 -6.03723
-17.6902 83.6882 -3.51982
16.1665 121.772 8.244
18.3656 124.621 12.6785
25.4005 131.379 3.18234
21.2196 127.169 6.78178
19.5933 124.962 2.18114
20.0258 125.686 4.22929
16.537 121.129 -3.80066
19.5164 124.876 1.24763
-11.1322 91.6764 3.62383
-10.1706 91.6617 -7.41374
20.362 126.034 3.31383
-15.2027 86.4601 -4.77586
-2.38045 101.958 10.3658
22.6015 127.489 -7.69047
0.867849 105.422 9.20364
-5.63678 98.5672 11.1196
-15.8541 85.9794 -3.87762
6.37338 111.595 9.94229
8.70667 113.204 0.266996
-0.362377 102.722 -6.07993
-17.8133 83.896 -4.10837
-7.75191 96.0264 7.75972
-9.41528 94.0292 5.80856
-12.6974 89.2807 -6.3089
6.81821 111.106 -1.08773
20.1172 124.656 -11.279
26.7702 132.619 -4.33368
25.5623 131.615 -1.40159
22.1272 127.457 -5.75863
-17.3997 84.443 -4.69633
20.3396 126.365 2.74015
-6.22812 96.4801 -6.60295
25.8031 131.909 -2.24244
-12.0342 91.1668 3.2756
-0.239027 104.635 9.41883
1.32309 104.899 -5.47008
-17.9626 84.2757 -1.29242
18.4451 125.272 11.7831
25.4837 130.99 -8.54794
16.1192 122.484 8.86163
16.4678 123.124 10.9967
7.58618 113.205 8.59801
20.0375 126.306 3.60893
14.2484 119.233 -4.47372
-17.5964 84.4866 -4.62145
21.7396 126.832 -10.652
19.9259 126.271 3.938
19.2277 124.967 -1.70693
10.5827 115.729 0.124341
25.8963 132.537 1.0868
-2.86065 100.448 -6.71196
-1.01888 102.541 -6.13691
-1.40989 103.668 9.75722
14.5825 119.755 -4.61982
5.75526 110.336 -2.51251
-0.5738 103.11 -6.16264
16.1353 122.882 8.89427
9.76171 115.161 0.646414
19.6543 126.226 3.34974
-17.1239 85.4598 -3.32455
26.0188 132.903 0.542868
6.18843 112.233 10.2019
-16.6929 86.2659 -0.26411
10.0404 115.938 4.56628
-6.92736 97.9532 9.95348
-11.4908 92.3837 3.81881
21.3857 126.925 -10.5118
25.5126 132.313 -1.46468
-17.7566 84.9618 -2.98832
19.8696 125.245 -10.9289
26.891 133.584 -4.27045
16.7162 122.766 -1.79703
-8.31565 95.0342 -6.36365
-1.38478 102.643 -6.21579
19.9644 127.389 8.26711
16.4113 122.4 -3.59588
20.5065 127.482 2.54318
-4.8535 100.813 11.6074
2.12562 106.82 -4.93449
20.933 126.928 -10.3922
8.47137 115.052 7.02212
-12.3976 91.9653 3.4916
-17.7953 85.7661 -0.822366
9.67439 115.913 0.573452
7.91935 114.741 7.98432
19.4607 125.608 -10.3821
-18.7898 84.7268 -1.68641
16.2043 123.937 8.87128
-7.74053 97.8534 9.26649
8.11573 115.001 7.64963
-16.9556 86.6059 -3.14123
18.5197 125.507 -1.75342
23.5175 130.285 -8.76823
19.9475 127.655 3.43661
20.0842 127.773 2.93454
19.8397 128.03 8.14188
-1.52027 104.901 9.64862
-14.5457 89.2702 -5.10904
-1.75137 104.73 9.72526
22.4138 129.209 -9.77113
26.3226 133.839 -6.44513
24.1716 132.554 4.1774
11.9155 119.126 3.51024
19.7588 126.347 -10.3868
-5.73823 98.9315 -6.6158
-10.7329 93.4028 -7.47666
26.0081 133.905 -3.42155
22.4072 130.773 4.56813
21.1463 129.622 6.82036
18.7091 126.609 3.06991
-2.69719 103.938 10.0769
25.3327 132.874 -6.85092
-10.2363 95.3335 6.03752
18.7882 127.396 10.0871
-11.8584 93.397 4.21855
25.5474 133.785 -0.290413
3.53295 110.748 9.51684
16.1283 124.241 6.95178
-6.28214 98.4641 -6.93764
9.92402 117.378 4.71281
-13.3252 91.8977 3.30059
19.6355 127.822 2.81109
10.3796 117.916 4.483
-13.8817 90.4177 -6.4524
16.3374 124.965 9.52935
-14.0195 91.2099 2.8208
4.56483 112.177 9.94594
16.4428 124.004 -1.96441
-9.43936 95.295 -7.25483
17.2671 124.904 -2.50932
15.7186 124 5.39182
18.3894 126.159 -2.40875
12.6045 119.723 -3.81984
-3.88697 103.223 11.1729
-13.3239 91.2364 -6.76603
-6.21308 100.772 11.3715
19.0936 127.549 2.63129
10.5211 118.391 4.45292
-5.22006 101.92 11.4508
-14.5002 90.976 2.5146
22.1495 131.211 4.78277
10.9941 118.994 4.10455
19.014 127.292 -0.808557
-19.0829 85.6012 -2.44768
-1.24572 106.23 9.5596
7.18082 115.443 9.72059
2.18539 110.08 9.18528
10.8454 118.451 -1.95838
-9.62996 95.5833 -7.51763
16.2608 125.231 6.72858
13.2852 121.732 3.52872
-4.42189 101.416 -7.15524
-13.5269 92.5195 3.48368
19.7578 129.307 8.26134
8.75308 117.22 7.21405
8.85266 117.324 7.00927
-8.53877 96.953 -7.57485
-8.03099 99.2186 9.96129
0.407318 106.915 -5.68866
11.7708 119.629 -2.91946
-18.7594 86.5352 -2.12364
9.0998 117.758 6.3912
-8.8888 98.3748 8.72495
16.4444 126.252 11.1848
11.2491 119.888 3.75093
-7.39821 100.246 10.6036
6.08796 113.873 -0.876622
3.7207 110.994 -4.15255
-8.63563 98.8312 9.25692
-6.89211 99.191 -6.97559
17.7692 126.532 -2.85343
-18.7331 86.788 -2.15345
9.95439 118.782 4.83145
4.15158 112.959 9.92166
-18.2692 87.412 -1.32967
-2.15515 106.069 9.67891
19.959 130.036 7.97499
20.4416 130.524 7.04336
-3.11649 103.487 -6.81241
25.309 135.03 -1.39443
6.01294 114.061 -0.869432
-9.8745 97.5679 7.64195
23.2334 132.263 -7.19202
21.254 129.912 -9.19464
-14.2754 91.435 -6.34391
16.3579 126.174 7.00394
11.4169 119.864 -2.52529
-3.41062 104.956 10.4422
16.0655 124.933 -2.67441
26.0291 135.915 -1.78721
15.2674 124.003 -4.4331
-3.85435 102.914 -6.84512
-17.6674 88.1671 -4.06299
9.81612 118.441 -1.23658
15.1461 124.839 4.58613
-10.7697 96.7881 6.86528
7.54241 117.059 9.14234
2.19281 111.241 9.31645
-14.5958 92.293 2.67887
16.5022 126.874 9.30314
20.707 131.078 5.06654
23.7521 133.292 -6.43852
-9.86984 96.4916 -7.76845
-17.6804 88.7209 -0.267064
-6.11246 100.716 -6.76227
7.92397 117.555 8.64599
18.2687 127.158 -8.79733
-17.7839 88.6665 -0.421779
17.7385 126.906 -6.09657
16.453 126.883 8.04339
16.9705 127.814 11.2523
7.61324 117.417 9.00712
19.9297 130.089 1.06793
-1.86747 107.149 9.5388
-6.98887 101.725 11.1694
-12.3122 95.3813 5.2304
-2.97239 104.433 -6.6133
-11.8982 95.9023 5.74812
22.6977 133.586 5.00527
19.6176 128.855 -9.11987
25.7281 136.294 -1.35617
15.4861 124.917 -3.69661
7.66333 116.803 0.553676
6.92966 115.982 0.189199
12.0926 121.943 3.22525
-15.87 90.587 -5.92293
25.4445 135.676 -5.9269
15.9293 126.43 5.55433
-15.0822 91.4623 -6.15573
-18.9954 87.5094 -3.03252
18.4964 127.877 -8.91481
20.3521 131.408 6.53069
18.6599 128.936 -0.0418698
-14.8467 92.7076 2.6581
-2.99706 106.375 9.98416
16.2338 126.975 6.01796
21.7865 131.724 -7.83135
7.74389 117.231 0.651921
18.6304 128.998 -0.71607
15.371 125.12 -4.23882
19.8291 130.488 0.68347
17.3028 127.438 -2.65012
19.7786 129.566 -8.81082
21.8949 132.008 -7.58532
23.2922 134.672 3.91589
-2.54974 105.501 -6.21523
6.81603 117.299 9.85119
3.10382 111.914 -4.16671
3.38675 113.613 10.0661
19.9497 130.6 -1.2263
9.09995 119.497 5.77085
19.9251 130.721 -0.384006
8.93823 119.425 6.53589
10.6359 120.459 -1.90101
9.6937 119.516 -1.13791
16.4299 128.002 10.3668
17.0225 128.709 10.9808
17.0706 127.424 -3.01805
15.1196 125.095 -5.18343
9.08822 119.011 -0.565534
-13.7788 93.4984 -6.74229
17.9231 128.622 -1.43032
17.3955 127.442 -7.78704
21.4218 131.859 -7.86728
16.334 127.816 7.10312
-9.10462 100.295 9.30261
13.6259 123.723 -4.90117
11.9786 122.741 3.2016
-15.3559 92.8476 2.26027
3.80844 114.574 10.4573
17.8439 128.75 -1.70995
-15.107 93.2332 2.68496
9.95214 120.201 -1.33427
9.12553 119.984 5.68652
17.4137 128.452 -0.558912
12.6708 122.91 -4.64713
-8.48754 101.253 9.85201
-13.2508 94.4202 -7.03206
1.49666 110.784 -4.51337
7.50881 117.887 0.72392
6.29884 116.48 -0.384544
17.6064 128.588 -2.76219
-0.334516 110.204 9.28992
-15.4997 93.0666 2.23886
22.2853 133.473 -6.94392
18.8182 129.563 -8.40754
18.0324 130.469 9.69339
18.7357 130.176 -1.46852
21.1605 133.466 4.94433
-12.1473 95.9324 -7.57936
-2.24713 108.448 9.52826
13.5081 124.232 -4.92986
17.0233 127.887 -7.01204
6.18124 116.717 -0.503713
-8.32407 101.922 10.0914
-9.11842 101.105 9.33302
17.2417 128.241 -7.51148
23.7151 136.383 2.93245
-14.9811 94.1986 3.12121
24.215 136.883 2.31192
22.5509 134.182 -6.81899
3.51875 115.116 10.6296
20.47 133.175 5.86639
1.34175 111.368 -4.55636
17.1384 128.715 -3.38685
-13.2005 96.494 5.47291
20.6866 133.487 5.42317
-9.84109 100.549 8.82184
25.0859 137.429 -3.91174
-16.7593 92.1356 -0.518783
1.92162 113.531 9.90881
-16.5037 91.9168 -5.79321
-10.4847 99.8673 8.36205
0.0124743 111.451 9.28435
22.3172 135.33 4.40479
16.7389 128.808 -0.210605
20.6437 132.361 -7.72186
12.5989 124.625 2.93416
19.3764 130.965 -8.15873
-0.690501 110.789 9.30611
23.1076 136.271 3.53348
-7.93815 101.41 -6.85175
16.0278 128.964 7.60338
-16.3747 92.3147 -5.83196
8.75651 121.034 7.38271
12.3786 124.571 3.01514
8.94073 120.536 -0.471981
-15.2814 93.5614 -6.29835
-9.99115 99.1718 -7.96551
-13.1116 95.8658 -7.01572
3.67301 114.639 -2.62097
11.3425 123.638 3.43201
-7.31658 102.249 -7.27596
-6.63373 104.837 11.691
-5.76266 105.866 11.3499
9.31168 121.761 5.25377
10.6231 123.091 4.07461
-14.3973 95.8252 4.28063
16.3221 129.888 9.89626
17.5596 130.004 -2.95263
16.2343 128.561 -3.10258
11.1129 123.641 3.59341
-6.22034 105.514 11.5459
-7.75497 103.81 10.974
20.61 134.246 5.45802
-16.4687 93.3493 0.655121
3.4323 114.777 -2.97237
-0.341045 111.884 9.28732
16.8676 130.787 9.83684
18.9908 132.069 -0.860987
10.0786 122.878 4.51177
16.1428 128.746 -3.26105
-12.239 98.7459 6.44297
25.5882 139.269 -1.86658
21.7863 135.754 4.42318
9.98771 122.945 4.55966
-18.4005 91.3202 -2.35431
-2.5756 109.75 9.65027
16.1123 128.826 -3.93743
8.82469 122.029 7.02482
-1.88157 109.206 -4.98925
-7.61242 102.75 -7.37918
-6.58291 103.899 -7.32264
13.4422 126.771 2.90842
2.8006 114.53 -3.84388
6.80192 120.217 9.45063
14.6481 127.358 -5.23764
-18.2654 91.5524 -4.22073
17.2346 129.997 -7.44791
16.3903 129.349 -5.43271
15.6978 129.816 7.11506
4.98676 118.396 9.78634
14.9088 127.798 -5.12982
6.10838 119.647 9.78733
0.799297 113.9 9.90219
4.89935 118.364 9.77524
21.27 134.632 -6.64458
15.7209 128.772 -4.80224
7.49324 120.339 0.782804
17.4664 132.125 9.35773
20.4688 135.063 5.6022
9.56084 122.504 -1.50772
23.2693 137.032 -6.00071
-0.611676 111.074 -5.04461
23.2571 137.092 -5.99816
18.6357 132.355 -3.17851
7.88543 121.062 0.226631
-3.16559 108.516 -4.98694
6.13491 120.114 9.77046
-14.2202 96.4328 -6.74155
12.8507 126.941 2.93317
-1.73013 111.714 9.43942
-17.5875 93.3911 -1.10699
13.2892 127.487 2.88449
24.4872 139.508 0.810443
15.4742 130.435 8.31159
-17.4655 93.1823 -5.40843
9.29326 123.432 5.43518
1.10192 115.104 10.3385
17.0978 132.476 9.29838
3.75427 118.034 9.59487
20.1045 135.52 5.71496
-17.77 93.5332 -1.22186
2.69868 115.695 -3.51887
8.90255 123.453 6.60525
20.7258 136.248 4.78253
18.1002 132.213 -7.49555
23.573 138.424 -5.50307
0.0290292 112.814 -4.79956
14.3238 129.237 3.29189
-16.8692 94.3162 -5.88768
9.68689 124.384 4.93301
0.70563 115.111 10.3149
-1.56978 112.569 9.42356
10.9836 124.938 -4.26985
-6.87156 105.225 -6.97284
-9.33762 104.2 9.7374
15.5021 130.863 4.89716
-9.72932 103.763 9.19309
14.317 129.421 3.24952
-15.2102 97.3096 3.80788
6.1024 120.229 0.142394
17.9174 132.977 -1.81846
23.3078 138.506 -5.61975
-9.99993 102.012 -7.3539
-9.76712 104.068 9.22214
-6.84488 105.718 -6.74664
-2.73124 111.816 9.82366
17.3661 132.514 -3.32044
8.94188 123.529 -1.2241
-18.7352 93.1198 -3.57063
-16.9635 95.4556 0.28234
24.1682 140.026 -2.82755
-2.01552 111.312 -4.4223
-18.1205 93.7244 -4.71143
19.8216 136.163 5.47658
20.0176 136.369 5.29315
11.9043 126.573 -4.98522
5.19677 119.72 -0.522219
15.8271 130.853 -5.31227
-13.0914 100.449 6.43591
-18.6909 93.561 -2.10597
9.80641 125.34 4.90169
-4.22154 110.59 10.5715
-18.6995 93.5498 -2.3279
9.291 124.91 5.55297
21.032 137.564 3.76756
15.1589 131.232 4.15714
20.25 136.954 5.14754
-14.6948 98.7984 4.59197
-15.597 97.7079 3.39566
-12.0284 100.562 -7.80795
-3.79061 109.874 -4.6456
10.0068 125.834 4.62669
-10.365 104.016 8.61458
-14.5185 98.0032 -7.06952
20.5218 137.375 4.65036
-9.35324 103.609 -7.47381
17.686 133.145 -7.1339
-3.90761 111.318 10.33
-7.20837 107.864 11.6977
23.557 139.954 -4.1989
6.12601 122.297 9.45088
18.4198 134.2 -6.76255
5.25322 121.42 9.22772
18.4082 134.253 -6.73999
16.0734 131.814 -6.11143
5.01998 120.322 -0.425249
-11.9443 101.143 -7.74393
4.5286 119.795 -1.07933
24.1726 141.399 0.389811
-17.354 96.0945 0.196834
7.02691 122.732 0.428057
3.29319 118.396 -2.30276
-18.4638 94.8011 -1.42984
7.82109 123.669 -0.0353311
10.4972 127.016 4.17639
14.4332 131.275 3.16892
-3.81742 112.058 10.2667
8.56953 125.29 7.34516
23.5701 140.548 -4.08564
18.7332 136.341 6.88617
2.38544 118.785 9.55429
-4.27943 110.166 -4.54106
-3.59022 112.418 10.133
15.4758 132.027 -2.63035
17.1015 133.88 -2.33323
9.004 125.039 -2.43158
3.05583 119.678 9.10034
17.1505 134.98 8.15754
17.9452 134.703 -3.649
22.6272 139.658 -5.54959
15.2639 132.666 4.91044
-11.7668 101.944 -7.81452
15.2451 132.664 4.42057
4.78507 120.781 -0.442828
17.2652 133.784 -6.77769
5.94399 122.158 0.384772
9.52696 126.616 5.72423
-5.13999 109.586 -5.23666
12.5823 129.711 2.89448
11.8141 128.911 3.06235
18.9184 135.734 -6.81059
-4.48522 110.433 -4.57377
8.60824 125.047 -1.63562
-1.64652 113.666 -3.80837
12.0513 128.485 -5.21518
-13.6899 101.473 5.59051
2.04958 117.802 -3.37342
10.4659 126.995 -4.34424
-16.2107 98.6044 2.75054
15.1814 133.351 7.41491
23.6594 142.012 1.07218
4.67168 121.177 -0.435323
8.60685 126.26 7.10189
-15.9343 99.1208 3.07548
10.4146 127.179 -4.32842
10.2418 127.078 -4.24192
-2.8046 114.227 9.60691
9.68901 126.59 -3.82438
15.4748 132.989 -3.51528
16.8264 134.476 -3.94055
23.8147 142.512 0.107251
9.2803 127.289 6.55464
-9.58138 105.37 -8.04036
3.60401 120.412 -1.64861
16.8649 135.845 8.22751
-16.6274 98.7344 2.32999
-12.6322 102.122 -7.92453
4.73274 122.71 8.70937
-13.7286 102.305 5.82159
-0.726097 116.988 10.704
-14.6941 101.209 4.48155
-9.07046 108.009 10.8878
15.1255 132.88 -4.82177
1.48541 119.45 9.6727
22.6765 141.298 -4.49736
0.368489 118.407 10.2672
18.2289 136.209 -7.19675
-12.2654 102.885 -8.02505
-18.3335 96.7438 -3.8846
-6.27439 109.719 -5.8837
-16.4607 98.5931 -6.3641
-18.0701 97.3486 -1.15427
20.1963 138.606 -6.21062
18.977 137.261 -6.6835
6.73569 124.622 0.4446
2.36893 120.809 9.28718
-1.52235 115.336 -3.53325
20.6102 139.386 -5.90256
1.83535 120.4 9.49081
-17.6642 97.8063 -5.52188
20.2553 139.176 -5.86852
5.79538 124.133 0.347934
-16.9889 99.3974 1.52723
-17.5211 98.1658 -5.70406
-16.8579 99.655 1.91207
8.2007 126.617 -2.04887
18.0846 138.219 6.32859
-10.8831 106.872 8.85278
22.8655 142.49 -3.87764
-14.1321 101.759 -7.92459
19.1356 139.356 5.47969
20.9666 140.29 -5.53631
9.13824 128.622 7.17587
21.1573 140.503 -5.50407
-0.228351 117.397 -3.22106
21.1091 141.275 2.85494
16.9716 135.999 -5.58539
16.7275 135.903 -4.05952
-10.942 106.975 8.84189
-15.408 101.601 3.64003
-18.0895 98.1361 -2.0757
15.7229 136.017 8.03728
16.0107 135.26 -3.07201
17.0128 136.103 -5.93371
-11.8693 106.1 8.12887
18.2425 137.581 -6.31951
5.58571 124.418 0.303426
23.2392 143.701 0.0754681
-17.8194 98.8217 -1.05226
-0.865067 118.453 10.483
-18.3698 97.9589 -4.07773
15.6148 135.164 -2.76365
11.3847 131.286 4.03797
14.9118 135.363 5.95668
17.6956 138.517 6.73794
-17.842 98.5977 -5.2011
-3.31271 115.941 10.1163
-2.83969 115.209 -3.19614
15.8683 135.719 -2.4548
10.5516 129.702 -4.69862
18.9788 139.908 5.44245
-2.25542 117.272 10.4263
-0.131472 118.329 -2.97809
12.9995 132.399 -5.60576
-5.01363 114.295 9.99362
-8.6356 108.691 -7.02902
-16.8808 100.637 1.73925
-15.9187 100.858 -6.92023
2.01256 120.871 -2.39759
-14.2772 103.873 5.55437
-17.3768 100.028 0.550889
12.0685 131.642 -5.25025
11.3404 131.817 4.7256
-8.41409 109.159 -6.87158
-14.593 103.583 4.99167
-17.8189 99.5988 -0.910678
-11.7025 107.215 8.32665
-16.7847 101.015 1.55003
11.6698 132.26 3.5578
0.461114 119.488 -2.93298
16.257 136.658 -3.58172
-14.1268 104.511 5.59993
-4.70604 113.888 -4.34717
-17.24 100.093 -5.86583
-5.2584 114.723 10.004
15.0598 136.411 4.87893
-10.3933 109.165 10.1757
10.6895 131.782 5.85164
7.27797 128.328 8.4875
5.37158 125.65 0.32199
10.2793 130.536 -4.7061
19.0613 140.131 -5.06682
16.64 137.443 -5.95939
20.9058 142.25 -4.40991
7.21264 127.686 -0.799844
7.76107 128.151 -2.19934
13.4274 134.832 2.80066
-16.6928 101.11 -6.14412
8.33539 129.84 7.38091
13.517 135.031 2.60941
19.2371 141.43 4.13854
15.1666 136.145 -5.54592
-16.1944 101.808 -6.87203
0.488019 120.469 -2.67368
10.593 132.384 5.65731
0.243326 120.3 -2.67838
0.0955701 120.162 -2.66708
9.04237 129.804 -3.92387
17.7372 140.341 6.65558
-12.8845 106.946 6.47543
-17.8433 100.449 -4.93606
3.31061 124.763 7.69422
13.4592 134.565 -6.03102
-8.66322 112.15 11.554
-5.52451 115.457 9.98851
-6.02451 114.939 10.1883
8.86517 129.823 -3.83405
-2.821 117.185 -2.75717
-8.32238 110.869 -6.86239
20.6665 143.546 3.07461
3.76819 125.612 7.93033
-6.03008 115.151 10.1894
-6.88537 112.629 -6.35892
19.7369 142.676 3.36078
2.75968 123.698 -1.57289
20.0448 142.384 -4.07236
-6.13971 113.677 -5.84545
2.39796 123.464 -1.53597
18.2384 141.423 5.39017
3.27341 124.492 -1.15606
-8.25009 113.165 11.4624
11.4888 133.998 3.51854
-12.606 106.694 -7.47575
-4.06829 116.408 -3.69572
-16.6073 103.212 0.753647
-16.1787 103.873 2.33076
-16.9875 102.238 -5.59861
-9.15245 110.629 -7.36381
-8.01504 113.714 11.5517
1.16994 123.553 9.1056
20.9443 144.504 2.64884
15.4766 138.924 6.32678
-12.52 108.439 6.10788
-11.7365 109.504 8.22474
9.24364 131.283 -4.0897
-9.06873 111.014 -7.34675
-3.71198 117.293 -3.29999
10.5584 133.552 3.65416
1.6655 123.414 -1.34877
-17.5792 102.169 -4.71539
22.3334 145.986 -2.00826
-18.4262 101.506 -2.37483
4.68572 127.844 8.26822
13.8085 137.276 2.76041
14.7266 138.385 3.76988
16.6393 140.824 6.65943
-15.0057 105.988 3.34894
15.9134 139.185 -4.01015
15.2321 138.463 -4.3064
17.693 142.252 5.39021
-15.6265 105.591 1.91879
14.0149 137.198 -5.80381
15.5071 139.033 -3.70828
-1.03584 122.337 9.79682
13.7499 136.959 -6.01959
-14.0699 107.621 3.56352
15.7792 139.446 -4.27288
-13.1042 107.7 -7.59282
9.4138 133.713 7.08854
-18.4697 102.332 -3.00746
16.2974 141.184 6.10569
-16.9152 104.283 -0.925718
14.2237 137.871 -4.89791
6.75145 131.04 8.13937
-16.4157 104.411 -5.86165
16.1157 140.071 -4.31796
-16.4641 104.418 -5.59772
-16.6769 104.328 -4.8266
-7.33281 114.495 -6.48889
10.3106 134.728 3.45022
-0.855732 122.121 -1.43597
8.88909 133.678 7.32067
15.5045 140.673 4.83866
13.732 138.598 2.97516
16.3555 140.815 -3.96182
-5.44986 116.939 -4.94912
-13.8541 107.513 -7.6163
-4.2524 119.702 9.86749
17.3928 142.002 -4.13809
9.30096 134.292 6.95186
-3.41143 120.737 9.70814
-18.5254 103.028 -3.05307
19.4235 145.132 3.22619
8.36348 133.475 7.39696
10.0189 134.111 -4.86396
-1.30713 122.102 -1.48715
19.5699 145.368 3.09909
-16.2761 105.447 -5.62603
11.9818 137.02 1.99248
12.2859 137.41 1.88803
-10.8767 112.9 9.21961
10.695 135.95 3.90554
12.5658 136.982 -6.52268
5.88395 131.114 8.10814
-14.937 107.886 2.45247
21.3465 147.171 -0.793688
-10.159 113.994 10.6896
-17.6829 104.395 -3.69419
8.79655 133.265 -4.11455
3.16137 127.479 -0.543812
-12.3127 111.324 6.63139
20.1482 146.326 2.22969
5.49373 130.161 -0.195506
-1.52161 123.522 10.1101
-15.0147 108.134 2.64792
6.91613 131.559 -2.98971
20.0733 145.911 -3.14989
-5.43959 117.918 -4.97437
6.56781 132.278 7.81188
19.1912 145.639 3.14251
14.0544 139.277 -4.90985
-0.490018 123.784 -1.41115
-9.58049 113.297 -7.4262
-13.6388 110.169 4.6611
13.501 139.656 2.94307
-17.4411 105.552 -0.659457
4.63267 130.532 8.01119
19.6225 146.381 2.62724
-17.1669 105.566 -4.47646
8.54583 133.714 -4.20604
4.34528 130.367 7.98676
-11.6161 112.944 7.76617
-17.1809 106.118 -0.168145
11.5182 136.896 -5.96377
-12.2286 110.864 -7.75936
13.6311 140.163 3.13322
16.5019 142.754 -2.46429
10.8024 137.02 2.47023
10.4408 135.917 -5.05377
1.02897 126.838 7.17215
-5.0182 119.132 -4.48033
-6.35937 119.295 10.9041
5.01296 130.631 -0.270901
-16.4473 107.414 1.19446
12.666 139.305 2.34672
11.6892 137.434 -6.2862
-2.85854 122.012 -2.02217
7.55597 134.335 6.94296
-1.30372 123.882 -1.53839
-4.86946 121.141 10.1866
14.4404 140.738 -5.03914
17.2572 144.766 4.7149
2.82264 128.564 -0.248636
16.8735 144.452 5.12698
2.18423 128.695 7.48022
6.53176 133.439 7.36358
-4.80444 121.417 10.1478
8.18518 134.223 -4.28055
-7.41018 117.011 -6.38561
-13.991 109.738 -7.46454
-2.55815 123.929 10.1038
-15.8834 108.685 2.72354
-2.17516 124.362 9.71753
7.35362 133.512 -3.74244
-12.9224 111.021 -7.64476
11.0094 138.117 2.26418
-4.90425 121.539 10.2269
15.2563 142.433 -1.38648
-2.866 123.802 10.2808
18.969 146.551 -2.05629
-9.83696 116.434 11.0618
-1.26557 125.633 9.32953
-11.6096 114.199 7.69657
14.1001 141.308 -2.16912
-12.0965 113.598 6.69358
10.7315 137.297 -5.72091
11.2105 137.887 -6.13414
-8.26576 116.665 -6.7114
12.6776 139.62 -5.89776
17.6585 145.436 -2.04378
-11.7633 114.363 7.77768
14.1734 142.327 4.31705
12.3619 140.192 2.29283
10.2444 137.939 2.87287
5.74532 132.619 -1.47288
-4.69628 122.358 10.1024
-13.6133 112.149 5.07455
10.0569 136.975 -5.22557
1.522 128.268 -0.305123
13.2176 141.357 3.06545
13.8761 141.621 -2.05619
-7.66071 117.751 -6.21336
-14.064 110.666 -7.42688
-5.52134 121.803 10.5904
-14.3394 111.645 4.68222
-0.773649 125.901 -0.984373
6.16034 133.323 -2.63852
-8.54408 118.642 10.9472
-16.3931 109.302 2.88874
-0.295132 127.292 7.0179
16.646 144.954 -1.68926
-14.6816 111.516 4.53959
-5.79408 120.334 -5.07842
18.4757 147.628 2.97331
-14.1866 111.007 -7.34295
-7.3872 120.405 11.508
19.3466 148.305 -1.6379
-13.0938 113.731 6.46844
3.01142 130.714 0.0883067
9.51044 138.322 4.7729
-18.3022 107.429 -1.17383
18.6789 147.741 -1.85578
-0.67023 127.503 7.06362
15.3413 144.183 -1.17576
4.53561 133.166 6.49287
-14.1307 111.474 -7.29744
-13.7441 113.181 5.59887
13.992 142.734 -1.95602
10.0496 139.024 3.66704
1.05755 129.578 7.03681
9.84101 138.821 3.19446
9.3977 137.554 -4.98895
-1.88429 125.617 -1.22385
-2.00414 125.513 -1.25495
-14.3717 111.46 -7.17887
17.4711 147.376 3.84471
-3.33984 125.244 9.16356
9.99525 139.244 2.96048
14.8956 144.226 -1.2891
-11.6677 116.357 9.3806
-2.04317 126.789 8.61206
11.2107 139.831 -6.03844
-18.1126 108.11 -3.35643
-7.5026 119.517 -5.34051
-2.38163 126.452 8.48762
2.11446 131.193 6.51511
14.4998 144.577 5.0647
4.82629 133.489 -0.988084
-4.69675 124.24 10.4436
-18.4153 108.1 -1.73546
-18.13 108.311 -3.26364
12.8701 142.843 3.20199
-13.9093 113.987 6.53208
12.7467 141.95 -5.09059
-11.0091 117.682 10.5109
5.31193 135.117 6.34464
9.42235 139.413 4.29914
4.61278 134.373 6.34844
-6.11484 123.178 10.8116
18.5507 149.109 0.351201
3.59715 133.372 6.06253
-16.1412 110.662 -6.43289
-13.4689 113.55 -7.0427
-18.3721 108.693 -2.48804
-4.12336 124.231 -3.16061
15.1844 145.521 -0.955386
-6.88075 122.709 10.872
18.0339 148.724 -1.68617
-2.3862 127.427 8.29032
-4.82487 123.633 -4.15503
-11.3692 116.283 -6.67912
-4.47729 125.335 8.61475
12.7834 143.675 3.50209
-4.11504 124.629 -2.97022
14.327 144.963 -1.29438
18.0172 149.249 1.36357
13.6097 143.981 -3.74107
-3.79758 125.132 -2.51094
11.0494 141.037 -6.14828
-6.26403 123.778 10.5129
3.65216 133.626 -0.332083
-9.85191 118.351 -6.58333
7.31903 138.215 4.29251
-5.31264 123.603 -4.61618
-6.53858 122.264 -4.65839
-2.8654 127.538 7.94455
12.8909 143.594 -4.5843
14.8278 146.61 4.58152
-3.62176 126.905 7.67255
0.349956 130.485 -0.892606
-7.00131 123.569 10.4332
1.33461 132.237 5.76664
-9.81818 120.553 10.4994
-2.43997 128.394 8.01517
11.6957 143.27 2.23803
-18.2823 110.352 0.0119275
-17.497 111.498 2.65438
9.30046 140.919 4.01434
9.26921 140.874 3.73255
8.75971 140.297 3.41434
7.4711 139.044 3.95741
-18.0403 110.975 1.34354
6.33876 138.001 4.51013
-11.8955 118.649 9.77018
-5.80745 125.177 8.56242
-7.71977 123.252 9.75218
-6.0587 124.978 8.82416
-13.2131 117.208 8.81406
-5.13059 124.839 -3.65956
12.7451 144.295 -4.49597
0.608351 131.443 -0.721779
-2.27699 129.131 7.44023
8.75702 140.765 3.27255
6.53925 137.63 -4.21453
-0.783927 130.643 5.85129
-7.52795 122.271 -4.75323
13.2334 145.019 -3.95552
-0.348108 130.557 -1.01843
13.1454 144.984 -4.0712
-0.545981 130.351 -1.02797
7.3886 138.629 -5.02951
15.2722 147.714 -0.384944
-18.4392 110.956 -0.401784
2.4294 134.314 5.36829
4.97 137.112 4.97009
-13.6402 115.724 -6.25389
16.9497 149.922 1.96543
6.6678 138.136 -4.36931
10.6027 143.292 2.25455
15.1737 148.021 -0.602708
6.61727 138.425 -4.35792
-17.6402 112.768 2.84871
-2.53165 128.839 -1.47289
-18.4023 111.791 0.253672
-11.1718 120.616 9.77855
-4.15216 128.051 7.06464
-4.17726 127.114 -2.67237
6.30055 139.229 4.08163
-1.57906 130.803 5.77682
-3.86192 128.457 6.80897
5.85987 138.832 4.29437
15.7906 149.492 2.47236
-4.2584 127.171 -2.76699
-6.33014 126.036 8.4349
-16.7762 113.298 -5.55572
4.19611 137.328 4.9633
16.5299 150.366 0.135008
9.02304 142.478 2.88225
-6.32718 125.043 -4.78397
-16.7558 113.635 -5.49847
-16.022 115.566 5.83205
-7.30173 125.401 8.87524
16.4246 150.494 -0.0226728
5.23278 138.078 -3.01387
8.88746 142.718 3.41006
13.4769 147.795 3.62358
11.1052 144.354 -5.3554
15.7936 149.984 -0.859841
-15.5714 116.5 6.61818
7.0663 140.1 -4.67657
15.8056 150.007 -0.855563
-16.2488 115.677 5.51226
15.3627 149.874 2.29376
14.2098 148.246 -1.68583
-17.4567 113.898 -0.205908
-17.4639 114.089 0.95017
-3.8412 129.525 6.77109
-12.3277 120.513 8.85708
6.28338 140.34 3.63776
16.1507 150.698 -0.711412
5.64549 139.719 3.9947
-17.2237 114.506 1.25215
-17.0728 114.596 0.168415
-15.2086 117.34 7.21141
15.5479 150.146 -0.618099
2.82706 136.872 4.99449
2.1053 135.602 -0.0775243
-17.8366 113.595 -4.00224
-3.90631 128.977 -2.43963
4.92994 139.277 4.14124
-13.4955 118.224 -5.96386
8.53993 142.362 -5.16932
8.15887 142.783 2.73081
-4.41244 129.52 6.4451
-15.8292 117.129 6.36668
2.71696 137.245 4.89009
-16.2618 116.573 4.91396
-12.2458 121.393 9.09438
-5.3323 127.712 -3.65289
7.5777 141.745 -4.64216
7.97136 142.159 -4.8249
-8.10734 125.799 6.95438
3.77763 138.529 4.42947
-0.752194 133.062 -1.07005
11.5163 146.872 2.87746
11.5504 146.925 2.91318
-15.9756 117.161 5.24425
-17.4568 114.953 -1.70675
-13.0392 120.769 8.4577
14.8121 150.536 1.93007
13.9308 149.25 -1.42118
5.98879 141.082 3.38276
-1.53292 133.078 5.44487
-16.8539 116.15 2.33613
9.50816 144.171 -5.83588
15.2889 151.165 1.10892
-16.3257 117.022 4.56441
-10.5799 122.399 -5.29159
-3.26467 130.853 -2.06416
1.91391 136.681 -0.241527
11.6801 147.096 -3.05133
2.93357 137.778 -0.864669
-11.6159 122.851 8.17198
8.78037 143.796 -5.43066
13.8953 150.184 2.34391
-10.8031 123.75 7.06637
3.82904 138.862 -1.77006
6.50133 142.317 2.77941
-15.743 118.5 6.72848
-15.8558 117.325 -5.50246
7.31429 142.72 -4.55679
14.2632 150.946 1.75175
-11.7482 123.216 7.45335
9.14144 145.569 2.63765
-15.2868 119.493 8.16829
-16.6666 117.845 6.27536
-12.4845 121.217 -6.10226
-14.4158 120.473 7.88904
-14.559 120.396 8.65576
8.9496 145.686 4.93203
11.2748 147.347 -4.11632
-14.4475 120.386 7.11791
8.29278 144.02 -5.15639
-4.62113 131.055 5.81768
-14.2039 120.816 7.46124
-15.5629 118.459 -1.76306
-17.4694 116.455 -1.81429
-4.97965 129.939 -3.4204
-16.0094 118.011 -2.34484
-7.47576 127.182 -4.87445
-7.59841 128.207 6.72227
-17.7646 116.211 -3.36003
-16.2706 118.32 1.42266
0.743454 137.203 4.12264
0.479745 136.924 4.14403
11.4257 148.18 -3.22288
-15.1265 120.289 7.77613
-17.3639 117.45 3.59661
-16.6107 117.656 -3.01168
3.13697 139.881 3.58758
-7.22706 127.79 -4.70172
11.103 148.548 2.715
12.6857 149.873 -1.60331
-17.4274 116.821 -3.72671
11.0994 148.594 2.72536
-14.1922 121.69 8.64466
-3.66319 132.801 4.76767
1.1926 138.021 3.92889
-16.1107 118.784 -0.577888
-15.3132 119.223 -5.52456
7.97187 144.687 -5.01486
-13.5779 121.14 -5.64658
-16.7011 119.045 7.83902
10.7857 147.85 -4.65701
-16.4221 118.719 0.296722
-14.4284 121.795 9.50146
-11.4829 123.589 -5.36448
-16.5621 119.103 5.37987
-15.2305 120.79 7.23844
-16.953 119.049 8.6496
-13.9326 122.412 8.30224
-16.4315 118.522 -4.3123
12.2427 150.514 2.5061
-16.2013 118.91 -3.84436
-8.24692 128.656 6.70115
-16.1424 119.363 -0.417644
-10.543 126.149 6.47857
1.84501 139.01 -0.650869
-17.1475 118.932 5.28742
-17.4771 118.438 3.77687
-17.573 118.328 3.18044
-7.84859 129.338 6.85616
-2.25615 135.274 4.56252
-16.6669 119.96 7.99368
-14.415 122.372 7.38323
-15.374 120.482 -2.09092
-10.9114 126.2 6.40102
-16.1391 119.842 -0.577423
-15.661 120.427 -0.500359
-14.8203 122.105 7.11428
-15.6394 121.236 7.37109
11.0027 149.272 -3.572
-16.3357 120.075 2.77037
-15.9943 119.768 -4.23573
-0.517014 137.056 -0.571759
-17.0913 119.227 1.82984
-12.5709 124.685 7.05323
12.0599 151.115 2.27841
11.7134 150.291 -2.48147
-16.6778 120.188 6.44815
-16.5464 120.221 4.79698
-12.7847 124.753 8.7981
-14.6038 122.745 8.27009
-12.0213 125.581 8.16472
-15.6306 120.879 0.267695
3.96175 142.057 -2.53734
-17.3846 119.194 1.54583
-16.3225 120.924 7.22597
-10.302 127.527 7.29908
7.68002 145.965 -4.87283
-10.026 126.505 -6.64533
12.8588 152.205 0.885486
12.3413 151.501 -0.605587
-10.687 127.119 6.81061
-15.2193 121.734 2.17753
-12.4014 125.267 6.82452
-17.0451 120.145 6.1561
-11.9277 125.888 7.74049
10.3122 149.632 2.28716
-10.6316 127.315 7.54828
-10.771 127.163 7.52041
12.1131 151.602 2.0346
-17.2444 119.9 5.25433
0.566108 139.243 3.55702
-15.9722 120.952 0.714384
-12.1777 125.705 6.85261
-11.797 126.12 6.72474
-16.7664 119.984 -0.80733
-14.5435 122.743 2.04898
-4.39792 134.127 4.9106
4.88338 143.436 -3.68897
-16.2079 120.909 1.08487
-6.51105 131.995 6.19431
-14.6543 122.222 -3.01506
-16.9418 120.815 8.05228
-14.1673 122.527 -5.68522
-16.7535 120.98 7.17738
-7.46869 131.09 6.96814
-15.937 121.355 1.6697
8.91597 148.561 2.39147
-17.0851 120.968 10.0995
3.87709 142.618 -2.56727
-14.8611 123.192 7.82874
-2.89632 135.313 -1.80928
8.5857 147.542 -5.1323
-16.6131 121.026 4.84396
4.42687 143.692 1.80235
12.9788 152.913 -0.0117937
-14.6116 122.555 -2.79866
-14.4379 122.483 -5.55845
-17.5847 120.055 4.65209
-16.5279 120.796 0.206322
-15.6936 121.46 -2.53471
-15.915 121.598 1.33663
-16.362 121.221 2.36261
-16.8207 121.309 8.41821
-15.2108 122.356 1.03081
-14.3801 124.134 9.56706
-16.158 121.403 1.3486
-17.2844 120.428 3.7408
-17.3259 120.502 4.37237
-16.1973 121.486 1.60291
-1.32194 137.548 -0.831308
-16.6357 121.241 3.19178
-17.7091 120.246 4.83713
-5.28448 133.811 4.89849
-14.1398 123.148 -5.79678
-17.6076 119.812 -1.27724
-2.24822 136.558 -1.4662
-15.0677 122.752 0.361026
-15.8877 121.971 1.48003
-21.4321 116.338 5.76221
-16.1666 122.313 7.78579
11.7027 151.912 -0.692487
-13.2904 125.685 9.91183
3.09297 142.879 2.88506
-2.70014 136.119 -1.84054
-17.2301 120.946 4.75331
-3.87501 134.81 -2.63807
-15.6417 122.313 0.811747
-16.1874 121.809 1.66358
-5.53531 133.75 4.8927
2.44289 141.842 -1.46404
-15.6727 121.818 -4.23713
-15.6123 122.403 0.965546
-13.3494 125.804 10.0305
-16.3481 121.828 2.61105
5.41722 144.95 -3.86945
-17.6189 120.72 5.14599
10.9093 151.191 -1.79483
-17.7427 120.61 5.04169
10.7373 150.955 -2.459
10.4832 151.118 1.94899
7.12739 146.844 -4.62955
4.3881 144.028 -3.29503
-16.0864 121.835 -2.11969
-16.4667 122.562 9.23573
8.43057 149.177 3.36347
3.79838 143.581 -2.66292
-16.584 122.291 6.97782
-15.972 123.189 9.21873
-14.3432 123.604 -5.30123
-15.6135 123.593 8.86165
-13.0975 124.992 -5.05069
12.1047 153.055 0.730498
-13.4087 124.739 -4.91287
-17.7451 120.981 5.04193
-17.6218 121.121 4.95654
-9.00578 129.403 -6.74594
-15.5707 122.829 -1.18463
-0.0571753 140.212 3.38299
-11.9518 126.352 -5.71806
-18.1389 121.138 10.0798
-11.3288 128.356 7.75861
-13.5586 124.619 -5.92049
-8.85664 131.102 7.79922
-15.6423 122.904 -0.534845
1.20838 141.267 -0.912479
-14.4808 123.965 -3.1527
-2.1566 137.622 -1.56812
-15.0694 123.357 -3.46687
-16.1211 123.231 7.01574
-18.4777 120.433 4.19564
-19.4489 119.927 9.18714
-20.8243 118.226 6.96908
-15.8234 123.322 3.17381
11.8092 153.27 0.181256
-21.1964 117.827 5.92507
-13.1724 126.958 8.58317
-16.1734 123.305 4.61949
-5.23744 135.268 4.6986
-8.98417 131.498 7.88541
-11.4451 127.415 -6.75137
7.9147 148.771 -4.59164
-14.8802 124.432 -0.207943
-14.0451 124.959 -4.8171
-15.902 123.514 0.454734
-16.2663 123.274 1.93406
-19.9045 119.991 8.92636
-15.9965 123.832 4.22238
-15.7502 123.774 0.539035
0.613409 141.496 -0.912131
9.08434 151.108 2.15789
-18.0849 122.388 10.2795
-5.30149 135.757 4.30783
8.87041 150.362 -4.50443
9.96507 151.831 -1.67709
0.971478 142.105 -0.972969
-14.8363 124.958 -0.164364
-12.8966 126.638 -4.86259
-15.1032 124.761 0.585582
-4.67129 135.767 -3.52027
-5.57574 134.693 -4.89856
-3.58941 137.073 -3.01339
-12.3159 127.248 -6.25738
-5.35289 135.023 -4.49388
-16.1082 123.896 1.55081
-14.4091 126.638 10.3459
-8.77706 132.636 7.37229
-16.435 123.759 1.85245
-14.0018 127.219 10.0796
-16.7021 123.438 1.36416
