ply
format ascii 1.0
comment Created by Open3D
element vertex 1947
property double x
property double y
property double z
end_header
-16.7828 94.881 -10.497
-14.2106 144.282 0.940525
-2.48429 90.9776 2.74957
-1.58813 104.441 5.9973
-17.012 132.515 -4.10656
-17.231 129.685 -4.87487
-17.4847 121.645 -6.57816
-14.8592 140.566 -0.619883
-9.47575 136.996 3.99552
-17.4467 120.137 -6.92048
-0.569348 86.3784 3.54672
-16.3767 130.439 -4.04539
-13.4931 83.5475 -9.71533
-1.15112 84.1128 2.51194
-2.29229 119.427 7.76382
-10.1294 83.8638 -6.38108
-4.63134 78.6333 -1.9304
-13.9608 145.911 1.01481
-17.1182 132.842 -4.47179
-5.87531 129.416 5.93932
-15.7976 92.3403 -10.5147
-6.4314 130.176 5.52451
-4.24582 126.462 6.96361
-17.1873 125.093 -6.00837
-0.704878 109.033 7.29409
-17.0121 128.854 -5.16281
-7.83304 131.471 4.31328
-16.5731 96.4468 -10.613
-17.5617 122.236 -6.97017
-18.6169 115.798 -9.17683
-11.5277 148.565 3.69397
-9.51169 138.146 3.75491
-15.7487 130.27 -3.81666
-3.60446 125.956 7.30317
-18.3096 111.749 -9.74565
-15.787 132.131 -3.62557
-10.7353 81.7976 -7.75608
6.88474 83.1865 9.79277
-8.19118 132.507 3.87206
-15.3091 134.283 -2.8376
-14.0851 87.544 -10.0795
-7.83231 132.024 4.09404
-0.40851 87.2094 3.27891
-4.6854 127.309 6.29063
-11.5595 148.741 3.3974
-18.3618 114.309 -9.53517
-13.9228 143.742 0.141862
-16.2691 129.287 -4.789
-13.2813 148.275 1.55502
6.44436 81.6501 8.90599
-13.7646 85.5901 -10.2659
-0.327129 85.6256 2.94071
-9.96976 142.836 3.77416
1.6645 93.6935 6.33366
-10.6957 147.497 3.86228
-15.7635 130.623 -4.19691
-11.9296 82.0702 -9.21222
-4.09342 126.649 6.5166
-18.2277 115.138 -9.45963
-14.0461 141.276 -0.668363
7.58849 81.2873 9.74643
-0.320369 88.842 3.33495
-15.4395 93.5615 -10.6815
-8.75911 79.8123 -6.61808
-9.25963 84.0269 -6.38577
-9.55153 140.11 3.44564
-10.0798 80.4036 -7.86269
0.910372 93.5279 5.29423
-8.1641 133.824 3.63019
-10.2697 145.725 3.6967
-15.4869 94.2948 -10.7254
0.183036 115.301 8.39653
-17.2859 102.684 -11.0594
-10.091 144.756 3.60864
-0.282753 91.343 3.54573
2.33092 92.7565 6.36738
-10.3862 84.894 -7.58076
-16.9741 124.155 -6.97421
-9.67107 142.598 3.52852
3.24095 96.3411 7.86929
0.50026 93.547 4.6566
0.154264 107.293 6.79273
-17.9694 113.251 -9.9523
5.61373 94.3554 9.82064
0.224605 109.001 7.15911
-1.76434 90.5495 1.85269
-16.6543 122.86 -6.97298
-17.8244 111.695 -10.1759
8.27202 83.9472 10.4622
-1.0134 94.3012 3.17297
-13.2968 88.3656 -9.97831
-3.14379 126.255 6.8037
7.42599 80.4522 8.91647
-14.7773 91.7987 -10.8682
-13.0276 148.265 1.04443
0.0464446 116.601 8.1697
-14.8169 135.077 -3.11775
-9.42395 84.4838 -6.96233
-8.46992 84.3569 -6.0706
-4.63269 80.8669 -2.94308
-3.62326 81.4811 -1.8468
-8.1755 81.7653 -6.30309
-8.99342 80.6876 -7.30426
-13.7745 141.813 -0.969808
9.15548 88.3121 11.8877
-0.606004 89.4164 2.47933
0.0997785 89.6736 3.21764
-0.84204 118.56 7.50363
-10.9298 85.7641 -8.34776
-0.451514 100.1 4.53676
5.62034 81.2713 7.10462
-0.985356 93.6672 2.83055
-9.19354 80.8742 -7.55951
-6.96917 132.514 3.91398
-0.74201 98.6694 3.90018
-6.01712 131.506 4.62558
-14.3713 135.454 -2.91339
8.83894 91.4557 11.9499
9.34842 88.9334 11.9848
-7.93476 81.8258 -6.28973
-8.80051 80.9183 -7.30847
-8.56859 136.822 3.00834
-0.229752 91.2136 2.96799
-7.08282 134.273 3.99592
4.23142 96.5783 8.29557
-3.15139 81.6583 -1.66896
5.96729 92.8004 9.29343
-11.3538 85.957 -8.97795
8.89159 91.7954 11.9641
7.88774 86.52 10.0223
-13.7987 140.624 -1.53091
5.50209 97.8691 9.6999
5.85458 98.6511 10.1724
0.611183 93.893 4.15463
-9.24586 141.131 2.98484
7.03258 98.0892 11.2117
9.06417 88.9608 11.553
3.12395 82.185 4.48797
3.70454 99.0526 8.09441
-0.265937 90.8169 2.69666
-7.908 79.2638 -6.91036
-2.90858 81.6901 -1.56374
-16.885 123.943 -7.6757
-1.37211 92.0216 1.80743
4.83791 96.3346 8.69029
3.78878 93.7189 7.17083
7.71582 93.148 10.9262
-8.70128 81.0723 -7.39761
8.85903 76.8442 9.09679
-15.2933 129.25 -5.22193
9.65394 91.5079 12.4853
-8.44823 136.91 2.81853
-7.17046 82.7325 -5.71009
4.47805 100.153 8.88196
-16.8114 105.436 -11.1004
3.19753 83.4093 4.59078
-1.48993 82.7856 -0.133543
-15.048 131.168 -4.74313
7.98186 98.179 11.9375
5.01913 97.5862 8.91225
1.35412 95.1572 4.86481
2.71061 98.1844 6.74093
4.17683 83.273 5.48699
-14.1932 91.9281 -11.0352
-17.0367 106.752 -11.1625
-9.15199 142.246 2.95723
-2.88357 127.314 6.42384
6.40534 91.3953 9.06483
-2.86606 129.149 6.74726
-13.6089 143.194 -1.28647
7.26815 90.6717 9.73278
9.65237 80.8613 10.2908
0.953025 86.7712 2.80413
-10.181 85.9367 -8.30119
3.2533 83.6421 4.49079
6.83822 99.0656 10.7949
-16.9266 106.98 -11.1615
7.2438 95.1784 10.4485
4.63106 97.3359 8.26865
5.55874 96.7879 9.06724
7.65212 86.7967 9.31916
10.5096 78.2478 10.5748
-12.3976 87.7853 -10.2278
6.67881 97.0712 10.1917
5.31859 100.017 9.38405
7.78709 103.701 12.4641
4.94963 92.8119 7.68492
-11.177 86.2485 -9.37869
10.2177 79.989 10.5185
9.89007 80.909 10.3556
1.11661 110.241 7.01866
6.62262 99.5344 10.4899
-15.6197 99.7424 -11.3393
-7.31209 82.0216 -6.38918
-1.20788 86.9518 0.487956
-8.59725 81.6598 -7.73856
5.01152 92.5048 7.58915
0.850364 87.7176 2.62993
-14.6214 96.5522 -11.0227
2.85573 83.8094 3.85122
-15.1507 130.577 -5.42548
1.08439 94.1364 3.94324
-6.74528 79.813 -6.34139
-16.0575 125.303 -7.28874
6.483 80.243 6.73288
10.5186 84.8853 11.535
-4.12543 80.9553 -3.5713
1.36765 95.3987 4.43526
-13.5185 140.063 -2.14125
10.4226 92.4731 12.7989
7.41657 96.9015 10.6239
10.5208 91.3033 12.6315
7.99848 104.185 12.4737
5.01815 80.693 5.29408
-14.4325 136.254 -3.79772
-8.03179 85.0508 -6.76376
5.17039 80.6288 5.4158
-0.898652 88.7214 0.901098
-17.041 120.305 -9.272
5.58693 101.431 9.55305
7.20791 103.386 11.4888
5.89253 100.768 9.70956
6.84477 79.9661 6.88075
-9.24205 144.927 2.78266
-9.02401 143.818 2.78469
6.30003 86.0542 7.41519
0.404583 119.444 7.63822
3.38548 99.1989 6.9036
0.507438 86.9313 1.84897
-1.53243 128.279 7.30443
6.93394 100.108 10.5405
-14.0764 93.6328 -11.2881
5.81938 80.2656 5.85675
7.27419 89.8607 9.01746
10.9187 90.2069 12.6605
8.51581 97.0396 11.5291
-6.30605 135.695 3.93424
-0.386007 98.5747 3.03285
1.36609 114.728 7.66963
5.52742 91.2147 7.49474
-4.24076 132.416 5.30694
0.247723 120.637 7.55326
-7.01803 136.802 3.32748
5.80219 101.882 9.60923
10.4963 82.3851 10.6886
-12.3229 149.454 0.331629
-15.6765 125.965 -7.21143
9.7389 98.6366 12.8403
7.40003 89.2321 8.82571
-5.78585 78.9583 -5.99648
-8.32149 139.324 2.38724
1.89254 83.8871 2.4083
5.3799 87.8638 6.55423
10.6629 94.4463 12.8985
1.35734 102.602 5.21131
9.1186 103.164 12.942
5.16043 87.717 6.25566
-0.509979 122.76 7.00633
4.59083 100.786 8.05289
-7.10226 81.6955 -6.92209
0.141508 88.5314 1.43069
8.50548 96.4475 11.0634
-16.608 121.258 -9.15216
0.561839 101.23 4.10379
8.26036 100.941 11.5825
2.39403 82.0531 2.39603
6.92244 79.2789 6.3378
5.08411 90.9793 6.6155
-0.500047 123.966 7.07579
1.44514 85.8468 2.10428
-0.531235 95.6716 1.92359
5.85768 90.154 7.19035
11.4634 87.2292 12.1699
5.38439 90.5613 6.76845
7.7988 78.9219 7.03452
-9.65247 86.8037 -8.72252
9.94203 101.749 13.2053
0.0757852 99.8067 3.15141
4.81796 87.2681 5.52912
6.8618 103.122 10.4002
0.944006 87.9381 1.82855
-0.489477 93.7646 1.4702
5.50452 84.4796 5.68524
-1.06746 126.426 6.76071
9.67486 103.013 13.0934
-0.0929529 89.1251 0.981493
-16.0624 119.119 -9.30544
5.43806 90.1188 6.58862
-12.5258 148.535 -0.535004
11.6304 90.8602 12.7895
-0.431352 128.067 7.64388
4.94263 90.4521 6.13546
1.03362 122.115 8.00901
-14.0471 131.844 -5.08751
-7.10823 78.754 -7.85746
1.08109 122.77 8.13899
6.9609 78.8514 5.97718
-1.9082 83.2757 -1.97301
6.57363 78.881 5.5458
-0.169424 125.59 7.33199
-5.32538 84.3725 -5.18026
0.677233 88.9051 1.51507
-0.119506 87.7283 0.517843
-1.79288 82.9926 -1.9842
7.52546 78.5843 6.37891
-0.494318 92.8298 1.05332
-15.3577 105.494 -11.2736
-8.78892 145.661 2.42809
-16.2177 113.053 -10.7737
1.94047 117.455 7.84213
-15.9026 121.625 -8.95742
-1.76146 83.1135 -2.03184
2.12878 84.1804 1.98526
0.256162 84.1236 0.106437
4.39539 89.3751 5.11255
11.8274 91.381 12.7521
-0.293865 95.5548 1.57033
-4.61099 134.622 4.36326
4.3411 89.2973 4.9724
-13.6701 142.225 -3.18646
-9.09873 149.023 2.53235
-4.97262 135.529 4.09156
11.0105 76.3568 9.11114
1.98262 118.811 7.85914
4.5682 86.4375 4.55192
3.25498 81.0924 2.27815
5.3071 84.1962 4.8536
2.49385 82.1249 1.7089
2.52729 84.0967 2.08435
-0.311069 88.5379 0.0942811
5.11611 84.2532 4.651
-15.6075 121.11 -9.07477
-15.2324 103.945 -11.8087
-4.57558 84.8557 -4.78421
1.78687 84.6058 1.40345
0.857455 89.8309 1.42484
-4.28855 134.783 4.47424
12.1777 88.5879 12.309
-11.0558 87.266 -10.7856
-13.3113 133.237 -4.71898
7.83981 109.042 11.7015
-8.76411 148.634 2.52067
1.54157 83.4755 0.840656
-5.72313 80.6335 -6.82201
0.642049 90.5462 1.17118
1.35619 83.3202 0.567642
1.91365 121.278 7.95594
-12.1506 91.6112 -11.2599
9.61162 107.968 13.0848
-2.11822 138.711 7.10296
2.17112 118.389 7.62854
-7.2473 85.8565 -7.50889
1.73439 87.9559 1.69343
-0.758193 133.314 7.41894
-13.7101 136.599 -4.7305
-6.57535 81.6267 -7.66155
2.01863 120.266 7.7523
10.8299 101.335 12.9954
2.48179 85.4986 1.91866
-11.107 88.5907 -10.888
2.08754 119.754 7.68264
1.15614 128.47 8.31929
1.36514 127.753 8.38924
2.2323 118.35 7.52716
1.29722 126.63 8.10015
-14.8685 104.108 -11.8596
-4.64806 136.983 4.11473
-2.13964 84.965 -2.81626
0.408443 97.8407 2.00312
-0.314631 88.4453 -0.440317
-13.1113 133.763 -4.83925
2.02444 121.618 7.84389
-11.8009 91.1249 -11.2582
-14.4611 128.919 -7.04984
2.47525 83.2214 1.34128
-15.1805 122.342 -8.9545
-1.90913 137.649 6.84664
2.33679 83.2094 1.1842
-14.633 105.636 -11.45
-0.707135 136.075 7.73415
2.08191 120.545 7.65765
-14.4158 128.972 -7.04078
1.57902 83.9376 0.551626
-13.2027 135.566 -4.66515
2.44135 84.8465 1.5451
2.46734 94.2066 3.23487
-15.1473 116.63 -10.0355
-13.0304 132.574 -5.15547
12.9403 81.376 11.1323
-0.683752 135.173 7.42306
-14.77 125.536 -8.1743
4.72817 100.726 6.51368
-15.0518 126.089 -8.36257
4.48187 100.35 6.19064
2.50942 93.8747 3.06901
-8.59243 87.3321 -9.02745
2.18108 85.0999 1.1429
-14.6263 103.887 -12.0009
2.09505 111.895 5.87549
0.808315 91.3609 0.89998
1.78831 84.4904 0.599974
1.83463 126.977 8.3162
-5.87977 85.9339 -6.68701
-1.51475 135.375 6.52412
-0.0297181 88.9451 -0.401434
-8.26442 148.788 2.29851
0.021554 90.0339 -0.204251
0.493909 132.712 7.95394
-11.7224 149.719 -0.993052
-13.4433 139.94 -4.4509
12.9509 88.6873 12.2104
2.36129 119.374 7.33819
-9.11164 87.886 -9.6358
2.60392 84.8125 1.31633
1.07222 91.3288 0.980285
0.962792 90.8439 0.780026
1.37955 128.935 8.05484
-10.924 151.167 -0.027168
-14.624 120.961 -9.11984
7.93825 107.334 10.5958
-3.76209 78.4657 -6.12229
0.890774 100.784 2.47376
3.13285 97.4838 4.07764
-4.18141 83.36 -5.67026
-2.92276 144.123 6.52734
1.72515 90.5343 1.41134
-14.3066 127.868 -7.61197
-0.233446 87.9516 -0.997157
0.881654 92.6228 0.935224
-2.26136 141.868 6.73391
3.5061 81.1076 1.41472
2.54103 83.4009 0.877448
-1.58419 84.5115 -2.98966
-7.44718 87.1103 -8.32739
-1.74923 84.6361 -3.18174
-6.53009 87.9041 -7.30137
-3.63396 142.243 5.35
-14.8939 111.044 -11.4141
13.3937 81.5252 11.0601
-14.0561 103.63 -11.9457
-14.078 105.73 -11.5892
-13.2191 99.4419 -11.8833
-13.9894 106.804 -11.3124
2.22934 92.6031 2.01671
13.2846 89.1847 12.2572
3.93373 84.5608 2.21221
2.9812 95.0807 3.17078
9.52599 111.659 12.5939
2.44661 85.0322 0.811744
0.792927 91.501 0.347257
-0.592595 84.7331 -2.23917
-10.974 91.0177 -11.327
2.76995 83.2956 0.784121
-0.749046 138.803 7.34303
-3.98588 80.9213 -6.291
0.278353 85.3705 -1.29827
9.84971 111.522 12.8246
2.38508 105.185 4.3384
-8.37596 150.612 1.95603
-5.5883 87.1066 -6.77008
-14.4119 122.212 -9.11207
-3.61927 138.48 4.41817
-6.97584 88.4056 -7.93637
10.6724 106.364 12.6559
-0.00200516 136.765 7.64278
1.20588 131.155 7.78869
6.22991 102.191 7.48137
0.727222 134.516 7.88589
-13.1377 139.539 -4.8526
3.88407 80.741 1.26558
2.633 115.704 6.33396
-13.5361 103.256 -11.8342
7.76233 108.516 10.0161
-3.90283 143.252 4.78112
13.7849 81.7142 11.0472
0.463899 89.434 -0.655468
-11.0386 93.4713 -11.2452
-12.0456 147.412 -2.54313
-14.1883 115.88 -10.3639
13.9003 84.916 11.6594
13.3367 94.1507 12.7647
-11.4509 95.632 -11.3417
4.13517 80.479 1.22096
1.13763 94.6651 0.811537
-14.1463 126.929 -8.39068
0.309727 136.914 7.60394
9.94143 112.378 12.6313
-10.7828 94.8476 -10.913
-1.54052 144.074 7.05172
6.90625 103.667 8.036
1.32743 94.2173 0.841766
2.54647 107.528 4.42207
13.4492 75.9201 9.4129
10.3238 111.043 12.6782
0.416044 90.1432 -0.840249
-0.290227 85.2375 -2.45034
-13.8248 121.472 -9.23838
0.242078 137.959 7.53871
13.0683 96.5603 12.6304
1.98476 92.4887 0.995439
-4.41556 81.9769 -7.23336
0.591905 137.038 7.60213
-12.5663 102.672 -11.5534
2.28422 102.766 3.05514
-13.5852 116.611 -10.0467
14.0237 80.0149 10.4565
13.6714 94.4067 12.687
3.42155 94.7319 2.66632
13.9805 86.7866 11.612
-8.81583 89.158 -10.3934
7.82225 109.301 9.59375
1.17065 97.5396 0.921629
-9.30019 89.833 -10.7868
1.59631 91.1852 0.168307
10.8996 109.214 12.5647
-10.2508 95.2964 -10.7558
-12.0299 145.726 -3.4143
-7.95554 89.8632 -9.50469
14.339 84.7874 11.4848
0.717528 92.5411 -0.507681
12.44 103.323 12.9561
14.1375 79.6205 10.3444
10.634 112.034 12.7451
-12.8469 103.944 -11.8154
1.23926 97.0758 0.777264
2.76564 103.771 3.47803
13.8386 94.1397 12.6091
-4.18114 143.26 3.76211
7.98764 113.439 10.3174
-3.3136 87.3674 -5.50149
8.09708 114.981 10.6656
1.71774 92.4199 0.315753
2.72501 114.702 5.32801
3.26263 84.6898 0.437362
-9.60168 92.7986 -10.7573
12.128 105.332 12.8176
-9.32701 90.676 -10.9408
14.505 81.3415 10.7712
-6.08739 145.513 2.11103
4.15346 98.3205 3.63856
8.00741 111.912 9.87179
-6.88194 90.3568 -8.67334
-7.00266 146.219 1.29191
8.33534 115.592 10.8301
3.77578 95.3016 2.68041
13.5371 96.2086 12.4246
13.442 96.9119 12.4062
-10.3093 96.0453 -11.1024
-11.9998 133.975 -5.94318
-6.58933 90.6519 -8.46621
1.30447 86.2511 -1.50315
3.09664 120.022 6.3447
1.3914 136.793 7.63351
8.00841 115.711 10.3292
8.94057 117.048 11.4803
-6.19797 90.976 -8.1187
-8.76934 90.5737 -10.7539
-10.6573 96.5953 -11.5232
2.6475 112.945 4.50766
8.1098 115.998 10.3913
-13.2831 110.357 -11.6771
-11.691 103.085 -11.4262
2.93247 115.363 5.15578
-13.1554 119.23 -9.96903
-13.2632 110.445 -11.6791
-8.84559 91.9524 -10.6829
-9.44246 95.6234 -10.6198
6.76271 102.267 6.51103
3.36746 83.8813 -0.184891
4.33438 98.3647 3.37841
-12.2142 132.066 -6.80847
3.70308 94.7271 2.08556
-8.5289 93.4486 -10.184
-8.48707 93.6352 -10.1223
9.17693 117.677 11.5819
-12.9672 127.323 -8.46217
10.0489 116.242 12.1585
-13.092 113.7 -11.186
-13.3349 127.99 -8.85109
-5.35209 91.7975 -7.54834
-10.8876 150.07 -2.47383
14.5829 92.552 12.1785
9.64289 117.704 11.8599
-10.5892 150.493 -2.1144
-13.0634 127.94 -8.62637
-4.34388 90.5475 -6.88334
-4.75886 92.0497 -7.04572
-4.59397 91.5209 -6.98136
11.5589 110.781 12.3434
15.0783 87.2683 11.5246
-10.606 150.288 -2.35814
10.1405 117.246 12.0628
2.72895 130.091 7.02809
-4.24898 92.2924 -6.67554
-7.85043 93.4525 -10.0145
8.36886 118.375 10.4305
-12.3727 119.524 -9.76513
-1.57621 83.7715 -5.60975
2.43608 100.29 1.26532
2.91232 129.374 6.97993
10.5378 116.636 12.1687
8.22875 110.095 8.67148
-8.70673 153.017 -0.250244
-7.73206 93.9555 -9.96762
3.55627 122.233 6.19484
3.44399 119.088 5.51145
14.4566 95.601 12.0856
2.91586 92.7184 0.215009
-2.47897 82.8799 -6.90509
8.22598 118.459 10.0422
-3.69242 92.6427 -6.37273
-6.68399 91.6471 -9.50632
-12.2547 116.328 -10.5428
3.09429 104.644 2.43256
-10.6742 102.671 -11.4757
-12.2936 115.989 -10.6745
-10.5633 99.9446 -11.8706
10.1013 118.882 11.8465
2.29726 101.492 1.03141
3.11725 115.145 4.28608
8.32496 119.088 10.103
2.41771 133.095 6.80612
-11.9308 132.202 -7.46585
-10.7152 124.088 -7.73739
-10.3969 100.468 -11.6892
8.33341 108.337 8.13822
8.42261 107.363 7.9887
3.02082 99.7379 1.27774
4.63253 96.5186 2.27909
11.5967 115.4 12.5025
0.851891 142.456 6.82164
2.62832 96.5004 0.242606
14.2472 101.96 12.5733
9.55486 120.6 11.3234
-1.89096 86.8275 -6.04123
4.42639 95.2075 1.6608
8.98551 121.624 10.8905
-12.0167 131.919 -7.90463
-6.8974 92.3466 -10.0234
3.51671 118.953 5.01461
15.7612 77.6781 9.59738
8.11695 114.357 8.69224
3.0457 99.0372 0.913601
-11.1226 140.584 -5.5198
-11.392 119.544 -9.59223
-11.8267 112.78 -11.2439
2.64071 132.62 6.54939
15.2874 93.9728 11.9936
-5.36686 92.6364 -8.55612
-11.3625 139.396 -6.01391
0.447973 79.6877 -5.1945
-6.38637 92.2445 -9.66484
12.4504 111.169 12.2623
-2.23718 90.4129 -5.96183
-11.7181 115.411 -10.7785
3.68976 127.28 6.51027
3.47597 92.7018 0.0568435
-0.965279 81.591 -6.33787
1.80433 138.934 6.70168
9.97548 120.885 11.4698
11.0717 118.352 12.0647
8.67173 106.123 7.49662
13.1868 108.386 12.2967
5.61354 99.9677 3.32377
-12.9402 129.287 -9.63339
-6.52975 93.6819 -9.7637
13.9208 105.577 12.4888
-11.2576 111.276 -11.2756
14.8736 98.9206 12.1705
14.3053 103.942 12.5174
-9.94892 150 -3.01367
-8.08704 96.882 -10.8129
3.29475 100.811 1.0775
15.6258 92.1023 11.5996
11.6289 117.417 12.2322
9.89037 122.05 11.3592
-10.9458 133.621 -7.03597
-8.83374 97.9906 -11.4137
8.41451 111.127 7.90942
-10.7289 110.536 -11.0235
12.9724 110.198 12.2021
8.19251 118.268 8.94025
14.531 103.232 12.4305
-7.12073 154.477 0.372945
11.3097 118.724 12.0274
-4.31415 93.571 -7.89056
8.18844 114.945 8.23792
-10.3888 119.591 -9.19785
8.19344 120.728 9.25818
8.50503 110.85 7.76979
15.7095 93.8252 11.7481
3.7048 120.06 4.66397
10.839 120.661 11.7599
-11.7892 131.467 -8.53586
-4.56137 93.5225 -8.30788
16.2064 88.2359 11.1547
-0.625312 82.2309 -6.50593
16.5346 80.7319 10.0894
-10.5519 116.404 -10.1683
-10.6054 114.232 -10.6633
3.43382 103.172 1.13211
8.43148 122.003 9.43555
0.0983423 83.6438 -5.6833
3.31486 113.158 2.76981
3.24761 110.928 2.20798
9.74955 123.08 10.7719
-1.80531 90.8989 -6.43684
8.24883 121.456 8.9472
-10.8413 135.057 -7.36795
-10.4322 145.222 -5.14101
16.2226 91.3313 11.3205
8.65591 124.587 9.85954
3.2347 102.149 0.472122
17.035 76.5232 9.41054
-10.0962 125.86 -8.36141
5.78325 99.3299 2.44662
-4.37549 94.1685 -8.4777
3.49848 103.349 0.911328
3.65006 117.497 3.59939
10.656 122.018 11.2767
8.50392 112.764 7.45547
3.40908 102.319 0.532388
-10.206 142.493 -5.619
1.86842 142.674 6.28208
12.1144 119.016 12.0422
8.77049 105.874 6.35207
8.46575 125.012 9.48402
15.2087 102.656 12.0728
8.30661 122.16 8.79212
7.42525 102.114 4.28372
16.4186 91.5785 11.19
-9.47248 127.89 -7.71591
-11.4382 130.584 -9.18211
8.39975 119.683 8.34349
16.3469 92.2038 11.1913
-8.5801 107.819 -10.5268
13.6147 111.899 12.0253
-8.47757 108.882 -10.2462
8.41847 119.73 8.29328
13.7881 111.256 12.0031
3.70576 116.967 3.09124
-8.48435 128.508 -6.82614
8.86031 109.538 6.69468
1.66528 82.8062 -5.21314
8.42279 121.971 8.49624
4.02504 121.634 4.11158
8.81248 111.308 6.90763
-0.678899 87.257 -6.77137
-4.77602 94.8645 -9.44285
-10.197 128.839 -8.64576
4.02472 121.231 3.96052
-8.42232 113.407 -9.69297
-8.70151 116.601 -9.39341
8.40751 123.894 8.74297
3.50185 111.033 1.59257
-0.783164 87.4269 -6.90661
12.3711 119.975 11.8769
-6.28751 116.518 -7.10024
-6.85968 112.754 -8.3434
-6.8297 153.467 -0.963659
-6.75874 125.506 -5.96517
-4.89256 120.653 -5.04148
-4.83534 127.356 -3.78526
3.7746 117.429 2.88521
3.77709 117.463 2.88424
1.8407 85.4086 -4.80751
8.31598 104.463 4.99653
-6.05547 120.207 -6.29317
-8.51936 126.646 -7.55719
-6.00958 114.867 -7.21986
8.18728 104 4.77251
-4.90665 125.361 -4.27275
4.09323 122.07 3.97648
-7.74267 151.658 -2.33721
-7.17646 98.6904 -11.3443
2.54519 81.7727 -4.84595
3.89027 119.525 3.288
-8.32076 126.468 -7.47672
3.75698 130.79 5.17298
-9.85821 143.962 -5.83622
-6.93322 128.441 -5.76733
-8.19721 150.689 -3.00545
-7.12917 125.414 -6.55254
4.29333 128.842 5.29467
2.77376 139.628 5.74507
-4.96865 122.501 -4.97145
-4.51357 123.535 -4.33773
-8.07273 118.721 -8.70619
-5.40541 117.596 -6.30599
-5.00642 128.021 -4.05643
13.6657 115.059 11.93
14.7747 107.853 11.6844
8.90431 110.342 6.35802
-7.89503 129.471 -6.71048
0.247196 87.2282 -6.35474
-6.68571 122.824 -6.7459
-7.1386 117.784 -8.1014
-7.79553 129.528 -6.65724
-5.12823 122.792 -5.27477
18.071 80.2354 9.8466
3.88226 118.201 2.75123
-0.956669 89.8799 -7.12178
-4.78962 128.818 -3.86673
-3.68663 123.784 -3.69189
-4.97092 128.734 -4.06186
-4.28729 120.538 -4.87479
-8.60726 149.822 -3.84798
-3.51344 96.6834 -8.44243
-4.6866 96.2055 -9.71091
17.8549 84.683 10.3445
-5.20926 123.283 -5.39319
-7.27687 102.01 -11.293
-6.38723 128.937 -5.572
15.983 102.551 11.6444
14.4619 111.491 11.7465
2.86666 81.7973 -5.03321
0.899623 79.2858 -7.42529
8.5993 123.007 8.03356
7.79737 103.363 3.69788
3.81312 114.644 1.80425
16.2857 100.75 11.5527
15.5344 105.768 11.7002
2.96559 80.8286 -5.16881
-4.02457 119.385 -5.0878
-6.32176 130.135 -5.40581
4.06319 119.87 2.94412
-8.11773 104.58 -11.7941
-4.87862 97.1423 -9.96619
-3.72671 128.588 -3.1565
3.0283 139.485 5.42566
3.82701 112.772 1.38323
-8.00834 104.429 -11.7679
17.8816 85.9076 10.3275
9.646 126.399 9.53225
17.1596 92.1038 10.7233
4.4238 104.217 0.375454
2.54038 143.074 5.52744
-3.25796 125.125 -3.41869
2.76125 85.0329 -4.74213
-0.757037 90.026 -7.31239
15.147 108.222 11.6056
-8.58842 149.181 -4.34092
-5.95051 98.3454 -10.9317
-5.67972 131.82 -4.62373
8.90707 115.279 6.72722
17.1966 92.9581 10.8209
-0.889898 90.9362 -7.32557
15.7589 105.415 11.6429
15.4802 106.564 11.5741
-9.22132 144.98 -5.78633
-6.41043 132.018 -5.36749
-6.33793 132.248 -5.26428
-5.63877 109.545 -8.68221
-0.279006 88.0472 -7.30421
-6.54205 132.072 -5.51872
6.63137 99.6166 1.57098
4.663 103.932 0.389692
-3.5431 120.062 -4.77116
-5.95136 132.463 -4.90406
-1.06605 92.2715 -7.37033
8.90415 108.615 5.35608
-8.88922 130.857 -8.12255
-3.53673 97.6082 -8.87353
-5.71302 108.935 -8.96916
-9.33654 140.224 -6.89826
8.96548 110.398 5.66562
8.78258 123.774 7.89189
4.0922 115.861 1.84157
2.91345 141.101 5.21053
8.66209 106.475 4.59245
17.2847 94.3203 10.8582
18.747 75.9803 8.95125
18.8374 76.2822 9.06273
4.15772 115.598 1.70859
15.3958 108.702 11.4792
4.1858 113.443 1.3102
16.4152 102.486 11.3451
6.10312 102.149 1.14486
4.33888 120.723 2.73413
-4.03689 97.9616 -9.61539
4.81273 126.162 4.13617
-7.57554 150.589 -3.63398
-3.45769 119.133 -5.2787
-0.599266 91.8782 -7.3931
-8.74936 146.615 -5.52966
0.460267 87.7524 -7.12672
-4.48623 133.569 -3.71879
17.4003 94.9595 10.8135
15.1694 111.024 11.5182
-3.24151 97.8296 -8.96991
-7.79455 131.779 -7.31978
-5.01637 133.685 -4.24797
-0.312329 90.0946 -7.50484
8.57375 106.355 4.15031
-0.299555 90.1818 -7.50827
7.2381 101.41 1.84056
4.50209 111.498 0.950369
13.1335 119.378 10.8548
-5.40904 99.8619 -10.9119
4.37509 118.092 1.99785
-7.36599 150.735 -3.65732
3.88806 79.5272 -5.45736
-4.72122 134.328 -4.03813
10.4042 126.579 9.41276
14.4461 115.759 11.4243
0.166202 88.5088 -7.53805
0.0128626 89.2612 -7.553
15.6942 108.309 11.2959
-8.78858 137.082 -7.58046
3.58955 81.2775 -5.49914
4.36647 114.782 1.29046
8.76525 128.718 8.12546
10.4525 126.648 9.40198
8.92311 109.323 4.75813
0.152119 88.8383 -7.56671
8.88957 109.161 4.66803
7.02418 100.476 1.24977
-5.48105 134.886 -4.84648
3.39231 140.232 4.83066
3.31612 144.507 5.52524
-3.58775 135.563 -2.89032
8.90251 109.406 4.63137
-0.00338431 90.2682 -7.58395
-2.77144 132.042 -2.80623
12.7055 121.037 10.4085
-1.49506 126.699 -2.56526
16.6161 104.324 11.1745
-8.49056 133.935 -8.16264
18.2354 89.6786 10.107
9.15871 117.973 6.28351
-2.58873 131.912 -2.76059
-5.24223 106.925 -9.982
6.1539 103.581 0.610301
4.81308 113.236 1.03051
-6.27439 102.715 -11.7847
19.2838 82.2685 9.61546
16.5932 105.484 11.1584
-1.23676 128.559 -2.2232
-8.27701 134.519 -8.07317
10.776 127.204 9.32443
4.88794 112.773 0.928541
-5.76569 135.184 -5.50324
1.20581 87.8784 -7.22138
4.34284 83.7432 -4.89648
3.34729 142.579 4.74246
16.6304 105.636 11.1075
6.04983 104.437 0.477587
-4.13346 111.345 -8.29
-4.37383 136.208 -4.07127
9.23466 113.601 5.19823
-6.23563 151.986 -3.08649
-7.61578 146.961 -5.35212
4.45429 135.479 4.43549
8.97415 110.527 4.35408
17.8659 96.1962 10.5036
4.61176 79.1675 -5.61204
4.90841 123.464 2.64421
-1.60026 124.018 -3.68497
-3.16477 115.378 -6.86605
17.581 99.4159 10.6448
14.4715 117.4 10.8328
-2.20073 133.259 -2.70565
9.27731 116.18 5.49069
13.1146 119.757 9.89097
2.46411 87.2141 -6.4751
-7.64593 144.475 -6.11715
4.50205 133.98 3.92116
-3.42906 137.175 -3.31151
3.45712 86.5461 -5.69778
1.65359 87.9225 -7.22815
19.0561 86.6429 9.6312
-4.97501 101.476 -11.3401
15.9553 111.665 11.069
16.0709 110.482 10.962
4.92948 115.031 0.815622
18.0945 96.1688 10.3364
18.0107 97.0444 10.4045
-8.25009 136.402 -8.3164
18.2764 94.454 10.1728
0.770424 92.8073 -7.3432
0.815878 89.4485 -7.90717
8.10294 107.066 2.43238
13.2001 121.877 10.1128
4.92071 118.764 1.38487
-1.37643 122.517 -4.13418
-7.49898 140.397 -6.94269
7.82728 106.182 1.9343
18.3746 93.5724 10.0163
9.31194 113.91 4.7558
11.3968 127.153 9.18939
-1.88006 98.5639 -9.04844
-5.13234 104.298 -11.2299
5.08632 123.191 2.21312
-1.68756 137.522 -1.86302
-6.87728 141.946 -6.16809
9.3819 119.57 5.76871
0.929551 91.345 -7.64416
17.1571 105.019 10.7722
18.0841 97.6733 10.3551
-4.63027 139.24 -4.48123
-3.77618 138.207 -3.84393
-6.26561 138.29 -6.31484
-6.64806 137.468 -6.84218
-2.36509 138.95 -2.36486
-6.92803 143.416 -6.07762
0.0994814 128.727 -1.84131
-6.5998 137.725 -6.80658
-1.15712 135.07 -1.93548
-6.45543 138.04 -6.60848
-6.85429 146.415 -5.50668
-0.816347 134.347 -1.75093
4.7071 133.932 3.60338
-1.06906 135.11 -1.87685
17.343 104.35 10.6656
-1.31033 137.339 -1.71963
8.23093 108.512 2.43462
7.07213 105.997 0.793567
5.12539 79.6889 -5.87306
0.400244 128.771 -1.67866
-4.21758 140.446 -4.11573
-1.00087 136.681 -1.6741
5.21425 83.8374 -5.10691
-3.48963 141.221 -3.32568
-3.7076 99.5306 -11.0675
-4.69406 151.343 -2.70145
-4.65505 151.435 -2.66065
17.9798 81.9869 7.05087
9.43366 117.19 4.95388
3.63688 86.9441 -6.21569
3.75636 86.8761 -6.13504
-0.353481 124.444 -3.40217
-6.40845 146.973 -5.28821
1.27578 90.4124 -7.9798
2.5995 87.8168 -7.15038
17.746 102.612 10.4086
11.0665 129.396 8.66887
5.47451 115.498 0.659482
19.4707 81.3678 8.25554
7.66436 107.453 1.34663
17.2837 83.378 6.45108
-4.24768 153.393 -2.10778
-1.02391 138.449 -1.63873
7.19512 107.209 0.800268
-0.346685 136.032 -1.41541
-6.50763 139.11 -6.91825
-4.4084 142.101 -4.32156
16.531 81.6975 5.35239
17.5126 80.5867 6.09875
-0.319769 136.254 -1.39616
5.96047 112.275 0.427451
13.6106 121.639 9.63559
9.2612 114.284 4.02081
-3.73046 143.801 -3.42685
-3.12635 143.074 -2.96682
-5.49464 143.257 -5.26399
-0.723945 122.609 -4.30263
0.706693 132.383 -1.15952
4.57713 86.4518 -5.6759
-2.67326 142.248 -2.73385
-2.62651 113.788 -7.82747
17.1324 80.3099 5.54739
-0.681938 122.585 -4.34518
0.644308 131.434 -1.44461
5.43194 123.616 1.84359
16.9878 83.8472 6.0138
-0.742951 138.645 -1.54294
19.3715 89.2281 9.30544
4.59723 140 3.93437
10.2099 132.457 8.08413
6.35242 111.609 0.507751
1.0772 130.077 -1.35747
18.9183 80.969 7.30556
5.03195 134.423 3.30317
-2.74783 143.354 -2.74366
9.40225 115.7 4.18989
5.13962 81.4019 -6.19677
-3.98098 101.981 -11.4666
-0.080351 124.057 -3.65311
17.0957 107.743 10.2789
-3.30201 108.614 -9.62389
-2.18898 142.274 -2.46759
-4.18657 105.601 -11.0564
-2.02894 141.988 -2.37412
5.53431 120.585 1.19072
9.63387 133.446 7.54119
1.31368 129.488 -1.36241
1.57072 91.681 -7.94838
-2.54614 143.719 -2.60255
9.15259 130.896 6.58224
-3.00555 109.895 -9.18413
9.50265 118.488 4.65357
2.54333 88.6811 -7.58537
9.11888 114.281 3.49238
-3.36648 146.879 -2.90495
11.3556 129.57 8.43585
17.3571 106.872 10.237
0.960797 134.79 -0.87965
19.7616 85.9776 8.78487
18.0308 79.1042 5.84201
9.58471 133.156 7.24192
6.09269 79.9823 -5.81342
-3.85698 103.407 -11.3687
11.3026 130.503 8.38114
16.6017 112.689 10.3486
20.1383 77.106 7.38689
6.91888 112.275 0.688314
13.0363 124.154 8.84352
18.4171 100.356 9.82464
7.06763 112.069 0.771762
15.2437 117.33 9.75404
9.46928 132.36 6.71488
7.13418 112.26 0.782333
5.65929 85.7211 -5.46401
0.655159 99.4648 -7.90824
17.5121 80.0454 5.15355
-3.46693 103.722 -11.226
-2.97732 108.332 -9.92584
5.77835 83.3149 -5.87493
17.6657 85.3041 6.13628
0.38979 138.482 -1.2609
-1.19727 119.01 -6.36868
5.51328 136.341 3.3549
-2.22372 147.856 -2.19571
6.68962 114.094 0.446935
19.2595 94.247 9.22084
9.6721 122.462 4.88596
9.22574 115.344 3.16087
6.21175 117.749 0.612115
-1.88048 147.537 -2.01486
-2.91163 107.878 -10.2144
-1.01869 143.437 -1.96292
-1.29904 100.336 -10.0825
-1.72248 147.703 -1.95642
2.84879 89.4839 -7.98692
5.98567 85.8012 -5.60028
9.65977 120.571 4.28464
6.21458 85.4702 -5.44751
11.0801 133.544 7.9844
11.6708 131.861 8.24474
19.7283 91.888 8.87955
18.7264 100.03 9.3621
-2.09956 151.566 -1.84755
-0.505128 143.152 -1.80654
9.64603 128.13 5.44625
15.0972 87.7412 3.48467
-0.912924 144.842 -1.96561
18.82 91.7658 7.84047
6.21374 123.717 1.21597
12.7417 126.74 8.17059
-2.14582 109.248 -9.63131
6.73176 117.954 0.666713
6.07253 126.518 1.54236
16.9587 86.3244 4.96963
6.81427 80.0257 -6.14976
4.53868 145.374 3.40904
2.20892 95.2009 -7.95935
0.324323 100.646 -8.83931
18.7288 78.6578 5.24728
1.99829 135.978 -0.868403
10.2078 134.864 6.98442
6.68131 119.43 0.72028
2.42548 91.3412 -8.54372
2.33857 97.7642 -7.47181
12.9892 127.362 8.32634
2.78105 131.873 -0.903397
17.1702 112.667 9.77464
14.8647 82.7962 2.0975
-1.64578 113.898 -8.52778
18.4117 92.5486 7.32247
-1.84225 111.972 -9.08619
4.00674 88.5903 -7.56829
4.41097 145.657 3.13137
6.67342 83.7831 -5.82692
5.7629 133.404 2.21204
17.12 86.6648 4.92689
2.95893 124.795 -2.12732
-1.26003 101.004 -10.5744
2.72249 127.5 -1.88955
7.31004 117.622 0.821383
4.67639 87.7067 -7.17915
14.8767 88.8813 3.05291
-0.762686 146.679 -1.89069
9.87831 122.546 4.20286
-2.50536 107.292 -10.7291
5.50453 139.612 2.97622
7.70657 116.449 0.954725
13.4256 125.153 8.14719
5.27833 87.2287 -6.71359
2.6687 123.614 -2.71122
17.1647 80.7449 3.79927
0.317468 120.791 -5.54073
15.296 84.914 2.69058
2.63395 124.363 -2.64596
11.9767 133.105 8.10571
19.1872 78.2576 5.28181
3.29227 122.637 -2.35885
0.90575 101.203 -8.58436
0.88503 141.26 -1.38592
-1.08404 101.296 -10.5659
16.2713 81.9957 2.99943
1.99565 125.428 -3.19344
6.76502 120.851 0.665006
1.67133 138.545 -1.20558
2.64603 96.6517 -7.81819
0.790146 101.479 -8.79622
1.84098 123.4 -3.81295
5.73881 138.947 2.82238
6.74203 81.7981 -6.51086
9.46606 131.849 5.19336
9.25411 118.842 2.63514
6.76621 121.25 0.62329
11.6654 135.313 7.97326
2.66296 96.454 -7.89431
0.441568 120.308 -5.77826
-1.51651 103.142 -10.8228
17.5555 80.415 3.79796
12.5924 130.014 7.87323
14.1254 83.9937 1.06111
2.70397 92.931 -8.55697
10.9272 90.8982 -0.848201
18.4494 105.193 9.12009
-0.687058 117.483 -7.47425
4.12591 124.673 -1.44805
-1.73596 104.284 -10.9078
19.4608 93.5846 7.99567
11.1014 136.624 7.49745
15.8834 115.41 8.36071
2.63097 99.257 -7.5892
3.83316 120.414 -2.58997
17.5948 111.965 9.39041
4.37838 124.589 -1.33366
19.6605 94.2402 8.19993
4.80615 121.524 -1.48825
0.588094 120.046 -5.92622
15.1352 82.6184 1.6079
12.6776 131.507 8.01726
19.7676 94.5814 8.30948
11.4264 90.617 -0.632909
9.81347 122.764 3.5748
15.4376 113.865 7.48572
2.91663 92.0709 -8.76216
5.82928 139.287 2.61891
18.7232 94.8369 7.25876
2.95131 97.5322 -7.76609
10.5784 93.6011 -0.996105
14.83 86.1939 1.82859
17.5544 87.696 4.75906
-0.153098 102.08 -10.0866
10.8398 136.539 6.9385
14.4375 91.29 2.29461
18.0802 94.0064 6.34963
18.1878 95.2887 6.686
16.4648 88.9273 3.83739
6.89609 127.285 1.346
12.3008 87.0332 -0.632304
10.1309 125.736 4.17382
18.7247 104.242 8.73367
5.04394 121.756 -1.55433
10.8546 88.6238 -1.8276
7.07002 83.2789 -6.5172
13.1548 84.9626 -0.245883
19.1764 100.431 8.45766
4.47143 117.888 -2.8561
3.57086 118.314 -3.67683
12.4682 88.7766 -0.276894
11.6487 137.61 7.7154
4.5025 117.503 -2.95188
2.9128 100.214 -7.64511
17.2711 81.0287 3.0047
9.66385 132.206 4.75282
14.5442 87.2165 1.41493
9.88293 123.833 3.41272
7.55799 122.581 0.863185
-0.961619 152.706 -2.07909
12.8206 84.9444 -0.765124
9.69027 123.425 3.06671
3.97429 117.952 -3.54492
12.3799 89.843 -0.381191
-0.446416 110.969 -9.19918
1.88075 102.232 -8.49225
17.3379 81.0371 2.86136
1.0422 144.681 -1.67943
3.05422 101.012 -7.58804
15.8487 116.607 7.80162
3.95055 131.849 -1.15486
12.0805 92.6616 -0.246385
-0.994768 153.844 -2.05971
18.3516 91.7333 5.6727
5.52402 145.614 2.77054
7.36309 126.367 1.10057
8.11534 96.3245 -3.59425
7.19642 96.1783 -4.53258
9.77889 132.183 4.50542
5.47487 122.343 -1.50318
18.0417 89.7659 4.94518
14.2192 90.8755 1.37463
4.28938 114.275 -4.18479
-0.581287 108.109 -10.0951
19.0254 102.959 8.24985
8.49971 122.227 1.37784
13.443 131.006 7.82039
10.6017 80.4526 -4.11635
9.31332 123.037 2.30133
6.39705 87.8322 -6.92359
15.346 122.337 8.1019
15.2857 122.998 8.15016
6.27951 138.768 2.14025
18.9218 104.284 8.32725
18.4812 98.3325 6.79864
6.17287 116.122 -2.11442
17.7867 111.965 8.54173
0.359699 115.927 -7.88706
14.9843 119.482 7.13177
5.36651 126.37 -1.09583
4.8109 128.588 -1.24427
18.2553 107.027 8.05893
3.30358 101.813 -7.58489
5.90419 143.622 2.47666
13.2298 79.2074 -1.95418
9.10572 96.8454 -2.83017
1.33231 116.904 -6.89261
0.558247 148.781 -1.8987
2.70771 114.868 -5.92387
18.8552 78.5212 3.38317
13.771 93.386 1.0156
16.6193 78.7583 1.15454
13.3547 94.451 0.768593
0.881673 103.387 -9.88497
5.60148 113.213 -3.47468
18.7203 78.9922 3.24023
18.6345 99.5126 6.85983
5.89807 123.243 -1.38138
9.04279 122.679 1.60646
0.0054709 108.084 -9.92689
5.41905 127.332 -1.13291
19.2751 102.185 7.93705
1.89187 143.721 -1.65323
-0.0397992 108.839 -9.86437
0.130166 150.405 -2.19635
12.2433 138.629 7.58418
7.01002 135.163 1.80771
7.53136 95.3499 -4.89463
5.08821 112.938 -4.13174
11.4704 86.5123 -2.64297
15.3091 78.8032 -0.269218
7.33268 88.1532 -6.42663
13.6595 91.4883 0.393327
15.596 122.832 7.95121
17.8369 79.7955 2.37296
4.57661 112.916 -4.6981
18.2715 79.6412 2.7487
9.64798 91.5847 -3.57796
8.22803 124.588 0.968893
15.569 123.729 7.98202
18.0136 79.9444 2.46971
7.51131 88.2675 -6.36012
6.9768 97.531 -5.24421
10.1495 129.592 3.63493
16.9976 78.1122 1.0388
2.1689 143.405 -1.75239
12.8262 80.4948 -2.64693
17.2056 78.2443 1.25137
18.626 105.262 7.50611
9.04412 124.95 1.62625
1.94168 103.734 -9.21159
18.6494 101.532 6.81375
7.65566 133.057 1.6969
5.15922 90.5946 -8.42658
7.13774 114.478 -2.17662
6.7429 95.5901 -5.97825
17.6543 78.3445 1.60523
7.82617 82.3719 -7.3395
14.0759 132.5 7.78344
1.93744 145.749 -1.78364
10.8115 97.0532 -1.88334
15.4529 119.826 6.78954
10.9568 137.368 5.53073
2.89188 140.681 -1.80452
15.8002 123.794 7.83661
13.1899 95.6358 0.0860141
6.58844 122.585 -1.54285
18.2759 97.5206 5.41446
6.10492 146.346 2.25268
13.4483 83.7014 -1.83911
17.9906 76.6862 1.35968
8.70808 125.83 1.09493
4.34692 112.001 -5.69208
11.7227 138.878 6.40839
6.10046 89.7884 -7.98338
5.96189 126.445 -1.50672
14.2757 132.4 7.73195
1.35735 104.273 -10.0557
5.99158 146.919 2.19643
14.9492 125.227 7.08408
11.6336 96.2715 -1.41258
0.551487 151.334 -2.38019
12.5538 84.3648 -2.6957
9.45636 125.918 1.75979
7.84169 113.479 -2.08682
14.4088 131.849 7.6639
16.1252 82.4634 0.433568
14.2412 133.464 7.78957
7.90602 113.594 -2.0267
16.1587 80.9954 0.181192
10.2189 134.17 3.94017
18.3104 108.078 7.16928
15.3472 94.0578 1.71777
10.3676 80.9625 -5.5576
16.0747 82.5 0.318253
18.3264 92.4198 4.32134
9.26914 126.119 1.48591
16.5084 81.9257 0.615522
2.38165 145.193 -1.8697
15.3342 113.657 5.16121
9.77725 81.2142 -6.16854
11.0398 97.9055 -1.9593
6.98925 139.799 1.6094
14.2548 114.538 4.18181
13.9741 83.5028 -1.69922
6.4498 111.277 -4.09375
11.1724 80.3828 -5.06711
8.75716 83.1073 -6.95817
11.4063 86.3804 -3.76783
9.14153 126.545 1.25713
15.6231 93.9918 1.74445
14.7011 131.102 7.53533
14.516 133.238 7.73675
9.09133 86.096 -6.11016
6.53844 143.854 1.79882
7.1038 117.205 -2.47609
13.3086 83.8625 -2.42273
19.0029 103.997 6.78585
4.20885 100.036 -8.47415
8.08703 93.7109 -5.81367
5.96421 148.362 1.96128
8.74727 93.5306 -5.20756
14.8883 128.634 7.16103
7.78156 135.669 1.44088
16.5738 112.983 5.96708
15.5035 126.777 7.40331
6.08691 94.3341 -7.75954
16.1989 114.943 5.89501
2.03878 114.071 -8.18368
16.16 78.0863 -0.80477
4.47883 94.4532 -9.33763
16.6852 92.793 2.34897
15.2629 125.504 6.84832
14.9171 78.2677 -2.02721
17.7327 102.929 5.1828
8.69324 129.096 1.01227
16.2454 77.9724 -0.809279
3.48132 140.764 -2.07436
5.71326 97.6867 -7.66331
11.1354 138.016 4.91589
15.4856 82.4911 -0.855411
15.7202 126.946 7.38583
4.3924 103.258 -8.04015
15.5218 125.343 6.88712
15.2617 114.697 4.69861
8.58239 98.7285 -4.77202
16.7289 77.4062 -0.651065
6.09622 91.6087 -8.57201
7.97209 92.4953 -6.58385
12.2534 84.6867 -3.79809
9.34391 128.703 1.23554
14.3735 134.3 7.15668
6.69513 145.892 1.69617
14.8679 133.378 7.45546
6.8647 109.621 -4.71452
4.00306 137.977 -2.41441
3.69758 104.624 -8.7499
10.9808 89.1309 -4.4039
9.31904 80.229 -7.67649
11.8017 140.548 5.64298
6.45464 126.312 -2.18769
13.8291 136.599 6.90394
13.2766 125.263 4.30977
9.56413 129.54 1.38817
2.86516 105.37 -9.57753
9.60562 85.7232 -6.50698
10.3102 132.042 2.54269
10.8961 135.836 3.80177
18.5503 96.4082 4.20292
7.82538 109.267 -4.04506
18.0842 100.592 4.40304
18.4871 104.575 5.51116
4.10689 138.128 -2.57875
9.3116 110.395 -2.48055
10.9305 81.9374 -6.03868
18.3222 95.0219 3.57663
2.88114 112.912 -8.38356
7.89377 137.553 0.986798
7.28573 123.193 -2.21096
11.1752 88.9389 -4.58187
7.70057 120.687 -2.32206
13.7289 126.323 4.61317
13.8718 114.682 2.64929
7.37335 108.568 -4.8729
7.01001 99.9742 -6.78908
2.96433 112.053 -8.58643
7.62843 91.4541 -7.72789
5.69367 109.026 -6.47629
13.4764 124.573 3.97911
8.51292 91.2657 -6.95986
17.4464 94.2156 2.3536
7.08518 144.675 1.2756
2.11175 153.945 -1.95179
16.6708 119.05 6.04339
4.81341 99.7014 -9.13819
13.982 124.138 4.27934
5.28949 96.8156 -9.21349
7.87325 140.008 1.11824
5.41618 98.7746 -8.74672
18.282 100.203 4.14897
4.6508 110.378 -7.43028
14.4552 124.751 4.80196
14.2953 136.793 6.81528
11.0593 136.414 3.53208
16.2641 126.45 6.8458
9.72087 130.963 1.22381
14.9455 124.07 5.10575
15.0694 134.063 7.01994
16.1884 126.029 6.65671
11.0604 136.361 3.46369
10.4257 82.0051 -6.98115
5.39626 96.3479 -9.3528
10.8183 135.178 2.97246
14.3498 124.415 4.4859
5.39947 98.0979 -9.0702
13.6358 127.008 4.23286
5.22113 103.698 -8.27977
7.43408 107.615 -5.397
10.6253 144.802 4.43881
12.6739 79.7762 -5.28778
13.3345 98.8207 -1.26212
7.81979 107.213 -5.20852
12.8863 125.686 3.03807
7.75996 122.806 -2.52208
14.7125 115.249 2.93629
10.0408 107.595 -3.05198
7.78181 144.068 1.29983
9.83804 133.711 1.44015
11.2319 82.2854 -6.49154
11.0561 81.1208 -6.90621
10.5463 90.2977 -5.75335
13.225 124.832 3.10287
3.01589 107.248 -10.1197
9.34014 135.32 1.15606
10.0313 82.3628 -7.74045
11.215 138.757 3.59226
10.1182 143.802 3.41684
7.76489 100.093 -6.79149
15.2498 134.966 6.82815
17.0991 123.871 6.63956
18.4189 100.368 3.68548
18.1578 95.5954 2.56042
6.22996 100.747 -8.25477
10.6538 138.091 2.8317
2.76634 151.397 -2.5235
16.2213 113.499 3.83479
10.9627 138.899 3.23825
17.1262 120.936 6.047
10.5439 111.052 -2.22995
7.71912 100.189 -6.9763
11.3242 87.828 -5.66776
9.11361 105.662 -4.63491
12.7752 83.2734 -5.09238
11.3506 85.2191 -6.15106
10.423 141.89 3.16432
12.1473 126.952 2.13969
17.974 95.3351 2.15185
10.194 138.254 2.24952
8.13518 118.348 -3.37133
6.81194 106.903 -6.74759
5.29635 100.688 -9.36036
14.6736 137.971 6.57444
9.99086 146.534 3.49704
9.86771 105.055 -4.11419
16.3027 97.5425 0.785376
16.6067 97.4673 1.06384
12.4073 83.3439 -5.61977
18.2818 101.891 3.50303
10.5298 145.916 3.82929
9.58864 114.482 -2.77503
8.675 141.89 1.25269
7.81265 146.482 1.20098
10.6198 140.36 2.85392
10.6986 85.0129 -7.0679
17.7411 96.0457 1.83345
17.5059 106.185 3.40966
5.17376 105.139 -8.91377
3.50615 154.597 -1.65434
8.57555 105.143 -5.60094
7.5655 147.973 1.12211
5.2096 109.286 -8.19653
4.10559 110.074 -9.14913
10.3674 140.889 2.56034
6.76715 106.695 -7.15929
2.85402 152.71 -2.70563
10.1339 141.396 2.36207
16.196 123.829 5.14776
10.6861 105.77 -3.55167
17.2517 125.749 6.47167
17.4181 121.487 5.85049
17.0929 126.694 6.43774
11.5968 109.029 -2.17003
18.5775 107.844 4.45684
14.8119 122.72 3.40636
9.66283 143.608 2.10786
18.0922 96.4922 1.85051
9.84965 103.562 -4.98762
3.56674 149.853 -2.81637
13.7679 99.9314 -1.82848
15.128 137.536 6.29547
5.63476 132.727 -3.91034
15.6142 124.696 4.40115
8.95648 144.488 1.41109
4.07667 145.841 -3.15303
16.5536 116.075 3.68317
11.6247 99.6855 -4.14173
16.1858 122.756 4.46634
11.2366 85.5685 -7.11961
14.3019 140.094 5.68961
13.6065 115.441 0.534922
7.8012 104.803 -7.09451
9.71722 102.706 -5.61863
8.85342 148.065 1.6925
3.53969 151.991 -2.82318
17.3172 107.291 2.63397
17.0054 123.364 5.22867
9.16595 149.338 2.17143
9.99572 149.028 2.92897
14.3983 127.672 3.37439
5.87919 104.973 -9.11879
6.03152 104.66 -9.02922
14.8748 113.537 1.24549
6.29921 130.688 -4.09119
4.22532 147.212 -3.16991
6.98337 155.258 0.985348
14.1651 127.848 3.09497
17.5678 129.58 6.73777
10.6116 102.894 -4.92008
13.9232 141.902 5.36371
14.0905 116.305 0.884894
3.94596 150.011 -3.03393
8.73497 121.746 -3.42956
16.6453 122.052 4.36775
5.42797 106.712 -9.43792
16.6495 116.655 3.38198
8.09046 151.259 1.21298
9.28356 117.466 -3.71779
7.85916 104.087 -7.54608
18.8796 124.767 7.00088
16.693 124.288 4.7627
18.421 102.403 2.49486
16.7798 127.28 5.36402
17.4063 122.224 5.05138
13.1842 124.125 1.23634
17.6926 121.648 5.21871
4.50609 145.544 -3.4471
11.984 126.483 0.461564
4.66215 143.615 -3.71372
8.66939 102.334 -7.2288
11.0028 113.355 -2.97027
12.1741 105.852 -3.21727
11.744 128.987 0.533298
8.16401 151.844 1.14025
11.3996 103.632 -4.40139
7.91466 101.317 -8.25418
17.635 123.229 5.2555
4.42889 148.111 -3.26262
9.42998 101.362 -6.8151
11.7065 147.432 3.74043
17.1648 108.609 2.097
6.66397 131.466 -4.17401
15.1828 115.803 1.35888
11.0295 148.619 3.1852
5.79051 107.061 -9.48844
18.5249 99.9659 1.7249
16.7528 124.799 4.45916
17.6858 121.418 4.75203
17.4807 99.1095 0.485056
15.9288 136.331 5.67656
8.43416 101.98 -7.91323
8.16674 123.391 -4.32193
7.18956 104.7 -8.66709
10.629 100.674 -6.03277
17.8938 123.061 5.14008
7.77723 125.4 -4.43047
19.2418 127.045 7.10601
5.53874 137.433 -4.49281
18.5359 98.9551 1.31357
17.5727 109.903 2.31802
17.9127 131.705 6.58597
13.0134 127.152 0.932467
10.8958 149.344 2.84275
17.3997 109.825 2.09953
17.0221 124.994 4.46673
8.77494 152.898 1.38709
13.1337 127.05 1.00387
18.7703 122.116 5.64652
17.224 108.608 1.67514
17.7952 126.185 5.38373
17.9895 120.883 4.59434
8.07541 153.301 0.668054
10.0567 117.318 -3.91862
5.78043 154.448 -1.43894
17.7604 124.561 4.92112
17.5692 106.859 1.53584
11.8296 130.01 0.052091
17.5343 124.779 4.71002
12.1307 147.982 3.57843
11.5504 148.821 3.08227
5.62439 138.928 -4.62398
17.2994 110.516 1.67319
12.8326 130.051 0.756525
4.86811 149.53 -3.5628
13.5678 107.52 -2.60656
17.3373 112.249 1.94415
19.716 128.163 7.14392
5.28489 145.197 -3.97022
12.956 101.268 -4.36294
16.7159 100.557 -0.806782
12.2474 148.277 3.41194
13.9608 145.987 4.68008
17.8315 125.3 4.73612
17.637 119.101 3.42403
15.0938 141.219 4.91154
18.0634 104.927 1.24714
14.7073 117.463 0.203893
5.0496 152.106 -3.0505
17.6271 132.543 5.77398
10.932 150.65 2.44223
14.5175 128.654 1.98962
12.0017 100.933 -5.48953
15.1803 101.455 -2.27663
16.5792 100.832 -1.02165
10.2906 151.694 1.96642
7.00872 154.388 -0.783128
13.7481 105.931 -2.91045
12.746 109.952 -3.20688
17.6704 125.949 4.48648
11.6594 113.283 -3.72153
18.1848 121.309 4.11304
17.3256 108.54 0.959595
11.6632 130.522 -0.646827
17.3994 108.191 0.935925
16.9237 120.927 2.7511
13.0386 124.584 -0.422836
5.70935 142.694 -4.36742
11.6689 128.13 -1.14448
15.0899 143.161 4.88333
6.46066 135.748 -4.93965
14.2794 146.132 4.61929
14.1411 127.02 1.02428
18.2019 100.639 0.249916
15.514 126.065 2.19419
11.6262 131.171 -0.719035
5.90908 139.118 -4.93407
15.3444 118.092 0.518724
16.8948 111.11 0.75352
16.3547 120.916 1.92829
13.6192 123.987 -0.223282
14.2229 119.095 -0.515667
15.4588 101.825 -2.44616
13.4469 147.47 3.80613
8.15117 126.352 -5.22443
16.0378 118.38 1.08796
11.8129 149.856 2.60096
11.5412 150.606 2.39822
12.2982 131.812 -0.253689
8.23789 126.228 -5.25719
17.5174 121.804 3.06203
5.6505 151.415 -3.27591
14.5422 128.857 1.38996
14.763 114.364 -1.01636
17.9594 105.325 0.475231
15.8134 119.935 0.989563
15.4188 128.592 2.15828
13.6427 103.723 -4.12387
17.5459 133.879 5.13855
14.8039 102.081 -3.34321
16.8911 111.491 0.383667
16.0969 102.102 -2.13846
13.7754 127.177 0.0859843
14.4903 104.612 -3.30106
17.9427 101.35 -0.522387
14.5052 116.278 -1.2156
17.8334 120.165 2.74487
14.7138 108.026 -2.52054
13.2566 131.045 0.152876
20.7379 126.912 6.73741
5.90561 150.757 -3.57846
6.46668 152.847 -2.67287
15.577 128.626 1.84169
19.7911 130.06 6.22256
15.9571 102.394 -2.54615
14.874 106.482 -2.8734
17.2685 122.789 2.42228
15.2148 113.582 -1.2667
14.1759 103.275 -4.20512
11.3479 131.828 -1.83368
6.00184 147.732 -4.28586
13.3331 148.729 3.09823
19.3096 120.664 3.871
15.6393 122.308 0.555479
19.6811 120.847 4.26224
17.669 106.791 -0.29827
7.06581 137.256 -5.24037
14.5252 129.011 0.588139
11.641 128.595 -2.3656
17.8112 105.756 -0.504301
14.486 103.013 -4.28568
15.0911 104.033 -3.51377
20.5597 127.197 5.9787
12.3825 123.921 -2.67754
13.5618 121.184 -2.01388
6.61394 151.868 -3.31136
11.0007 153.107 1.15505
17.1211 123.412 1.77186
9.16106 153.166 -0.693909
7.85161 135.728 -5.13597
12.6927 123.176 -2.64868
18.2767 133.805 4.73337
8.95261 132.011 -4.80665
6.78033 143.117 -4.9414
17.6598 136.017 4.47064
12.9129 120.868 -2.94833
17.4603 102.847 -1.73505
16.5893 142.761 4.57818
16.8569 112.017 -0.715527
13.2312 121.814 -2.54282
15.5032 122.745 -0.143116
15.3944 103.589 -3.71416
16.5647 124.366 1.18346
13.3478 132.136 -0.580005
10.7968 153.075 0.659349
12.1013 127.159 -2.75238
10.1078 152.024 -0.264176
11.8103 129.802 -2.6509
17.5509 103.699 -1.79133
11.9005 129.525 -2.69655
17.5888 106.938 -1.22592
11.9379 151.675 1.25979
10.7464 152.033 0.113827
13.841 119.708 -2.68062
13.9737 131.714 -0.385407
7.73723 152.224 -2.84654
13.3446 116.538 -3.7968
18.618 133.657 4.47786
7.33045 140.237 -5.43959
12.5662 124.767 -3.09045
15.8897 107.218 -3.00015
14.3533 118.919 -2.41592
9.1325 130.713 -5.43534
13.607 113.127 -4.26623
13.8585 119.858 -2.81048
9.67944 125.42 -5.91624
21.0565 125.132 5.20633
14.3945 123.929 -1.62752
13.2375 124.164 -2.73558
14.2056 126.896 -1.2964
14.184 112.689 -3.8832
12.2578 134.423 -1.85419
17.0285 109.835 -1.63023
20.4548 129.817 5.34373
8.35089 152.266 -2.50926
16.7973 124.203 0.724694
15.9348 123.918 -0.178
17.3597 142.192 4.51418
13.7158 113.229 -4.30108
15.0263 114.325 -2.86627
11.2585 121.288 -5.32508
16.1621 106.644 -3.16219
7.36764 150.62 -3.89375
11.9019 129.492 -3.25107
14.0224 124.662 -2.03952
14.4911 148.894 2.774
14.4391 124.78 -1.65754
20.4948 120.395 3.47704
16.4707 104.948 -3.28466
11.9874 129.274 -3.30372
7.99884 138.321 -5.59384
16.903 109.723 -2.00432
15.264 128.273 -0.279244
8.00122 151.898 -3.16022
16.8268 121.427 -0.00651505
20.8549 126.861 4.92606
20.4218 130.34 5.12736
13.4069 126.207 -2.52141
11.3771 150.704 -0.0995116
19.5933 119.587 2.35041
17.1963 107.286 -2.27413
19.1334 119.345 1.80335
17.1752 108.646 -2.06636
13.9689 126.703 -1.97417
15.9332 114.118 -2.31545
20.1943 119.957 2.9142
14.669 123.499 -1.92375
9.92207 127.135 -5.94473
14.1237 132.384 -0.869106
11.813 149.955 0.0272238
14.3703 128.522 -1.34147
13.0126 134.579 -1.58619
7.67934 150.819 -3.90088
13.608 117.71 -4.06977
15.3011 114.309 -3.0226
13.3798 128.655 -2.35052
16.2815 121.982 -0.729299
15.392 111.425 -3.52191
21.5525 125.175 5.00194
12.1508 127.549 -3.83007
12.5602 142.547 -0.73821
13.4851 133.812 -1.41364
10.2053 125.989 -6.12247
20.1563 131.026 4.55422
12.7078 142.238 -0.760239
12.9618 148.992 0.674466
13.0765 141.437 -0.585415
11.9096 129.437 -3.90142
18.5953 119.342 0.819474
13.8783 120.624 -3.6041
20.3586 130.832 4.60559
13.5676 129.462 -2.31962
16.7056 109.16 -2.95345
12.8454 133.628 -2.34627
15.9884 119.734 -1.81281
15.4826 129.951 -0.495178
14.5557 113.657 -4.35902
15.5702 112.798 -3.54859
22.2787 125.37 5.26804
11.143 123.28 -6.05781
14.8919 123.414 -2.36668
12.5453 151.182 0.325639
13.947 146.347 0.784023
14.7442 132.431 -0.961534
10.1089 129.362 -6.07311
10.0172 150.545 -2.33995
16.4193 112.007 -3.02799
13.8525 115.757 -4.88009
13.9036 118.996 -4.25818
12.962 119.504 -5.12218
17.2523 144.545 3.61328
22.1123 125.252 4.89239
15.5484 122.79 -2.02914
12.7915 146.272 -0.501429
18.6243 139.495 3.97469
