ply
format ascii 1.0
comment Created by Open3D
element vertex 1578
property double x
property double y
property double z
end_header
-18.3749 130.884 9.44222
23.1189 106.142 16.9828
-17.1934 130.368 1.29919
19.5678 108.383 10.8233
18.9513 108.622 13.985
16.7127 110.159 5.23238
17.8129 109.593 -0.0301191
20.6024 107.494 17.1754
17.2235 109.923 -0.0487606
-9.83758 125.706 8.32634
-11.9883 127.251 -5.45305
25.9215 104.468 8.63332
-7.61786 124.297 8.50611
27.5056 103.421 11.4606
22.7267 106.411 3.2182
-10.3259 126.131 -5.47599
21.8049 106.946 1.97128
-9.91793 125.509 8.52385
-8.54852 124.661 7.99226
27.2805 103.397 10.0823
13.699 111.547 5.23598
-13.1052 127.586 -2.75181
1.6369 118.867 -2.62707
24.2319 105.263 6.4156
-15.3788 128.561 9.60256
12.3319 112.342 1.52197
7.19723 115.119 11.2772
-15.7447 128.95 0.292509
23.9599 105.279 5.47904
-2.14868 120.846 -1.16594
-5.68727 122.583 11.0992
-13.8807 127.701 -0.178954
-3.10763 121.017 12.047
27.3039 103.08 10.0336
-8.8084 124.451 8.22988
-5.46851 122.382 11.4622
-13.112 127.217 -2.76949
24.7357 104.327 16.5583
20.5628 106.762 17.5473
-13.4315 127.301 -0.430809
-11.3522 125.749 11.7985
18.5436 108.162 7.26396
-18.1356 129.916 3.95802
20.2074 107.332 0.430513
-18.0431 129.826 3.55741
12.343 111.65 6.44461
-12.2758 126.471 -4.18103
-18.2781 129.643 10.6947
10.6337 112.555 9.7855
17.1144 108.813 5.38909
-1.64255 119.693 11.0985
-9.09012 124.073 8.50499
27.3068 102.474 9.93985
19.8209 106.708 17.2533
-9.91466 124.478 8.10016
-7.67724 123.106 10.0073
22.8962 104.83 17.1679
27.3888 102.252 13.5123
10.7407 112.186 9.79219
12.0486 111.47 7.17783
27.1471 102.465 9.83935
22.8115 105.184 3.23808
23.683 104.58 4.70696
26.9746 102.372 14.4293
-13.5509 126.609 1.62495
-9.95009 124.281 7.92259
11.5133 111.718 1.32477
-13.5979 126.601 -1.01021
-3.77758 120.8 -2.42592
-13.4684 126.469 -0.0688678
18.0361 107.816 0.61566
0.449387 118.28 -2.32707
-13.5881 126.462 1.4489
-15.0645 127.119 9.73376
5.7717 114.751 11.2647
19.1652 106.808 9.89998
-10.5274 124.386 8.33551
7.84371 113.672 0.80194
18.7726 106.888 11.8322
-3.87458 120.599 -2.51993
17.4785 107.549 14.2291
12.9751 110.394 5.59866
-11.1842 124.929 -4.45017
16.6966 108.192 5.39464
-14.8894 126.977 0.0281986
-1.19166 118.578 11.1793
12.9903 110.331 5.58871
8.85437 112.875 1.08622
-12.4851 125.23 11.2355
-13.3387 125.971 0.572782
20.8502 105.733 1.10194
24.5868 103.078 16.7476
18.2179 107.069 6.742
17.4296 107.562 5.64224
15.1579 109.01 1.32977
-18.839 128.951 7.16959
-11.0193 124.235 10.5265
-14.7567 126.682 1.10533
-12.151 124.832 10.1579
-10.159 124.009 -4.56599
11.6628 110.774 8.61055
26.5612 101.773 15.2398
-12.5349 125.375 -4.20448
14.3539 109.215 5.28345
25.8413 102.15 15.9768
-18.4596 128.58 5.19149
5.35428 114.328 11.1838
23.02 104.062 3.54436
-11.8759 124.53 8.58977
-13.3749 125.553 1.40729
-19.3007 128.828 9.75286
-6.8773 121.816 -3.62882
-14.5192 125.97 10.0467
3.92582 115.327 -1.7266
13.3682 109.555 5.3614
15.9541 107.944 5.27649
-13.7958 125.713 -3.44353
7.4658 112.713 10.9887
-18.1788 128.048 4.1115
20.0278 105.119 16.8764
-11.4224 123.842 10.4803
27.325 100.841 14.0714
12.813 109.73 1.48105
-12.1269 124.243 9.05093
12.7617 109.583 6.43862
-18.26 128.051 1.15367
-12.9848 124.925 0.861302
-4.27088 119.853 -2.7872
-11.6181 123.86 10.0346
-13.441 125.232 -2.97425
7.65818 112.652 0.50929
18.708 105.794 10.1345
7.6115 112.579 0.469596
-8.30082 122.085 -3.83021
24.1157 102.387 17.0652
21.3248 104.421 1.79351
-13.2645 124.979 -3.49007
12.6552 109.339 6.87619
-16.72 126.868 0.138556
-14.1542 125.393 -1.64023
23.8272 102.767 4.94071
-11.7437 123.655 9.12172
-18.6938 127.812 7.19323
-5.66007 119.976 12.1071
-0.860964 117.489 -2.02112
-18.2818 127.585 5.75926
25.5177 101.582 8.94268
-15.7045 126.143 1.31229
11.6787 109.947 1.43502
-14.0681 125.17 0.961209
-11.2991 123.307 8.42635
9.53994 111.17 0.884372
-18.437 127.68 2.01383
0.122393 116.81 -2.73201
24.8697 101.671 16.8762
-18.1732 127.382 4.79636
13.8164 108.422 5.37131
26.8236 100.438 15.2913
26.8111 100.425 15.3021
-18.4073 127.369 6.5555
27.5674 99.9618 14.028
-12.8204 123.892 8.81892
18.2514 105.714 0.638719
-16.5723 126.014 11.0422
-8.3237 121.135 10.9001
-9.85361 122.314 -3.96918
25.3876 100.963 16.332
-18.1393 126.817 10.9884
-12.1935 123.664 -4.5469
1.14858 115.359 10.9658
7.54809 111.558 10.7895
12.5469 108.676 7.58345
-10.9064 122.804 -4.14256
15.2002 107.122 5.28736
-18.0191 126.757 3.78604
27.0809 99.8874 10.2952
-13.574 124.267 -4.57959
-3.54014 118.235 -2.13601
-13.075 123.576 9.28735
27.9 99.282 11.7763
-12.7595 123.373 9.44617
0.365793 115.907 -3.2274
-13.4122 123.745 7.99459
-17.7432 126.174 11.1042
6.12302 112.334 -0.649885
16.5028 106.019 5.61807
-13.2925 123.518 9.49649
-18.3067 126.639 3.22837
4.77195 112.784 10.7344
18.3412 104.806 8.57156
-2.69933 117.108 11.2921
-13.5455 123.602 7.53142
-17.5788 126.097 2.59091
-14.3508 124.172 3.12316
-13.6589 123.63 7.8835
6.78047 111.438 10.6943
27.6166 99.0232 14.2146
-2.63292 116.971 11.3053
14.7222 106.958 1.306
-10.0745 121.365 9.72976
-17.3742 125.85 2.91197
-14.4301 124.101 3.16459
-19.2293 126.978 1.49087
16.5964 105.774 1.04066
-7.50289 119.74 11.3616
-18.4061 126.185 10.9257
6.74063 111.248 10.6576
-16.7586 125.335 2.74853
6.70735 111.26 10.6561
26.2605 99.5659 15.9213
2.54477 114.038 -3.45974
12.0019 108.101 8.61982
-19.0198 126.402 9.41228
-13.8007 123.638 -4.24633
-5.55598 118.744 -4.39041
24.2691 100.825 6.07643
-4.11211 117.427 12.4721
4.84638 112.494 -2.47789
-15.3555 124.364 -0.0528595
-13.3356 123.083 3.35742
-13.9704 123.254 11.3194
-17.3642 125.46 3.19173
21.686 101.997 17.8327
7.58964 110.738 -0.00272042
-6.34452 119.054 -4.30495
19.6343 103.088 17.2384
-13.5757 123.061 3.46744
-13.8191 123.4 -4.4181
-14.4059 123.678 -2.23076
18.227 104.083 9.58503
-13.8221 123.198 2.66973
25.8552 99.3585 16.3913
-13.6775 122.829 11.1965
-17.8493 125.499 2.95558
-12.7504 122.669 -5.05624
0.0249971 115.057 -3.34895
-13.3831 122.811 3.46892
15.6003 105.653 0.946724
18.6977 103.416 16.2517
-15.9886 124.271 1.08053
-10.2347 121.013 -4.66744
-19.291 126.029 7.54755
-13.3272 122.63 2.21711
23.7275 100.636 5.46706
13.243 106.791 6.83519
-15.0108 123.589 2.83831
-12.1468 122.087 -5.07407
-13.762 122.699 7.47307
-3.84321 116.7 12.1598
-14.8378 123.492 0.474125
1.48216 113.573 10.752
-17.3564 124.625 11.2074
11.4234 107.863 1.00472
-12.9424 122.027 9.683
-13.7899 122.714 1.89982
-14.1437 122.716 7.72433
2.95792 112.515 10.6534
-0.776113 114.687 11.2
-13.8424 122.665 0.989383
-11.9585 121.317 10.12
16.1498 104.932 0.722614
-11.991 121.317 9.95987
-9.45404 120.181 -4.59836
-14.5923 123.046 1.53529
18.3994 103.548 0.337256
23.7303 99.9139 18.1077
21.144 101.398 18.3324
-12.3113 121.42 8.63123
-13.606 122.331 2.50727
4.62898 111.318 10.5441
-17.6355 124.601 5.24737
22.9671 100.24 18.3224
-13.9484 122.443 3.04813
0.105836 114.298 -3.57087
-15.5744 123.478 -0.187321
11.4965 107.432 0.934493
-18.4583 125.042 4.80461
-14.1985 122.568 1.33909
-13.6007 121.973 10.1355
-3.20812 116.132 -2.37686
25.5634 98.8181 9.53358
-15.6378 123.334 2.07163
-18.9161 125.211 3.97844
-12.2525 121.146 8.82634
18.042 103.271 7.33896
-18.5288 124.92 5.19701
16.8662 104.11 0.528095
-9.77371 119.965 -4.85618
-20.0199 125.706 6.47539
-13.6636 121.827 10.9789
25.2106 98.9008 8.29125
-12.6077 121.59 -4.84057
-19.2279 125.149 8.5144
16.1455 104.3 5.91991
-18.3212 124.532 10.9528
4.6126 110.975 10.5299
-14.6352 122.291 11.1585
-8.29797 118.513 11.5023
-18.6413 124.77 5.11081
11.6656 106.747 9.21333
-1.1975 114.594 -2.73657
16.518 103.864 6.30811
-12.8725 121.209 7.38717
-14.3602 122.292 -1.48215
-18.9292 124.672 10.7315
26.1969 97.9951 10.1889
-7.27021 117.691 12.1151
28.1173 96.7363 12.7382
7.40097 109.254 -0.791455
-15.3913 122.663 1.53341
-14.1222 121.889 1.89164
-14.8098 122.071 8.49405
-12.3987 120.632 8.57729
1.71844 112.222 10.7655
-4.62272 116.322 -3.12159
25.3028 98.3217 8.76137
-15.6647 122.622 4.00632
-14.178 121.665 6.61438
-14.8604 122.018 8.62472
-15.4265 122.478 2.70761
-13.5585 121.324 3.98341
-14.4787 121.888 2.70184
17.9085 102.607 7.92355
-13.5659 121.16 9.71101
20.2947 101.273 3.34383
5.16143 110.376 -3.26484
1.42717 112.214 10.8145
15.9944 103.576 11.7784
-14.6612 121.683 11.0483
-15.7058 122.558 0.326824
18.0941 102.165 16.4799
28.2206 96.2911 11.8974
3.87142 111.059 -3.3148
-13.345 120.874 10.6855
20.747 100.527 17.546
-20.0728 124.985 4.05306
11.7391 106 9.28014
-14.228 121.597 -1.70383
-16.921 123.019 3.82204
15.5455 103.579 13.43
-11.3786 119.917 -5.2819
-14.7159 121.783 -1.70316
-17.533 123.112 11.0539
15.8131 103.372 11.7177
-14.0202 121.335 -1.75428
-12.8215 120.322 10.1893
-13.8928 121.13 3.25798
-15.1008 121.937 -1.48399
28.2214 95.9839 11.6204
-12.5958 120.185 8.53278
-13.418 120.693 7.62911
19.3955 101.045 17.0538
-20.7086 125.032 5.95078
10.1353 106.929 0.177802
-17.2051 122.994 3.72586
-14.319 121.298 3.22441
-13.7511 120.818 7.50589
-1.3095 113.359 11.6075
-19.6315 124.253 8.795
-4.4241 115.154 12.6667
-4.97841 115.472 12.9115
-15.3602 121.654 11.0578
-14.8914 121.733 -3.70137
-15.0385 121.551 6.56148
-16.634 122.581 2.45802
-14.0303 120.899 7.80527
-14.6021 121.308 4.83147
-14.1078 120.925 8.29667
8.4756 107.78 -0.411793
3.88638 110.211 10.5715
-10.6112 119.156 -5.27589
-20.1176 124.449 7.62515
-16.2005 122.178 4.04078
-18.1778 123.158 10.8895
-5.59819 116.095 -4.29812
-15.1546 121.496 5.04035
-7.42937 117.18 -5.22429
-9.83866 118.6 -5.28823
-15.2148 121.692 -2.18597
-13.6049 120.563 3.78993
-11.9993 119.456 8.4454
2.71184 111.045 -3.4686
-15.0385 121.256 5.60434
-19.9265 124.165 4.63067
-8.45122 117.146 10.8818
-15.7886 121.603 5.07823
11.5642 105.307 9.44459
-14.9431 121.116 2.97178
21.4327 99.4948 4.75796
-14.3226 120.711 1.58835
-14.8108 120.935 3.25128
-12.1959 119.589 -4.86459
-13.2564 119.868 7.90848
4.22248 109.448 10.5507
-14.234 120.419 8.09208
7.08231 108.049 -2.68699
-2.27098 113.208 11.739
-13.2306 119.729 10.0298
1.5605 111.316 -3.74051
15.2619 102.745 13.8184
25.8993 96.351 17.4254
-14.5806 120.677 1.72576
-14.5826 120.411 10.7934
11.6874 104.915 9.3847
0.0677911 112.124 -4.06741
-14.9428 120.74 5.61273
-15.3062 120.897 6.45411
6.10599 108.446 -3.36286
-11.7047 118.993 -5.26449
11.4131 104.932 9.54174
21.8825 98.5119 18.5149
15.0544 102.85 6.35258
-16.9044 121.77 5.30062
-4.40095 114.181 12.613
-14.896 120.548 5.29921
-21.1537 124.234 5.51984
-14.8538 120.671 -0.904691
-3.68109 113.736 12.0256
17.7651 101.297 2.51163
-14.28 120.142 5.95144
17.1402 101.504 7.89209
-14.7093 120.335 7.50392
-13.9976 119.889 7.91747
10.6878 105.448 0.087213
-14.5723 120.112 10.4394
27.4506 95.1287 15.7942
17.1183 101.431 7.92107
1.60717 110.507 10.8649
-14.2974 120.252 -3.88716
26.925 95.3411 16.8641
-13.7206 119.888 -4.0382
-19.4514 123.049 4.80776
-14.5702 120.298 -1.06558
-21.2301 124.042 5.88191
0.163141 111.628 -4.19681
23.0471 97.8308 5.92669
9.0129 106.287 -0.606322
-19.1726 122.817 4.54275
-16.6171 121.136 10.8834
-14.6114 119.984 8.77502
-15.4119 120.646 1.27162
-15.9611 120.837 6.02531
-14.6426 120.074 4.85167
-15.0981 120.38 2.92166
-14.2429 119.733 8.04342
-14.5042 119.939 4.49268
17.3969 100.999 7.0907
-13.1614 119.04 7.9675
13.6534 103.37 0.699588
1.37649 110.354 10.8808
4.20607 109.01 -3.47515
-15.1357 120.252 3.63035
20.8334 98.6 17.7039
23.6105 97.2212 6.63394
-15.9439 120.665 3.90216
-14.5132 119.64 9.63873
-14.2201 119.797 -4.00962
6.83591 106.983 10.3069
-20.4318 123.1 9.16431
1.24898 110.224 10.8844
19.6869 99.4765 4.31222
27.7117 94.4396 15.4868
13.6761 103.096 0.631207
7.38997 106.569 10.1266
15.6781 101.73 6.69652
6.1645 107.237 10.4609
-13.8998 119.408 -4.01606
-15.1146 119.784 8.8131
22.839 97.0856 18.9599
6.25149 107.438 -3.537
25.2595 95.6513 17.9024
17.2645 100.395 15.5939
-15.5657 119.972 6.49911
24.5989 96.1391 7.99926
-14.626 119.348 7.05516
17.7226 100.309 3.36927
12.3555 103.374 7.30176
17.6204 100.045 15.6067
12.1025 103.693 0.358621
14.7434 101.776 13.766
-15.0002 119.544 6.43652
-16.9211 120.646 7.70413
25.4354 95.5467 9.79196
17.1777 100.544 2.90702
-14.7487 119.313 6.59889
25.0682 95.701 9.19282
27.6225 94.0853 11.7888
-13.7276 118.617 7.97471
4.02664 108.4 -3.54037
-14.7175 119.453 -3.98365
13.4043 102.708 0.520529
27.8268 93.8773 11.9136
0.151865 110.192 11.1875
24.4891 95.8837 7.959
-11.1498 116.931 8.77727
-2.80582 111.914 11.9476
-15.6338 119.645 5.67238
-15.4107 119.652 -2.28586
27.6413 93.8193 11.8523
15.837 100.729 14.3542
-5.00985 113.083 12.9369
-0.456696 110.377 11.5374
5.77428 107.073 -3.92602
11.1588 103.482 9.14671
26.8219 94.162 11.4557
3.49397 107.94 10.764
25.4054 95.0053 9.76635
-4.758 112.761 12.7373
26.4881 94.3281 11.1631
9.55159 104.347 10.1186
-15.8313 119.609 -0.55308
-1.2031 111.037 -3.7552
-15.1631 118.94 9.17728
-15.608 119.38 1.56382
-6.28708 113.998 -4.88215
25.2865 94.7433 17.9443
26.3102 94.124 17.4781
-13.3831 117.828 7.40893
1.99818 108.626 10.8103
25.7558 94.3754 17.7202
6.07948 106.48 -3.83162
-19.3531 121.239 5.10018
-20.4609 121.792 8.74947
7.94325 105.264 -2.94455
13.4315 101.771 6.72403
-14.328 118.107 9.56275
20.0767 97.5482 17.3925
-17.4848 119.919 10.5268
16.3931 100.072 2.95704
14.2198 101.075 13.0891
-1.3594 110.204 12.06
-16.0302 119.121 1.02381
5.49785 106.482 -4.06417
11.9362 102.388 6.99879
-11.7226 116.662 -5.15216
-15.5326 118.641 4.42642
27.7737 92.7292 16.0922
13.9366 101.129 6.82278
21.837 96.4638 6.27003
-14.2631 117.925 0.0832982
-9.54128 115.254 -5.78313
-15.6022 118.393 8.9151
20.5133 96.7805 18.1068
-1.43921 109.839 12.1001
-14.0281 117.347 9.39631
16.7519 99.1642 8.35884
-8.08593 113.789 10.1205
14.0958 100.527 13.4
-20.5319 121.182 5.91305
15.6885 99.5285 14.7833
-13.5369 116.983 7.09617
-20.6211 121.138 8.01495
13.7422 100.834 6.76424
22.0966 95.8997 6.50748
14.2096 100.361 10.8371
-7.99361 113.466 10.6228
-14.9463 117.686 3.92426
19.6897 96.8358 17.4183
-13.0996 116.77 -4.44895
20.1552 96.4757 17.9706
5.75539 105.518 -3.45826
-20.1304 120.493 8.81379
-13.7242 116.71 8.01012
12.9728 101.101 0.0584346
-14.3241 117.156 3.00582
3.47421 106.424 10.7454
-3.0278 110.22 12.4578
-2.11867 109.943 -3.69764
-15.4714 117.509 8.896
12.8811 100.806 6.55332
16.2218 98.5948 15.6676
28.4785 91.3822 14.1983
17.6861 97.9703 4.46342
10.3895 102.085 9.11531
-2.9367 109.865 12.5694
1.97534 107.387 -4.27801
19.0527 96.7436 17.2824
6.43588 104.706 -2.87914
-14.1088 116.86 -4.06765
0.341658 107.902 11.1836
-4.08553 110.877 -3.27671
-6.09736 111.592 13.0576
-20.3085 120.13 6.18218
-5.5364 111.635 -3.99186
-0.375801 108.569 -4.39322
17.9162 97.5123 4.63359
19.4467 96.573 5.65538
-10.8011 114.357 8.3167
-13.3307 116.155 -4.45012
-16.8648 117.857 9.07301
14.5248 99.3519 6.44467
14.2287 99.661 0.768049
-4.89087 110.632 12.8814
-5.5819 111.325 -3.9542
15.1566 98.6709 9.89532
-18.7822 118.725 10.1036
16.0897 97.9588 15.2991
-15.9748 117.294 0.239411
23.1461 93.9644 7.80159
15.8713 98.2853 3.94332
-4.48977 110.057 12.8705
16.1883 97.9995 4.09551
16.6658 97.6696 4.30671
-16.8505 117.355 9.09043
-8.2913 112.214 10.3001
12.1885 100.381 -0.737109
11.5586 100.725 -0.990202
4.64077 104.878 -3.94267
-9.33546 113.19 -6.00424
-15.502 116.531 5.49325
13.3384 99.2949 12.624
17.3153 96.8575 15.8783
5.75801 103.808 10.7059
22.6958 93.8617 7.60427
-2.48725 108.989 -3.84725
-10.0313 113.155 7.54775
13.8425 99.0458 6.38524
-20.2424 119.161 6.68494
-19.1024 118.391 9.74748
9.12286 101.92 -2.6497
-0.172137 107.449 -4.80914
-15.7395 116.485 1.56653
-5.82124 110.306 12.8839
4.76751 104.095 10.6988
28.525 89.9089 15.3732
28.6404 89.8779 13.2936
23.1708 93.2245 8.08867
-15.5617 116.178 5.67469
-10.9515 113.742 -6.00354
23.8413 92.5527 18.4088
13.7091 98.8062 6.40176
13.9451 98.6607 6.39639
12.385 99.5742 6.54837
21.3728 93.9329 19.2283
1.15913 106.478 -4.58973
-15.053 115.775 4.4812
10.1867 100.751 8.493
15.4333 97.7589 4.00258
14.3069 98.2551 10.1905
-13.9103 115.304 -4.57386
-19.6455 118.43 5.88326
5.2383 103.924 -2.82823
0.883604 106.135 11.1522
7.64883 102.123 11.122
-19.5968 118.287 8.47829
-19.116 117.95 9.35073
-9.4704 112.637 -6.08549
15.1799 97.6329 9.8603
13.2563 98.7064 11.6475
28.382 89.5183 13.2589
14.2226 98.1367 2.75692
10.2289 100.315 8.30475
11.2703 99.8951 -0.683828
28.5831 89.2055 15.7981
-5.311 109.317 12.8184
-10.7993 112.66 7.01595
-4.11556 108.539 13.0376
26.6289 90.3781 12.1675
-10.6553 112.843 -6.14707
8.33868 101.128 11.22
15.6265 96.9184 6.81225
-7.07786 110.612 -4.82759
13.461 98.2703 2.119
15.0884 97.0997 9.87104
20.9746 93.3823 18.9266
28.6586 88.8774 15.2424
-5.67318 109.652 -4.40445
17.7406 95.2726 15.4035
26.3125 90.2818 11.9872
9.21713 100.735 -1.8347
6.43029 102.05 11.0936
-8.1202 111.049 -5.48693
-16.7902 116.055 -1.26735
19.5727 94.3507 6.77873
-15.2 114.935 3.22791
28.7273 88.66 14.5172
13.1864 98.1196 2.20161
6.61539 102.099 -2.0115
-15.173 114.799 5.06209
17.9292 95.1116 5.87155
7.64247 101.014 11.5645
13.0815 97.7466 12.5379
-16.2474 115.357 -0.0184237
-9.24013 110.973 9.33446
-2.86441 107.521 -4.12544
15.3183 96.4218 9.02366
4.37462 103.138 -2.86674
12.9548 97.9106 2.38796
14.0214 96.9846 13.7327
-12.1546 112.555 6.49705
-13.3015 113.193 6.30325
10.7834 98.9154 7.79743
16.3369 95.4873 13.0147
17.2301 94.9266 14.0774
13.4732 97.4073 3.3538
13.2311 97.4379 6.48234
9.96885 99.4388 -0.384555
19.0548 93.6592 15.6995
8.934 100.073 -1.32291
21.1391 92.2923 18.9278
22.7883 91.3122 18.8711
-18.4792 115.917 8.46045
-1.45646 105.586 12.353
11.8018 97.8705 7.30665
-9.38506 110.343 9.03385
-18.9237 115.99 8.04543
-14.7638 113.823 -4.55661
-4.27933 107.571 -4.1677
13.7452 96.7124 3.69194
-14.2155 113.182 6.08999
-2.34108 106.403 -4.656
13.3125 96.6572 13.6572
16.2812 94.8921 12.5528
-18.8453 115.77 7.91312
17.6892 94.0083 13.9419
16.2228 95.0271 5.15043
-15.286 113.713 -4.11839
18.0546 93.7398 6.01621
7.54185 99.7929 11.4865
-7.77896 108.81 11.7213
26.4646 88.5414 12.5291
-4.98019 107.106 12.7042
13.9861 96.0321 6.92349
11.3847 97.5404 7.38171
-17.0675 114.476 -0.668362
15.141 95.1589 8.42172
0.932308 103.898 -5.01006
-7.14294 108.61 -5.06779
5.87337 100.48 11.843
25.1963 89.0639 11.2404
24.2907 89.6232 10.2865
3.00404 102.534 -3.69538
-15.4369 113.164 5.32966
28.3013 87.073 13.9423
-16.0081 113.499 3.70334
-9.36491 109.415 9.50916
-6.25051 107.502 12.3319
0.856865 103.314 11.5247
6.14922 100.119 11.9116
0.47909 103.463 11.7194
9.32042 98.5347 -0.0830628
10.6844 97.6823 1.43664
-10.2587 110.231 -6.25135
12.2817 96.43 11.1313
9.03133 98.3638 9.58104
1.39868 102.787 11.4412
2.31055 102.224 11.4405
-10.6866 110.01 6.6485
26.9093 87.6077 13.1526
10.5272 97.3979 7.86834
19.6122 91.7547 17.3448
-15.4513 113.014 -4.09233
21.439 90.8045 8.89694
-3.26558 105.739 -4.72054
6.3269 99.9541 -1.96385
14.3783 94.8019 12.9528
-2.56399 104.797 12.7596
7.86377 98.6428 11.4239
-16.8404 113.507 0.298917
13.1213 95.6611 3.31143
26.3185 87.621 12.6838
5.57335 99.883 11.9871
22.1177 90.1584 9.39896
12.9623 95.7266 3.20472
-12.9521 111.225 -5.82892
-13.7823 111.415 5.98521
9.51702 97.5639 8.68594
26.2212 87.5729 12.6022
-0.184229 103.614 -5.19301
9.48769 97.6785 0.433798
10.7169 96.7375 7.51557
13.192 95.1566 10.6273
-16.4227 113.01 -3.18767
-10.5534 109.591 -6.25916
-10.7274 109.295 6.73518
13.0832 95.1895 7.39835
2.10492 101.825 -4.08677
-15.0493 111.966 -4.5455
-10.2279 108.775 7.74172
1.6957 101.973 -4.64059
5.98784 99.0001 12.1087
-10.2823 108.687 7.6643
-0.254777 102.615 12.3692
25.568 87.1175 18.3347
19.4957 90.6647 18.1551
28.4447 85.4604 14.4568
-10.6346 109.051 -6.28268
15.5721 93.1921 5.36085
25.4037 87.1914 11.9205
19.2932 90.9022 6.82473
20.1671 90.0884 18.298
13.5495 94.1852 9.04299
28.9592 84.893 15.1922
-8.97968 107.838 -5.82071
24.4236 87.4572 18.281
21.355 89.4796 9.32547
17.4868 91.7982 6.22498
26.9254 85.8783 18.0891
-6.65555 105.876 11.8322
13.4101 94.0553 8.43114
28.843 84.7667 14.8208
21.6739 89.135 9.6219
25.6257 86.6861 12.3235
-15.3016 111.059 4.99106
-2.96895 103.567 12.8181
-3.86768 104.532 -5.09445
-11.4927 109.04 -6.296
-16.5134 111.749 2.98358
-3.07958 103.499 12.836
-8.57033 107.176 -5.63818
28.9219 84.4466 14.9493
11.6243 94.8624 7.20672
14.3326 93.2407 7.39122
19.1444 90.1232 17.5424
-14.9828 110.862 -4.6949
11.1159 95.0841 7.2549
-16.038 111.217 3.96941
28.5068 84.5253 17.7066
-16.8597 111.733 2.13117
23.206 87.7854 11.0061
7.00802 97.2896 11.7695
4.09958 98.9917 12.3021
24.0065 87.2384 11.4493
-11.3258 108.521 -6.30221
16.5313 91.5764 12.1629
18.9152 90.0286 15.9159
5.13583 98.2572 12.2877
7.99699 96.5591 11.1906
8.41435 96.3035 10.6386
12.0512 94.1838 8.97787
-8.48315 106.665 -5.7852
3.24485 99.6255 -1.77446
-4.09989 103.519 12.8228
0.827307 100.611 12.3895
12.7594 93.667 6.99799
10.011 95.1838 8.91591
-4.78558 104.276 -5.19684
-5.60923 104.627 -5.43074
12.814 93.2806 12.3716
11.87 93.7842 9.19639
-6.3166 104.912 -5.63852
12.3782 93.4263 7.62871
11.6236 93.7936 10.7307
-0.844194 101.089 12.9861
3.84023 98.312 12.4881
15.8823 91.2868 5.96653
23.1872 86.6448 17.907
-8.63225 106.031 -6.05334
21.6297 87.5163 17.8924
28.9102 83.2385 16.4164
-15.9842 110.28 -3.71143
13.3896 92.5743 8.67318
10.9231 94.0481 7.67154
-8.21722 105.66 -6.12083
-9.49702 105.998 10.0382
-6.53013 104.169 11.7035
12.225 93.1515 7.65258
3.22243 98.3315 12.5818
13.4172 92.3788 9.63413
5.37452 97.0679 12.1164
19.4127 88.8379 7.88025
16.5021 90.4031 11.8121
-7.55737 105.057 -6.12868
14.0244 92.0245 4.50701
12.954 92.4395 12.2005
-14.7127 108.968 4.54938
13.583 92.132 8.35567
12.0214 93.0388 8.13534
-5.55698 103.779 -5.70054
28.4862 82.9742 15.7624
17.5005 89.6866 6.79821
9.90349 94.3139 1.22543
-9.45223 105.934 -6.24469
-8.15588 104.733 10.5244
12.7738 92.409 7.99942
-0.349842 100.481 -4.97718
12.2133 92.6719 7.91737
8.31063 94.9176 10.2879
22.7926 86.1664 17.7367
5.96965 96.5118 -1.19886
16.6292 89.8694 11.8278
14.3988 91.1903 11.3646
-16.0306 109.553 -3.55237
15.9999 90.367 6.16423
22.9119 86.1053 11.6028
-4.26002 102.568 -5.67215
3.42461 97.5322 12.5634
16.8803 89.5349 12.4511
18.8289 88.4219 7.92294
-6.74659 103.891 -6.16151
12.6959 92.149 2.9299
-4.95886 102.773 -5.73027
15.7856 90.0966 9.92801
28.6825 82.2992 15.9698
17.8737 88.8994 7.33636
7.1463 95.1147 11.4024
15.6509 90.1085 10.0166
13.5289 91.4211 7.02591
13.041 91.6779 8.02411
12.4312 91.987 9.25097
-17.0908 109.645 0.865391
3.7185 96.9706 12.4318
12.0633 92.0487 8.50457
-10.2511 105.62 -6.49474
12.7333 91.6365 8.89444
18.6633 88.1525 7.96114
12.9514 91.5111 8.04349
12.266 91.905 7.87509
12.9251 91.5395 6.67914
16.629 89.1997 10.8577
-5.17118 102.483 -5.88879
7.06155 94.7926 11.0367
13.0802 91.2645 9.15436
11.7258 92.014 9.59171
5.8597 95.3965 12.1035
-5.23158 102.4 -5.9342
12.4274 91.5796 9.01896
11.5447 92.2307 2.23894
-13.8412 107.43 -5.61649
18.1658 87.9241 16.4073
26.099 83.2154 17.1014
11.1187 92.388 2.01747
12.2151 91.5532 8.92916
-11.4823 105.559 8.08132
4.71562 96.1957 -0.84856
24.9079 83.8913 13.3593
14.7049 89.9911 10.5238
22.9097 85.0915 11.9824
-7.31603 103.414 -5.97575
18.9155 87.5383 8.29005
27.1613 82.3867 16.9
-16.7996 108.783 -1.30985
3.31737 96.5403 12.4334
3.37881 96.8386 -0.791774
29.0303 81.1931 16.7056
28.9145 81.2731 16.2169
-14.2669 107.083 3.39872
17.9212 87.7399 14.4891
-5.64398 102.18 -6.11715
14.0569 90.0341 10.8445
11.8975 91.3385 9.45527
12.7032 90.8949 7.09352
9.72205 92.8083 0.967117
-15.9401 108.056 -3.09974
24.1839 83.8061 16.7568
-16.059 108.089 -2.91513
21.5287 85.4993 10.5994
7.55687 93.7784 9.68674
10.0937 92.4782 1.28699
-16.0763 107.861 2.68025
-16.8143 108.365 -1.28857
12.5879 90.7135 9.10576
14.198 89.7919 4.72642
-0.745013 98.4094 13.053
-9.81305 103.779 9.40221
4.77282 95.018 12.3042
11.5458 91.1138 7.71029
-13.4903 106.005 4.14766
-11.9602 105.013 7.56595
27.4698 81.4271 17.9825
22.7758 84.314 12.1636
-9.26464 103.699 -6.02188
-4.47369 100.366 12.1824
23.2622 83.9315 12.5527
17.4674 87.3251 13.7469
17.1586 87.5222 12.8032
15.9975 88.3401 6.32918
18.8778 86.3063 16.9377
12.6981 90.1523 9.00248
25.7959 82.2686 14.5245
24.6938 82.7856 16.4021
2.01288 96.6151 -0.998781
-7.58672 102.392 -5.78773
-12.4738 105.225 -5.42493
14.1521 89.1194 8.92932
19.0271 86.2069 8.82098
10.156 91.4708 7.85628
16.5557 87.7115 6.73697
12.0245 90.3353 8.4246
-16.7028 107.481 1.32306
-6.17721 101.416 -5.7316
13.845 89.1668 10.4449
12.6761 89.8233 9.06865
13.2552 89.4896 6.75299
12.2458 89.9732 11.1294
3.9873 95.1481 -0.859858
-0.118579 97.6355 -3.35597
4.52941 94.4757 12.4607
11.3129 90.5051 7.77751
16.0253 87.6531 8.62695
18.947 85.7124 16.7579
14.8998 88.3052 8.45497
10.8851 90.6524 9.4437
15.2874 88.0411 8.99724
11.2624 90.3882 9.19357
1.20329 96.216 12.7684
15.9133 87.5316 11.763
11.1364 90.3973 9.9932
26.9726 80.8921 15.4336
24.0652 82.6119 13.5103
1.30044 96.0841 12.7494
-12.802 104.553 6.6674
0.18639 97.0742 -2.34272
24.2724 82.3557 16.1303
-1.7913 97.8587 12.0826
22.6323 83.304 16.2338
5.5028 93.55 11.2698
-9.26489 102.688 -5.70657
24.8522 81.9556 15.2834
-6.91993 101.188 -5.47585
15.0353 87.8656 7.25801
16.8167 86.8071 6.95981
-11.8859 103.707 7.95902
10.79 90.4365 1.82931
10.957 90.159 8.66663
24.2461 82.0966 15.6653
-5.13074 99.5581 11.7288
11.8548 89.7549 2.24644
9.91036 90.7468 8.1553
6.98074 92.4242 9.64291
-12.7127 104.101 6.80336
-2.00218 98.0359 -5.19645
15.4923 87.3143 8.62364
-5.05935 99.3701 11.6712
11.0505 89.887 8.26455
9.86831 90.5308 10.0706
18.0504 85.4694 16.3451
24.5704 81.6614 14.0047
2.8034 94.897 -0.536254
19.0255 84.826 16.4875
15.1107 87.2577 9.23082
12.1162 89.0049 9.66159
11.6607 89.2566 9.71034
-3.43714 98.1303 11.7442
4.41058 93.4494 12.422
12.3922 88.8018 9.47852
-10.0761 102.068 9.42728
6.68843 92.4222 -1.04977
-15.3828 105.49 -3.261
-12.7663 103.996 -5.55182
3.55831 94.1973 -0.784338
14.0615 87.8256 5.4008
0.232181 96.1575 -1.32357
15.5559 86.7625 11.0423
23.4361 82.0083 14.6595
17.1897 85.7003 13.9987
0.827941 95.7285 -0.943098
16.762 85.9636 11.3641
22.2933 82.5718 15.4774
22.8549 82.2536 14.9247
22.9997 82.1692 14.774
-5.29566 98.9756 11.3629
8.26193 91.2484 -0.00515954
11.8062 88.9418 8.12481
23.9989 81.5938 13.5861
1.71637 94.7807 12.6138
9.95893 90.1571 1.30544
17.8475 85.3173 8.10908
12.3158 88.6471 5.50587
26.2322 80.098 16.9783
11.3361 89.282 1.96603
8.12055 90.9883 9.53802
17.6599 85.2468 12.3923
-14.3687 104.365 4.04668
15.2233 86.6721 10.4515
14.5184 87.1435 6.67319
15.2388 86.583 9.38336
16.3111 85.859 12.1397
19.7806 83.8316 9.9392
5.57218 92.455 -1.01365
18.8528 84.2095 14.2002
0.192113 95.6224 -1.14182
-14.0095 103.821 5.1461
-0.433572 95.627 11.6505
6.31004 91.9579 -0.996868
-3.02841 97.153 11.3393
16.0409 85.8821 10.6406
9.11512 90.1718 0.691453
6.45213 91.7799 -0.942735
21.1479 82.6837 14.835
14.4232 86.9115 4.44039
3.94238 93.2023 -0.887997
-12.8046 103.21 -5.76338
14.5755 86.6212 9.11132
-10.2986 101.312 9.23119
18.4895 84.1604 13.1649
6.46795 91.6108 -0.884579
-3.38053 97.4831 -5.21865
17.7628 84.6366 8.20393
24.7554 80.3338 14.4019
4.75735 92.225 11.6019
16.3369 85.368 11.8922
3.15941 93.4707 -0.652197
-2.10967 96.2855 11.1774
16.186 85.3939 12.5167
-8.77113 100.207 10.1217
14.1519 86.6513 9.84437
15.5579 85.8125 9.79293
14.9544 86.1603 9.60882
4.44048 92.2513 11.8566
14.3702 86.4479 7.64629
14.8706 86.0095 10.8751
-0.637103 95.1465 11.2117
21.5805 81.9656 12.9641
14.6096 86.1907 5.27998
-2.72281 96.6597 -4.35302
-0.22761 94.7808 11.4873
14.3631 86.3073 5.03438
-0.943456 95.5161 -1.52727
-0.362704 95.1621 -1.173
-1.43001 95.7236 -2.03885
0.19216 94.7217 -0.792267
14.7088 85.9732 5.42332
-5.60332 97.8397 10.63
22.9913 80.8715 12.9186
16.8437 84.6417 7.45195
0.622691 94.1086 12.0896
-6.01374 98.4595 -5.75263
-16.4353 104.495 -1.1581
13.0546 86.9351 3.58916
2.25027 93.4206 -0.372221
11.0059 88.1548 2.55171
14.402 85.911 9.92969
-7.11424 99.0192 -5.81639
15.255 85.3759 10.5626
5.76693 91.2576 -0.918044
11.7138 87.4816 7.76435
-14.5771 103.111 3.97308
-9.83888 100.438 -6.13234
13.2755 86.4979 4.14525
-8.1187 98.9806 10.1989
1.84757 93.3495 -0.382324
14.7336 85.3911 12.98
-15.598 103.715 -4.31648
6.80901 90.0625 11.2433
-13.4348 102.129 6.01158
-3.08694 95.8647 10.5737
-3.33276 96.0083 10.5458
11.7548 87.1081 8.1493
-16.7248 104.123 0.378863
14.8584 85.162 10.3832
14.9078 85.1548 8.6605
-4.28662 96.8542 -5.30116
12.3035 86.7966 3.33438
-12.7474 101.503 6.79248
13.2099 86.2013 4.7823
8.58713 88.8078 9.72235
-14.6943 102.71 3.14121
5.79304 90.3674 11.2521
14.901 84.9859 8.40379
-8.78433 99.2847 -6.03011
18.0522 83.0312 8.44253
-13.6068 102.091 -5.75008
7.787 89.0135 10.6842
-1.23571 94.3457 10.5201
2.40036 92.1423 12.0699
4.22136 91.0416 12.2897
13.8399 85.4467 7.32087
-7.04853 97.6624 10.0001
9.48336 87.8991 9.50763
23.1227 79.6755 13.8736
21.0476 80.9465 11.2825
0.428089 93.39 -0.43826
-16.593 103.414 0.735896
12.2237 86.2007 7.08028
12.3764 86.1358 5.68181
3.69668 91.3587 -0.71412
8.02976 88.7438 0.769457
5.18878 90.453 -0.793466
-13.0121 100.981 6.56291
14.6975 84.5738 5.73993
6.75918 89.3911 -0.0333824
-11.782 100.123 7.89071
13.1268 85.4701 4.47122
22.969 79.3203 14.2817
-12.9294 100.796 -5.79566
-15.664 102.265 -4.50615
-11.5355 99.4272 8.05817
2.49975 91.0155 11.4484
21.2444 79.8797 12.6126
2.18722 91.1607 11.3351
2.70035 91.1405 -0.437428
0.347782 92.2379 10.6446
-13.5671 100.572 6.06315
12.2692 85.3637 2.53991
-9.71754 98.5268 -6.34734
-12.2497 99.6458 7.47762
1.53814 91.6376 -0.623331
22.9338 78.552 15.1754
-13.529 100.625 -5.74889
8.82897 87.1349 2.18452
-1.70067 93.3783 -1.28816
18.6364 81.0434 9.72042
-3.8 94.2516 9.46956
-11.2308 98.6593 8.21201
-5.01747 95.2736 -4.927
-5.32001 95.419 -5.02776
-2.35232 93.5998 -2.67771
-9.98582 98.1711 -6.35296
-13.1138 99.6516 6.57558
21.5064 78.9861 13.314
-1.67058 92.7793 9.25625
12.3472 84.5519 6.09808
-6.71685 95.7192 9.16457
13.8994 83.6092 5.2386
11.7896 84.845 5.69054
10.2998 85.6518 7.7117
9.17973 86.3594 2.94944
2.19424 90.4721 -0.461327
16.1597 81.9717 7.13442
8.38535 86.4799 9.48449
9.45553 85.6868 7.81948
-0.0597654 91.252 9.41236
10.7799 84.9003 5.70619
20.2674 79.0807 12.754
0.94321 90.8209 -0.737851
12.1278 84.0742 3.02315
7.7416 86.6911 1.88811
5.04383 88.0512 10.8554
9.07039 85.8475 1.0092
20.6165 78.7087 13.1422
-15.4556 100.19 3.35834
15.0807 82.0258 6.47882
-11.676 97.7837 7.82153
1.13147 90.3126 -0.638606
-13.7769 99.2255 -5.34548
8.88818 85.5468 2.27515
3.88173 88.2767 10.802
13.5388 82.7006 5.0646
5.68081 87.3957 0.619572
-16.516 100.418 1.50477
-3.74474 92.9022 -3.95838
-15.1142 99.3799 4.01737
3.00506 88.4818 10.3348
17.7243 79.7672 10.404
9.0213 85.0041 2.39283
5.33096 86.9699 10.1992
-1.84329 91.2586 -0.358102
3.47187 88.1116 -0.312182
4.02672 87.7019 0.0525934
3.91439 87.4822 10.3789
4.87889 86.8894 9.96245
18.1221 78.8808 11.5347
8.9781 84.4622 4.25118
12.6319 82.283 4.76501
2.65032 88.2868 -0.518471
-5.07898 92.9395 -4.19442
-16.1334 99.2884 1.64402
9.39258 84.0628 4.78438
-9.96385 95.2895 8.37078
-3.65958 91.7996 -3.62616
-4.68035 92.3826 -4.17654
9.81123 83.4094 4.35717
8.54659 84.0597 5.74621
13.6127 80.9825 6.22243
12.5803 81.3898 5.30134
-3.62814 91.1314 -2.66186
8.40394 83.8035 5.2661
-4.9657 91.4432 8.14387
-17.0757 98.6762 -0.793186
8.21797 83.5048 4.67321
-15.3958 97.4131 3.71616
-0.212285 88.5162 0.0998778
6.4932 84.3561 7.34377
-4.26819 90.5851 7.85203
0.136891 88.1741 0.0103074
-16.3014 97.949 -3.11281
-3.70866 90.4207 -1.76515
-14.1274 96.4049 4.75422
-1.57442 89.0304 -0.120397
1.14004 87.4259 -0.278689
0.295112 87.901 0.00022851
-3.15958 89.9207 -1.32107
-4.20181 90.4571 -2.94715
6.31332 83.9658 6.74799
17.5763 77.16 10.9892
-11.6277 94.4755 7.16904
-13.0903 95.5937 -4.53077
-13.1479 95.6232 -4.51439
-0.351986 87.9289 0.290762
7.54539 83.1847 3.22116
16.7554 77.5338 10.2342
-6.02431 90.9824 8.09716
3.95065 85.0794 8.32373
16.0638 77.8622 9.91571
-15.0098 96.5244 -4.05656
-15.4191 96.5651 3.36805
-12.974 95.0404 5.93873
-4.03176 89.8908 -1.88249
-5.22237 90.3497 7.69352
11.4371 80.5192 5.13163
2.60787 85.5613 8.60513
-10.8853 93.8909 -6.0411
5.45041 83.8513 1.58938
-9.98294 93.0155 -5.92128
6.04158 83.2369 3.89807
-1.98391 87.8081 7.84351
-5.38289 90.1259 -4.41136
3.83076 84.476 -0.356042
3.01014 84.6838 7.93211
-3.65464 88.6202 7.55748
-13.4815 94.7291 -4.31038
-14.9058 95.3238 3.33788
4.57188 83.8137 1.14152
5.32725 83.3018 3.68242
-0.611287 86.6841 7.99459
3.83503 84.2 -0.203971
-10.2043 92.6489 -6.12781
-16.9641 96.4138 -0.449379
-9.44596 92.0989 -5.97054
-15.8257 95.653 2.55437
-5.20015 89.213 7.16877
-16.5818 96.1143 -2.44726
-16.4543 95.9185 1.74242
4.419 83.5671 1.03453
6.33383 82.2451 3.72803
8.52876 80.9388 4.03489
-9.61286 91.5389 6.84102
5.14217 82.8233 4.33127
2.15638 84.4819 7.63619
-14.2533 94.245 4.19864
-14.2326 94.2212 4.24586
-9.00414 91.0491 6.86832
-12.6671 93.0325 6.00816
-16.1899 95.1257 2.08855
2.36185 84.0857 2.20718
10.5588 79.0268 6.08773
-3.40524 87.2295 7.45314
-16.9612 95.3883 -0.394533
-4.52159 88.0513 -1.9264
-7.22689 89.7363 -5.65707
-9.89492 91.3159 -5.93903
-13.4981 93.3949 -4.19407
2.75677 83.6113 2.53027
-12.4185 92.4372 6.04877
3.79135 82.862 4.94234
9.30852 79.5174 5.20269
3.25706 83.17 -0.403868
13.5702 76.8299 7.99033
-13.6643 92.9277 5.02939
-15.9832 94.4989 -2.92374
-2.21847 86.2285 0.436094
8.77472 79.4203 5.18846
-6.25786 88.2164 6.72668
-7.60607 89.3095 -5.76521
1.30336 83.6021 6.60782
1.77492 83.1204 5.24444
-16.7844 94.1528 -1.73563
-5.08146 86.9653 6.88515
-16.568 93.9429 -2.07319
-12.1508 91.4005 -5.14104
3.06043 82.1835 0.355067
1.41188 82.9996 5.18025
12.0128 76.6031 7.19787
-14.6795 92.6355 -3.5692
-17.0196 93.9182 -1.00221
2.20936 82.4646 1.36461
1.64169 82.5773 4.61705
-8.61946 88.5667 6.8142
-9.51326 89.0978 6.53482
2.39254 82.2247 -0.413924
2.35319 82.1738 1.67483
6.79259 79.4895 3.97005
-15.8052 92.9633 -3.0868
0.809544 82.9858 1.88366
-17.0023 93.588 -1.14819
-2.92687 85.1534 0.129071
1.92179 82.1528 2.51923
-14.2564 91.6491 4.21681
-10.941 89.47 5.94134
-9.64336 88.94 -5.79131
-11.5019 89.9786 -5.22948
-15.8882 92.3823 1.58189
-7.97053 87.5148 6.58724
-16.956 92.9925 -1.09101
-16.8581 92.8754 -1.29864
-10.6818 89.0092 5.91585
-11.4695 89.4811 5.64216
1.52764 81.8614 1.4135
-4.78722 85.4303 6.51517
-9.36595 88.4235 -5.71979
-6.44138 86.5887 -4.08478
-16.8788 92.6595 -1.18558
2.66443 81.0004 2.45674
-10.9976 88.9942 5.72747
-6.30593 86.1705 5.99424
1.07115 81.9283 0.795019
-0.612303 82.8708 1.19137
-0.486251 82.6857 4.84852
6.04928 78.8211 3.91162
-15.9897 91.9869 -2.82049
-5.42948 85.4462 6.17554
-8.50379 87.2242 6.51161
1.2479 81.5926 -0.486763
-5.53326 85.6398 -2.47764
7.67884 77.5275 4.16549
6.63604 78.1238 4.88057
8.15884 77.2082 4.36288
-2.0889 83.305 1.21518
-15.3083 91.1987 -3.16392
-2.01667 83.2224 1.10502
-7.81523 86.7887 -5.31271
-0.0440844 81.9709 0.0536523
-16.2748 91.5528 -2.44916
-0.490531 82.0625 3.72555
-15.961 91.1501 1.50976
-1.4852 82.5165 4.36417
-1.31883 82.3725 4.14092
-5.58717 84.9823 -2.21675
-16.3325 91.1041 -2.2394
-5.70508 84.8055 -2.12168
-4.31961 83.7434 6.0307
-14.2352 89.8076 -3.05445
-1.25797 81.9454 3.07269
5.99437 77.5015 3.92487
5.59593 77.741 2.15912
-9.36541 86.7631 -5.04997
-5.45566 84.3462 -1.5089
-8.31488 86.1128 -4.6601
-9.93459 87.0051 -4.51937
-12.9954 88.576 4.27408
-7.84985 85.4826 5.97351
4.41852 78.1993 3.60979
-12.706 88.4303 -2.77273
-1.09243 81.3731 0.325734
-9.4286 86.0162 5.87998
3.4416 78.4508 3.07678
0.706152 80.1059 0.578476
-0.394148 80.5843 -0.91612
2.88215 78.5095 2.97061
-3.16643 82.1016 1.78989
-8.88421 85.5643 -4.77899
-6.28693 83.7604 5.22414
3.59507 77.9763 2.59811
-3.47952 82.1059 2.01714
-6.46874 83.4387 5.05035
-9.36469 85.4039 -5.49139
-12.8164 87.2796 -2.89785
2.92428 77.8344 0.0704496
-17.3183 89.7564 0.17785
-11.7583 86.3341 4.85923
-1.54702 80.3731 -0.91472
-4.2996 81.9008 2.03957
2.55678 77.8712 0.587137
-5.18627 82.4043 0.218988
-10.6883 85.7683 -4.87144
-7.45815 83.7168 -2.14451
2.25382 77.8827 0.721661
-1.81866 80.2111 -0.291082
-7.50517 83.4067 4.94092
-15.6468 88.3335 -1.28137
-14.1523 87.2906 -1.58728
-13.1155 86.5312 3.81894
-14.0221 87.2083 -1.95233
-9.95128 84.7334 -5.31644
-10.3694 84.7005 5.29752
-6.8463 82.7017 -0.305947
-8.35444 83.4689 4.45618
-9.53624 84.345 -3.19382
-5.55191 81.8238 -0.0899928
-12.0695 85.5015 4.51282
-4.71393 81.2425 -1.38477
-14.3126 86.7953 3.24228
-2.11773 79.6652 -0.251131
-10.6103 84.7856 -5.23073
-0.454824 78.5633 -1.15877
-1.06765 78.6586 0.358155
-16.1074 87.5019 2.24107
-0.812623 78.5008 -1.43259
-5.7366 81.329 1.72018
-8.70025 83.0273 3.5762
-5.6502 81.2013 1.14675
-14.2915 86.3071 -1.37559
-5.58698 81.1331 -1.13272
-1.44723 78.5929 -1.22381
-10.5575 84.0294 -5.16502
-5.89245 81.0882 1.07928
-2.0183 78.8482 -1.75093
-5.027 80.4968 -2.36059
-12.942 85.1462 -3.75401
-15.3782 86.4434 -0.228874
-2.49955 78.8404 -1.61912
-5.77231 80.7213 -2.55691
-11.535 83.9401 4.60339
-9.07887 82.4462 2.91406
-6.96218 81.2831 -2.91776
-16.7068 86.8988 0.108601
-14.9721 85.7921 -0.363928
-7.74047 81.342 -0.922103
-3.14817 78.5645 -2.44434
-8.93588 81.7028 2.44375
-7.3036 80.772 -2.33475
-9.53447 82.0771 -3.39365
-9.20027 81.744 -1.41649
-4.51928 78.8853 -0.122758
-10.4588 82.3455 -3.69089
-16.1529 85.5917 0.396372
-11.1961 82.7626 -3.77199
-16.56 85.7468 1.62186
-12.1631 83.2085 -4.66487
-5.96461 79.4034 0.399887
-11.0242 82.4895 -3.651
-11.5731 82.8034 -4.59296
-4.08917 78.3292 -2.8767
-9.95781 81.4687 2.49621
-5.73781 79.1003 -3.09491
-14.6239 84.3289 -2.16325
-8.21485 80.5195 -2.10443
-12.5239 83.1249 -4.53879
-6.12655 79.235 -2.47015
-16.5833 85.2779 0.643402
-4.70668 78.2838 -1.94858
-10.898 81.9189 -3.53555
-10.0012 81.3242 -1.5212
-5.38496 78.623 -3.01154
-12.3134 82.7024 -2.42263
-5.05562 78.3781 -2.17018
-13.8352 83.3013 3.12828
-11.7796 82.2173 -3.3932
-6.5486 79.0241 0.442702
-13.6204 83.2031 -3.87732
-13.6035 83.1522 -3.72006
-10.1115 81.0199 -1.52714
-11.6583 81.8041 2.86854
-12.2173 82.2617 -3.89102
-14.4184 83.5291 -2.63972
-13.6263 82.6892 3.22337
-11.7928 81.7282 -3.54653
-12.6018 82.1032 -3.38115
-9.34382 80.1183 -3.2964
-15.2969 83.4303 2.23153
-13.8796 82.5573 -2.44939
-13.9136 82.5005 -4.30832
-16.7596 84.0034 -0.35314
-15.8992 83.3583 0.666931
-10.0964 79.8368 1.51111
-16.4126 83.5846 0.807823
-8.31662 78.781 0.680633
-14.8719 82.6929 -2.09305
-15.8963 83.1159 1.87507
-13.3947 81.6348 -1.85414
-13.651 81.8045 -4.22146
-15.4472 82.7398 -2.34811
-13.0589 81.2874 -1.40546
-10.7637 79.7917 1.42229
-14.8106 82.2106 -0.603801
-14.9311 82.2098 1.2829
-14.5727 81.9744 1.18308
-13.1522 81.0839 -3.02083
-13.5338 81.1523 2.3338
-15.1093 82.194 -2.0442
-14.794 81.9529 -0.685562
-14.4485 81.7659 -1.41124
-14.5279 81.698 2.55489
-12.7633 80.7333 -0.791909
-14.3507 81.6824 -2.26947
-14.0875 81.3919 -3.74746
-15.9151 82.4255 -2.06271
-15.1652 81.9738 -2.10689
-7.75431 77.5444 -2.52567
-15.8431 82.3017 -2.10398
-15.7198 82.1644 -2.20176
-11.543 79.3888 -2.71872
-14.465 80.9986 1.8761
-14.8972 81.3573 -3.52353
-14.1865 80.7404 1.66913
-15.0593 81.2812 -0.965541
-13.6138 80.2958 -0.229904
-16.2728 81.7699 -1.39725
-15.8453 81.4281 -1.42424
-9.28941 77.5341 -2.84522
-10.1435 78.0428 -3.32261
-10.51 78.0572 -3.22876
-12.5217 78.9411 0.0278151
-13.713 79.5475 -2.94025
-10.4968 77.4336 -1.63647
-12.3389 78.2756 -1.27179
-13.5094 78.7901 -2.69614
